# This PCD file was generated using the MATLAB® pcwrite function
# from Computer Vision Toolbox®.
# .PCD v.7 - Point Cloud Data file format
VERSION .7
FIELDS x y z intensity
SIZE 4 4 4 4
TYPE F F F F
COUNT 1 1 1 1
WIDTH 1234
HEIGHT 1
VIEWPOINT 0 0 0 1 0 0 0
POINTS 1234
DATA ascii
-9.218948 -4.899739 2.398015 5.000000
-9.176017 -4.913952 2.390852 16.000000
-7.308530 -4.900065 2.351642 0.000000
12.534480 -4.937498 2.353654 15.000000
-8.186004 -4.789266 2.354627 14.000000
-8.089355 -4.775376 2.332218 16.250000
-7.989304 -4.821356 2.316716 32.666668
12.537530 -4.802702 2.345622 15.000000
-8.145310 -4.697011 2.334386 4.000000
-9.213622 -4.603788 2.365779 0.000000
-9.167778 -4.616928 2.357720 37.000000
12.534725 -4.644268 2.335411 13.250000
12.531292 -4.486878 2.325429 11.000000
12.539795 -4.334982 2.318029 7.000000
12.592368 -4.176680 2.317857 2.250000
12.672955 -4.027384 2.323192 2.750000
12.696280 -3.903467 2.320611 6.500000
12.703236 -3.840172 2.318545 8.000000
12.711174 -3.733924 2.314587 8.750000
12.708913 -3.603458 2.307875 8.500000
12.701097 -3.536654 2.303400 8.000000
-8.662348 -0.887442 2.327200 8.000000
-8.644067 -0.766936 2.319282 12.000000
12.430011 -0.586192 2.398796 24.750000
-9.374704 -0.397832 2.329567 0.000000
12.428546 -0.429672 2.397281 24.750000
12.428055 -0.273367 2.396335 25.250000
-9.306431 -0.233914 2.311255 23.000000
-8.900337 -0.237725 2.379527 56.000000
12.421181 -0.136588 2.394568 26.666666
12.419278 -0.000003 2.394064 28.250000
-8.740896 0.224319 2.336839 9.666667
12.415352 0.156020 2.393496 27.750000
12.413392 0.312051 2.393685 25.250000
-9.382391 0.398184 2.331495 2.000000
12.409472 0.468056 2.393874 26.000000
12.404592 0.604520 2.394064 25.666666
12.400590 0.682446 2.394064 32.000000
-8.625366 0.774345 2.314462 0.000000
12.405164 0.760910 2.395830 32.000000
-8.929168 0.886526 2.398117 39.000000
12.397762 0.936548 2.396714 31.500000
12.407320 0.858904 2.397471 31.000000
12.393864 1.073425 2.398102 28.000000
-8.801474 1.360981 2.380216 11.333333
-8.676629 1.416186 2.349576 16.000000
-8.733129 1.453592 2.366101 11.000000
-9.916629 2.134995 2.329961 20.000000
-10.136291 2.484083 2.397120 6.000000
-9.871159 2.452010 2.336229 17.000000
-9.958500 2.556932 2.361600 13.500000
-9.999187 2.718596 2.380106 0.000000
-9.902257 2.658859 2.355034 1.000000
-8.347526 2.843354 2.356806 90.000000
-8.800263 3.146461 2.320314 27.000000
-9.852048 3.304108 2.386822 32.750000
-8.911795 3.255962 2.355591 33.000000
-9.867002 3.423382 2.398911 17.600000
-9.398168 3.669862 2.317425 10.000000
-7.712237 3.853589 2.304134 57.000000
-7.909077 4.219660 2.395793 22.500000
-8.247606 4.300796 2.309327 9.000000
-7.293079 4.612274 2.306200 1.000000
-9.283033 4.656700 2.385479 2.000000
12.328581 4.661101 2.302712 15.000000
12.325565 4.815483 2.311891 15.000000
12.318114 4.969398 2.320610 15.000000
12.312490 5.125226 2.330019 15.000000
-8.847254 5.281244 2.366675 43.000000
12.304702 5.258592 2.337821 15.000000
-8.847022 5.402363 2.381002 15.000000
12.299100 5.393844 2.346311 15.000000
-8.668818 5.482315 2.355929 15.000000
12.299807 5.486519 2.352965 15.000000
-8.703596 5.562016 2.372495 29.000000
-7.564289 5.623886 2.340169 36.000000
12.294937 5.577276 2.358702 14.333333
-8.635437 5.692020 2.375629 32.500000
-8.596492 5.666192 2.364884 47.000000
-7.644375 5.646221 2.359446 13.000000
-7.552801 5.652272 2.342097 2.000000
12.287084 5.713950 2.367422 14.000000
-7.307766 5.760976 2.310291 7.000000
-7.279598 5.926523 2.330531 40.000000
12.284854 5.854362 2.377518 14.666667
-7.293557 5.995276 2.344025 23.500000
12.286970 5.998112 2.388762 14.000000
-8.982773 6.208373 2.304669 2.000000
-7.378805 6.163100 2.386915 60.500000
-7.744500 6.593468 2.336229 29.500000
-7.697078 6.636910 2.334439 45.000000
-8.733645 6.686992 2.321603 49.000000
-8.675705 6.707765 2.314582 51.000000
-9.065666 6.828991 2.395535 3.000000
-8.984914 6.812509 2.379839 37.000000
-8.365658 6.987338 2.300539 53.000000
-7.139870 7.117473 2.315634 68.000000
-7.472198 7.240784 2.389956 27.500000
-9.539738 7.496254 2.338793 1.500000
-9.505135 7.590564 2.344850 5.000000
-9.420609 7.620495 2.335764 26.000000
-9.088066 7.786667 2.306993 1.000000
12.450210 8.097708 2.327887 5.000000
12.445773 8.262766 2.341513 5.000000
-8.687284 8.339544 2.321378 2.000000
12.451494 8.408165 2.354934 5.000000
-8.393963 8.634715 2.321378 2.000000
12.446917 8.548223 2.366702 5.000000
-8.377711 8.672340 2.324407 1.000000
12.444556 8.720324 2.381774 5.333333
-8.246526 8.754060 2.318350 40.000000
12.440638 8.864023 2.394265 7.000000
-8.021858 9.013037 2.325921 16.000000
12.277636 9.131509 2.398291 3.000000
-7.854833 9.344451 2.353178 33.000000
-7.788421 9.456891 2.361658 10.800000
-9.529927 9.616814 2.365357 58.000000
-9.542459 9.720653 2.379813 1.500000
-9.425863 9.877397 2.385320 0.000000
-10.430889 10.503941 2.320247 3.666667
-8.801517 10.500534 2.393753 19.250000
12.195787 11.242170 2.303094 12.000000
-9.328732 11.405601 2.309511 20.000000
12.190067 11.379412 2.315472 12.000000
-9.361696 11.568991 2.332635 1.000000
-9.296859 11.612701 2.331603 6.000000
12.266105 11.558991 2.340227 5.000000
12.382099 11.741961 2.369384 5.000000
12.378098 11.849512 2.379286 5.000000
12.374521 11.995995 2.393039 5.500000
-8.269437 12.287684 2.321486 13.000000
-7.758653 12.479336 2.303214 10.500000
-7.972397 13.019977 2.392923 12.000000
-7.200601 12.947555 2.322106 3.000000
-7.182805 13.011630 2.329538 12.000000
-7.600363 13.270984 2.397052 8.000000
-7.314697 13.349498 2.385903 21.000000
-9.679591 13.540269 2.311071 14.000000
-9.714997 13.680447 2.329775 5.000000
-9.429087 13.775923 2.317947 27.000000
-9.263510 13.811541 2.309145 1.000000
-9.884368 14.011986 2.380937 4.000000
-9.195091 13.945089 2.319323 14.000000
-9.321147 14.331397 2.373785 5.000000
-9.293278 14.387233 2.378186 18.000000
12.180086 14.733595 2.315023 8.000000
12.332811 14.682086 2.322077 5.000000
12.124857 14.856043 2.322237 12.000000
12.114742 15.035515 2.338346 7.000000
12.109448 15.174676 2.351090 5.000000
12.108590 15.271764 2.360227 5.000000
12.097414 15.356520 2.367441 5.000000
12.100508 15.460115 2.377539 6.000000
12.093150 15.601717 2.390524 5.000000
-8.938380 17.595667 2.390043 36.000000
-8.741117 17.756475 2.396775 2.000000
-8.328999 17.756296 2.375135 9.000000
-8.238280 17.853907 2.381226 6.666667
-8.142955 17.942726 2.386196 2.000000
12.207579 19.051807 2.339904 1.000000
12.209610 19.187412 2.351836 1.000000
12.197414 19.369331 2.367060 2.500000
-10.592878 19.615660 2.305343 1.000000
12.188162 19.558266 2.383106 3.000000
12.199937 19.714878 2.397507 3.000000
-10.508657 19.755596 2.313983 3.000000
-9.293497 20.477905 2.325504 1.000000
-9.463753 20.680155 2.351836 24.000000
-9.304012 21.205177 2.394627 22.000000
11.894109 24.013119 2.301115 7.000000
12.069823 24.956512 2.380511 1.000000
12.072384 25.163187 2.396596 2.000000
11.704612 31.760880 2.314712 4.000000
11.703282 32.067406 2.334361 5.000000
-9.545841 -26.675159 2.432872 0.000000
-9.087157 -26.708620 2.422605 25.000000
-9.424723 -26.599836 2.423290 9.000000
-9.136036 -26.578184 2.413365 27.000000
-8.945971 -26.567074 2.407205 5.000000
-8.514235 -26.662554 2.403440 6.000000
-10.256273 -26.538370 2.443138 6.000000
-9.257891 -26.525394 2.412509 16.500000
-12.036409 -26.350529 2.487628 11.000000
-11.818348 -26.309303 2.476676 4.000000
-11.725912 -26.324457 2.474623 9.000000
-10.376098 -26.354738 2.432187 18.000000
-9.617610 -26.352592 2.408916 2.000000
-12.184952 -26.238235 2.484205 2.000000
-12.564349 -25.979025 2.478045 2.000000
-12.669075 -25.376945 2.435610 38.000000
-12.571598 -25.380911 2.432187 4.000000
-12.432037 -25.298668 2.420552 25.000000
-12.835505 -24.921669 2.407205 25.000000
-3.657901 -23.876619 2.497900 32.000000
-3.349836 -23.865538 2.492140 31.000000
-3.572248 -23.817165 2.490494 13.000000
-3.261325 -23.777397 2.481854 6.000000
-3.189251 -23.807241 2.483911 3.000000
-4.335671 -23.576794 2.478974 3.000000
-4.183618 -23.582027 2.476711 3.000000
-4.445982 -23.552223 2.478562 6.000000
-4.734545 -23.333517 2.462104 35.666668
-4.535154 -23.223139 2.446881 19.000000
-6.978105 -22.584476 2.444412 13.000000
-7.037158 -22.524466 2.440298 48.000000
-11.691563 -20.740723 2.462104 6.000000
-11.514650 -20.730293 2.452229 4.000000
-5.304374 -19.536808 2.451597 3.000000
14.760672 -18.589985 2.454698 9.000000
14.984413 -18.630190 2.472390 10.000000
14.806582 -18.527979 2.452641 9.000000
15.118762 -18.557266 2.475271 8.000000
15.184902 -18.167387 2.448527 3.000000
11.128871 -17.341652 2.495358 4.000000
10.948417 -17.178955 2.466986 6.000000
11.237562 -17.212139 2.489347 7.000000
11.391102 -17.151476 2.493435 25.000000
11.509728 -17.096039 2.495839 11.000000
16.427025 -16.886377 2.436183 8.000000
16.496639 -16.798824 2.434743 18.000000
11.424424 -16.741301 2.454483 10.000000
16.543423 -16.688425 2.430011 20.000000
16.873791 -16.599205 2.447704 13.000000
16.868952 -16.490484 2.439475 11.000000
11.714324 -16.434982 2.444143 18.500000
11.822964 -16.423134 2.450635 23.000000
11.991448 -16.438351 2.464100 9.000000
12.934169 -16.081112 2.499206 32.000000
12.765518 -16.025333 2.481172 21.500000
13.594332 -14.882473 2.441017 3.000000
14.225400 -14.901646 2.494878 1.000000
13.229287 -14.853448 2.408798 6.000000
13.490724 -14.583967 2.405912 32.000000
14.318443 -14.085440 2.432361 0.000000
14.504838 -14.002270 2.441498 7.000000
11.178710 -13.726008 2.457954 5.000000
11.254428 -13.730656 2.465106 11.000000
12.235578 -12.984076 2.477208 6.000000
12.396237 -12.990066 2.493162 16.000000
12.300352 -12.889769 2.473907 13.000000
12.345457 -12.775166 2.466756 7.000000
12.706384 -12.142542 2.440350 6.000000
12.590382 -11.931130 2.408443 11.000000
12.705596 -11.889689 2.416145 11.000000
12.663584 -11.850380 2.408168 11.000000
-7.927785 -9.737764 2.420563 20.000000
12.650021 -9.713720 2.499871 12.000000
12.649824 -9.587931 2.487897 12.000000
-8.860504 -9.465229 2.499305 22.000000
12.648232 -9.431179 2.472928 12.000000
12.642736 -9.273518 2.457546 12.000000
-6.896619 -9.215549 2.429402 27.000000
12.640987 -9.120356 2.443197 12.000000
12.641709 -9.000638 2.432358 12.000000
-7.138099 -8.909735 2.409577 27.500000
12.633183 -8.845946 2.417286 12.000000
-9.455753 -8.685879 2.475077 13.000000
12.633431 -8.698991 2.404175 12.000000
-9.419176 -8.597875 2.458420 6.000000
-8.241466 -8.477844 2.495486 50.000000
-8.268059 -8.451911 2.495486 59.000000
-9.465035 -8.239496 2.419049 17.000000
-9.429435 -8.130657 2.400121 15.000000
-7.073203 -7.700137 2.401597 17.000000
-6.565997 -7.614836 2.496309 54.000000
-8.622709 -7.506159 2.412881 22.500000
-8.404224 -6.886130 2.495620 5.000000
-8.210795 -6.814316 2.450847 2.000000
-8.489727 -6.707180 2.485173 21.333334
12.570873 -6.729204 2.491105 14.000000
12.570894 -6.577543 2.478714 13.666667
-7.465773 -6.457864 2.450768 10.250000
12.565666 -6.424698 2.465634 13.333333
-7.551943 -6.267612 2.436552 23.500000
12.561032 -6.273707 2.453013 14.000000
-8.880196 -6.178795 2.484874 28.000000
-8.734786 -6.210975 2.461816 31.250000
12.558215 -6.125105 2.441081 14.000000
12.554919 -5.977676 2.429378 14.000000
12.549459 -5.878596 2.421117 14.000000
12.553755 -5.808645 2.416643 14.000000
12.548109 -5.686839 2.406890 14.000000
-8.304031 -5.485940 2.470928 28.666666
-7.303767 -5.528888 2.448207 25.000000
-8.327761 -5.414283 2.466109 42.333332
-9.479856 -5.231048 2.486964 17.333334
-9.471531 -5.129836 2.474129 11.500000
-9.519811 -4.926183 2.462040 28.000000
-9.423119 -4.951412 2.445027 23.500000
-7.807199 -4.869013 2.459051 1.000000
-7.828619 -4.836929 2.459396 34.000000
-9.529021 -4.696050 2.440102 11.500000
-8.092355 -4.582173 2.485387 34.500000
-8.990951 -4.492526 2.495345 38.000000
-8.850127 -4.474442 2.462093 15.000000
-8.095674 -4.517119 2.477641 24.000000
12.490604 -3.417063 2.496277 17.000000
12.488955 -3.290441 2.489652 17.000000
12.485377 -3.143090 2.481891 17.000000
12.487637 -2.998050 2.475645 17.500000
12.481228 -2.831141 2.467127 17.750000
12.475169 -2.685854 2.459934 17.333334
12.474081 -2.542452 2.454067 18.000000
12.472253 -2.379239 2.447631 18.000000
12.471603 -2.237271 2.442520 19.000000
12.470235 -2.095771 2.437599 18.000000
12.465504 -1.934251 2.431731 19.000000
12.463552 -1.773850 2.426810 19.750000
12.458001 -1.633500 2.422078 20.666666
12.456648 -1.494209 2.418481 20.500000
12.451010 -1.335036 2.413939 20.500000
12.447251 -1.176632 2.410153 21.500000
12.444143 -1.038411 2.407187 22.000000
12.437797 -0.900299 2.403906 23.500000
12.431465 -0.742928 2.400689 24.250000
-9.188932 -0.389949 2.458019 1.000000
-9.270065 -0.101932 2.477641 24.000000
-9.289213 0.291962 2.483838 12.500000
12.410845 0.996373 2.400121 31.000000
12.393654 1.210850 2.400499 25.250000
12.389171 1.367796 2.402771 22.500000
12.391471 1.525890 2.406745 21.500000
12.382739 1.663218 2.408449 21.666666
12.382128 1.801963 2.412045 21.250000
12.375962 1.960186 2.415453 21.250000
12.370678 2.119025 2.419428 20.500000
12.369208 2.259023 2.423844 19.333334
-9.741258 2.403492 2.491008 32.000000
12.366398 2.399319 2.428324 19.500000
-8.755465 2.439627 2.429101 2.000000
12.364114 2.560514 2.434002 19.000000
12.359731 2.722013 2.439681 18.500000
12.356194 2.864029 2.445044 18.000000
12.350312 3.006151 2.450281 17.750000
12.348652 3.170639 2.457663 17.250000
12.345962 3.315028 2.464225 17.000000
-9.247630 3.510999 2.455828 5.000000
-9.142338 3.438197 2.424986 27.000000
12.343079 3.460214 2.471102 17.250000
-9.321668 3.617614 2.482494 16.333334
12.340450 3.606288 2.478358 17.000000
12.338212 3.753395 2.486056 16.250000
12.333120 3.921817 2.494763 16.000000
-8.259037 4.008606 2.453543 41.666668
-8.426724 4.046457 2.498297 36.000000
12.247152 4.203885 2.496088 14.250000
-7.910605 4.300473 2.406379 15.000000
-9.427469 4.655225 2.415029 13.500000
-9.221435 5.414482 2.456220 15.500000
-8.943954 5.423054 2.402493 19.000000
-7.916521 5.601055 2.407637 47.500000
-7.490324 5.550617 2.491584 19.000000
-7.071897 5.588622 2.408962 29.750000
-7.896364 5.642822 2.409565 0.000000
-7.047191 5.700622 2.422491 25.200001
-7.192329 5.855474 2.478674 60.000000
-9.027495 6.031977 2.493829 22.000000
12.293339 6.145351 2.401154 9.666667
12.287179 6.312134 2.413373 10.750000
-7.516332 6.358544 2.444263 8.000000
-7.641162 6.505437 2.491490 0.000000
12.283007 6.481627 2.426395 13.666667
-7.601557 6.575415 2.495345 47.500000
12.280318 6.628923 2.438098 13.666667
12.278238 6.778013 2.450260 13.333333
-8.077025 6.876517 2.436520 39.000000
12.273297 6.926989 2.462192 13.333333
12.270036 7.078461 2.474813 13.000000
12.265014 7.230465 2.487434 12.666667
-7.750380 7.289653 2.443907 10.000000
-7.603232 7.298755 2.420849 11.000000
-7.471391 7.308764 2.400702 29.000000
12.269003 7.337031 2.497530 12.000000
-8.978600 7.692876 2.495486 3.000000
-7.845702 8.718045 2.475454 13.500000
-7.626825 8.678373 2.438489 27.000000
-7.704120 8.878392 2.481030 12.000000
-7.602937 8.892428 2.469328 18.333334
12.422342 8.998927 2.404279 4.000000
12.363491 9.075244 2.403866 2.000000
12.248476 9.229889 2.403866 7.000000
-8.603565 9.307282 2.443277 13.000000
-8.539740 9.296665 2.433435 4.000000
-8.325288 9.294988 2.405421 28.000000
12.239408 9.313837 2.410679 9.000000
-8.797407 9.427409 2.485677 34.000000
-8.365599 9.458915 2.434192 1.000000
12.237717 9.465307 2.424925 12.000000
-8.246658 9.624941 2.443277 9.000000
12.228297 9.612396 2.437932 11.500000
-8.385671 9.694412 2.470913 46.000000
12.225441 9.766531 2.452591 11.666667
12.223069 9.922836 2.467663 11.500000
12.224581 10.052148 2.480670 11.000000
12.218869 10.176815 2.492439 11.500000
-8.921521 10.475337 2.403907 15.000000
-9.456553 10.654942 2.488925 5.000000
-7.773072 11.589248 2.437983 24.000000
-8.049432 11.720717 2.484106 13.750000
-10.258383 11.817570 2.452798 4.000000
-7.815299 11.771889 2.468617 10.000000
-10.223783 11.852734 2.453417 5.000000
-9.834948 11.922259 2.422447 4.000000
12.369593 12.142892 2.406793 5.500000
12.326205 12.291842 2.417062 3.000000
-9.736927 12.386759 2.469521 6.500000
12.202406 12.361040 2.411744 3.500000
12.174262 12.488550 2.421646 6.500000
-9.027567 12.544702 2.422447 3.000000
-8.863379 12.564641 2.410059 7.000000
12.165615 12.637589 2.435674 9.500000
-8.877027 12.796204 2.441029 25.000000
12.163773 12.795613 2.451353 11.000000
-8.843493 12.876994 2.448462 0.000000
12.157706 12.910471 2.462355 11.000000
-8.435183 13.058786 2.436693 5.000000
12.161542 13.037167 2.475558 11.000000
-8.402430 13.189284 2.451146 4.333333
12.154544 13.194921 2.490962 11.000000
-7.570355 13.315407 2.400769 4.000000
-8.404963 13.377908 2.476335 25.000000
-8.039183 13.347765 2.442268 19.000000
-7.918852 13.368868 2.435455 8.666667
-7.806694 13.434808 2.435455 14.000000
-7.308174 13.488041 2.404485 20.500000
-7.335984 13.831833 2.454036 15.666667
-7.220567 13.841193 2.446913 9.000000
12.089668 15.749871 2.404469 5.000000
12.086134 15.899950 2.418656 5.000000
12.081596 16.050297 2.432842 5.000000
12.075767 16.200993 2.447029 5.500000
12.071278 16.355148 2.461696 5.000000
12.066643 16.511255 2.476604 6.000000
12.072572 16.683731 2.493916 9.000000
-10.345202 17.169758 2.427552 12.000000
-10.285099 17.191948 2.426110 17.000000
-10.320263 17.374399 2.447269 1.000000
-10.190827 17.404633 2.442460 12.000000
-9.959225 17.382755 2.426110 7.000000
-8.902246 17.800648 2.410240 2.000000
-8.842752 17.821409 2.409278 41.000000
-8.760226 17.937279 2.417454 18.000000
-8.616422 18.072811 2.424667 22.000000
-8.784290 18.203663 2.447750 57.000000
-8.646176 18.282873 2.449193 7.000000
-7.885096 18.282627 2.411202 3.000000
-7.794163 18.308605 2.409759 1.000000
-7.640990 18.347279 2.406874 6.000000
-7.537587 18.424328 2.410721 1.000000
-7.753971 18.454977 2.424186 2.000000
-7.663194 18.900558 2.469871 0.000000
12.185850 19.831076 2.406970 3.000000
12.181516 19.964363 2.418491 3.000000
12.153107 20.130508 2.431657 8.500000
11.892671 20.197809 2.423840 19.000000
11.995839 20.155197 2.425486 8.000000
11.980505 20.568230 2.461487 7.000000
-11.003820 20.686470 2.423017 21.000000
-10.935067 20.713900 2.422194 15.000000
-10.626766 20.757593 2.411496 22.000000
11.973921 20.781300 2.480208 8.000000
-10.595744 20.858274 2.419314 45.000000
11.971793 20.929331 2.493374 7.000000
-9.428267 21.245996 2.403679 15.000000
-9.265911 21.299976 2.402033 5.000000
12.068625 25.359329 2.411654 3.000000
11.857624 25.533392 2.417472 9.000000
12.006647 25.538502 2.423289 9.500000
11.842371 25.711691 2.430818 6.000000
11.844330 25.930021 2.447930 6.000000
11.835167 26.126835 2.462987 6.000000
11.834681 26.345655 2.480099 6.000000
11.832936 26.564730 2.497210 6.000000
11.851493 33.616776 2.437516 9.500000
12.004442 33.545555 2.436424 1.000000
11.686445 33.653431 2.436151 10.000000
11.653309 33.901318 2.451433 3.000000
11.649580 34.240002 2.473265 4.000000
11.638742 34.563866 2.494005 4.000000
-6.922485 -28.679806 2.533486 1.000000
-6.623123 -28.619528 2.522534 2.000000
-11.807390 -26.733015 2.509530 5.000000
-14.693739 -26.453737 2.598508 2.000000
-4.418734 -24.681870 2.592945 28.000000
-3.308643 -24.698484 2.576898 37.000000
-3.077688 -24.744364 2.578544 24.000000
-3.912597 -24.509314 2.566612 39.000000
-3.595053 -24.493557 2.560029 38.000000
-3.126208 -24.505659 2.554680 31.000000
1.437321 -24.554804 2.543571 1.000000
1.512496 -24.518398 2.540279 22.000000
-2.950152 -24.343124 2.535753 28.000000
-4.814978 -24.250771 2.556737 60.000000
-2.623430 -24.188404 2.516004 24.000000
-2.509834 -24.204426 2.516416 36.000000
-2.389474 -24.152664 2.509832 41.000000
-3.754415 -24.002594 2.512301 29.000000
-3.438366 -23.949417 2.502015 27.000000
-8.003096 -23.766993 2.593356 27.000000
-7.770103 -23.814886 2.590476 38.000000
-8.259306 -23.664394 2.591916 47.500000
-7.829930 -23.745014 2.585539 30.000000
-8.374096 -23.634602 2.592945 31.000000
-7.884043 -23.093117 2.523410 34.333332
-9.995814 -23.021759 2.595413 28.000000
-9.774449 -22.904793 2.575253 8.000000
-9.363838 -22.933939 2.561675 35.000000
-9.113484 -22.936129 2.552211 4.000000
-9.226076 -22.800961 2.543571 31.000000
-9.167726 -22.863068 2.547274 11.000000
-9.785001 -22.731445 2.559206 14.000000
-19.360098 -22.326279 2.537592 4.000000
-19.630362 -22.211506 2.545464 6.000000
-19.419664 -22.253338 2.536223 9.000000
-11.683561 -22.001368 2.576075 27.000000
-19.517292 -21.944250 2.521850 10.000000
-11.798914 -21.885496 2.571138 1.000000
-11.733853 -21.929472 2.571961 23.000000
-5.834965 -20.592888 2.592018 9.000000
-5.308820 -20.308208 2.542005 2.000000
-5.219992 -20.359894 2.545372 0.500000
-5.113316 -20.341936 2.540082 1.000000
-14.885394 -20.167944 2.592122 2.000000
-4.818673 -20.242336 2.519884 14.000000
-14.837158 -19.970972 2.572784 11.000000
-5.576055 -20.038687 2.518922 5.000000
-5.484655 -19.952724 2.505938 19.000000
-14.747325 -19.720333 2.546451 3.000000
-8.637001 -19.227177 2.552585 8.000000
-9.660652 -19.050430 2.586728 3.000000
-8.324787 -19.009451 2.513152 3.000000
-8.258699 -19.020939 2.511228 1.000000
-9.212317 -18.896423 2.545852 10.000000
-9.133892 -18.885946 2.540563 3.000000
-9.849591 -18.832520 2.573744 4.000000
-9.748305 -18.782307 2.562684 3.000000
-9.593956 -18.772467 2.553066 18.000000
15.363674 -18.737356 2.505718 3.000000
11.480524 -18.139360 2.599712 3.000000
11.597230 -17.343376 2.526617 6.000000
12.702408 -16.740868 2.544891 23.000000
12.784781 -16.685513 2.545612 19.000000
12.923458 -16.648771 2.552344 55.000000
13.199492 -16.305838 2.540563 58.000000
13.364178 -16.351006 2.557394 29.500000
12.738421 -16.251749 2.500648 59.000000
13.379675 -16.178904 2.542486 51.000000
13.995709 -16.219912 2.594423 23.000000
14.083683 -16.167253 2.596587 50.500000
14.090262 -16.021683 2.583843 50.000000
14.120770 -15.904604 2.575668 44.000000
14.163773 -15.802423 2.569897 53.000000
14.229306 -15.775538 2.572783 54.000000
14.474096 -15.745979 2.590095 30.000000
14.156026 -15.595503 2.550661 49.000000
14.151388 -15.492313 2.541044 71.000000
14.172307 -15.224553 2.518922 19.000000
11.227550 -14.850876 2.585032 6.000000
11.402300 -14.742213 2.587783 1.000000
11.463833 -14.583673 2.575680 3.000000
14.853871 -14.520614 2.515556 5.000000
11.465956 -14.445707 2.560827 6.000000
11.516500 -14.369890 2.556976 16.000000
14.879479 -14.454508 2.512190 4.000000
11.564206 -14.290805 2.552575 13.000000
11.625265 -14.092548 2.536622 2.000000
12.669053 -10.611820 2.590303 11.500000
12.660872 -10.470306 2.575128 11.500000
12.659067 -10.335561 2.561501 11.500000
12.663754 -10.207467 2.549423 11.500000
12.656785 -10.038951 2.532080 12.000000
12.651188 -9.873567 2.515357 11.500000
-8.935038 -9.850517 2.563662 15.000000
12.653835 -9.779997 2.506685 12.000000
-8.938299 -9.730545 2.547005 15.000000
-8.871838 -9.567380 2.515205 18.000000
-6.955784 -8.823373 2.580687 70.000000
-8.266636 -8.611339 2.519441 2.000000
-8.316535 -8.448209 2.502094 43.000000
-7.200565 -8.245444 2.514424 63.000000
-6.832239 -7.774238 2.569560 69.000000
12.602621 -7.801854 2.589547 12.000000
-9.384195 -7.591040 2.547527 13.000000
12.594722 -7.633711 2.573025 12.333333
12.589291 -7.469104 2.557421 12.000000
12.584625 -7.333282 2.544686 12.000000
12.580798 -7.199337 2.532409 13.000000
12.579329 -7.041945 2.518641 13.000000
12.577170 -6.885856 2.505103 13.000000
-9.069674 -6.743106 2.595910 0.000000
-8.590002 -6.684729 2.500097 0.000000
-7.703238 -6.558286 2.511730 7.000000
-9.078178 -6.169512 2.521140 24.500000
-8.198582 -6.175833 2.548356 50.000000
-7.443110 -6.177197 2.585051 12.000000
-9.545971 -6.079114 2.599492 0.000000
-9.471038 -6.073297 2.584269 12.000000
-9.633638 -5.924337 2.597701 9.000000
-9.626461 -5.857600 2.588299 13.500000
-7.756973 -5.654303 2.565428 42.500000
12.519029 -4.933941 2.593947 16.000000
-8.220269 -4.774714 2.540641 0.000000
12.523412 -4.799796 2.585366 16.000000
-8.187391 -4.704139 2.523600 36.500000
12.523209 -4.642487 2.574641 15.750000
-9.196321 -4.559093 2.548356 1.000000
-8.541121 -4.539484 2.585051 10.000000
12.518699 -4.484839 2.563410 16.000000
12.509710 -4.349025 2.553062 16.000000
12.512972 -4.196555 2.544166 16.250000
12.511373 -4.043509 2.534638 16.666666
12.504717 -3.890051 2.524480 16.000000
12.501936 -3.738893 2.515458 16.666666
12.496629 -3.588131 2.506309 16.500000
12.497087 -3.482196 2.500820 17.000000
-9.443589 0.460225 2.526870 17.666666
-9.480805 0.581533 2.538575 15.000000
-9.398826 0.754560 2.519985 0.000000
-10.063796 2.432829 2.570524 0.000000
-10.150667 2.566629 2.599439 8.666667
-9.931476 3.021195 2.577271 1.000000
-9.026340 3.082459 2.549161 27.750000
-8.841746 3.105001 2.504494 46.000000
-9.725102 3.518519 2.567632 50.000000
-9.409129 3.776799 2.517192 4.333333
-8.521863 4.026447 2.518953 0.000000
12.331560 4.071146 2.503344 16.666666
12.334322 4.158149 2.509148 16.000000
12.324197 4.371521 2.520758 16.000000
12.321800 4.501855 2.528834 16.000000
12.321110 4.655826 2.539055 16.000000
12.317388 4.809824 2.549024 16.000000
12.310464 4.963816 2.558741 16.000000
12.304141 5.119235 2.568962 16.000000
-8.796725 5.221038 2.539681 50.000000
-8.925003 5.240449 2.569560 4.500000
-8.055063 5.309180 2.578337 30.000000
12.297485 5.252975 2.577795 16.000000
12.294950 5.412552 2.589594 15.500000
-8.657448 5.494171 2.545705 7.250000
-7.958903 5.445499 2.577305 23.500000
-7.891483 5.538266 2.576641 14.857142
-7.558454 5.546145 2.505527 0.000000
-7.517201 5.674904 2.517231 4.666667
-8.410422 5.754426 2.530043 15.000000
-8.447097 5.838145 2.549320 3.000000
-7.229931 5.962014 2.504494 2.000000
-7.321190 6.076013 2.542706 3.000000
-7.647218 6.552146 2.500165 11.000000
-8.749823 6.721156 2.534273 38.000000
-7.418231 7.032260 2.537754 0.000000
-8.236139 7.169692 2.508156 29.000000
-7.443405 7.235871 2.577271 46.000000
-8.325274 7.316506 2.545765 12.000000
-8.212314 7.332219 2.528751 6.500000
-7.547534 7.245417 2.597511 38.000000
-7.406096 7.290663 2.580162 28.000000
-7.391427 7.322093 2.583054 17.000000
12.262770 7.385705 2.500972 13.000000
12.263127 7.491389 2.510610 12.000000
-7.738270 7.665683 2.501888 25.000000
12.263297 7.651128 2.525296 12.000000
-9.393764 7.746374 2.569830 6.000000
-9.209491 7.741384 2.539267 4.000000
-8.974800 7.763254 2.504573 8.500000
-7.686855 7.808629 2.516812 14.666667
12.260428 7.810828 2.539752 11.666667
12.256734 7.971866 2.554438 12.000000
12.255681 8.108816 2.567403 12.000000
12.256849 8.220778 2.578418 11.500000
12.252256 8.301640 2.585646 12.000000
-7.427855 8.398615 2.575315 12.000000
12.252157 8.357854 2.591153 12.000000
-8.272057 8.616985 2.521093 45.000000
-8.263857 8.662752 2.526876 0.000000
-7.648375 9.215784 2.527702 40.000000
-7.762591 9.293842 2.555787 0.000000
-7.683457 9.337400 2.552208 39.000000
-9.447371 9.477101 2.579562 24.000000
-9.423551 9.633101 2.597733 0.000000
-7.544060 9.631682 2.582221 2.000000
-7.455583 9.747937 2.590206 19.666666
-7.363534 9.775290 2.583047 0.000000
12.213160 10.269872 2.501110 12.000000
12.215807 10.370798 2.511640 12.000000
12.210329 10.498882 2.524028 12.000000
12.205807 10.662934 2.540339 11.333333
12.199081 10.827091 2.556546 11.000000
9.375436 10.992748 2.524148 15.333333
12.194004 10.960320 2.569863 11.000000
12.192113 11.097902 2.584109 11.000000
12.190418 11.237236 2.598665 10.500000
-8.402505 11.832224 2.535393 20.000000
-8.600045 12.030149 2.583581 7.000000
-8.596366 11.945505 2.571189 10.000000
-7.767516 12.066728 2.507168 13.000000
-8.546331 12.142304 2.594136 37.333332
-8.038568 12.191130 2.551226 15.000000
-8.034770 12.269064 2.562240 22.000000
-7.966106 12.248003 2.552603 18.000000
-7.792937 12.274956 2.540211 23.000000
-10.318256 12.833323 2.581012 2.000000
-9.845327 12.770615 2.527435 9.500000
-10.439617 12.859715 2.596187 2.000000
-10.159101 13.049940 2.592161 6.000000
-10.018875 13.123119 2.587825 16.000000
-9.814227 13.109402 2.566766 1.000000
-9.780066 13.149684 2.568624 7.000000
12.150049 13.357483 2.507190 11.500000
12.145308 13.521988 2.523694 11.500000
-8.807971 13.542382 2.532080 13.000000
-8.503895 13.726067 2.530841 16.000000
12.140293 13.688436 2.540473 11.500000
12.138458 13.816918 2.553676 11.000000
-8.425385 13.890077 2.546326 0.000000
12.135582 13.945711 2.566879 11.500000
-8.774975 14.064734 2.598355 13.000000
12.134300 14.107484 2.583749 9.000000
12.068772 16.789289 2.504014 9.000000
12.059675 16.944672 2.518682 9.000000
12.056391 17.110035 2.534792 9.000000
12.048260 17.270897 2.550180 9.000000
12.041279 17.435287 2.566050 8.000000
12.040357 17.551622 2.577591 9.000000
12.036635 17.724804 2.594663 9.000000
-9.983421 18.487082 2.544410 21.000000
-9.583534 18.719814 2.546814 19.000000
-9.408603 18.715029 2.536715 27.333334
-9.710995 18.750183 2.557153 26.000000
-8.552770 19.164820 2.541524 1.000000
-7.751831 19.293007 2.517961 0.000000
-8.444103 19.494530 2.572783 1.500000
-8.364161 19.647705 2.586007 3.500000
-8.300025 19.754623 2.594903 0.000000
11.968853 21.077555 2.506541 7.000000
11.967052 21.229431 2.520118 8.000000
11.962471 21.378031 2.533285 7.000000
11.957075 21.526808 2.546451 7.000000
11.956624 21.686216 2.560852 7.000000
-10.633481 21.772921 2.505718 13.000000
11.949559 21.835361 2.574018 7.000000
11.941674 21.984676 2.587184 7.000000
-10.261480 22.056061 2.515593 12.000000
-10.472661 22.326294 2.550154 1.000000
-10.270494 22.257986 2.534931 1.000000
-10.100841 22.256861 2.527524 3.000000
-10.758448 22.384390 2.568258 7.000000
-9.565184 22.371155 2.516004 2.000000
-10.115784 22.477152 2.548920 6.000000
11.818661 26.758533 2.511925 6.000000
11.811275 26.970760 2.528352 6.000000
11.805847 27.190516 2.545464 6.000000
11.797580 27.406837 2.562232 6.000000
11.799018 27.649036 2.581397 6.000000
11.788180 27.865816 2.598166 6.000000
11.632293 34.906925 2.516110 4.000000
11.627549 35.261650 2.539033 4.000000
11.620691 35.616692 2.561957 4.000000
11.648494 36.085964 2.593067 3.000000
-14.781694 -27.010513 2.644024 8.000000
-14.109279 -26.977085 2.614250 5.000000
-18.431274 -25.471167 2.699806 20.000000
-18.327902 -25.496584 2.696384 23.000000
-18.544029 -25.374340 2.698780 10.500000
-18.173597 -25.450253 2.685433 21.000000
-3.784706 -25.233685 2.638615 11.000000
-6.316411 -25.128119 2.679349 34.000000
-5.312110 -25.099211 2.653016 39.000000
-5.228368 -25.092400 2.650548 65.000000
-5.156705 -25.143784 2.654250 35.000000
-6.422405 -25.049866 2.674206 32.500000
-4.312958 -24.995367 2.622980 8.000000
-4.147998 -24.974873 2.618043 11.000000
-4.220462 -24.926413 2.614340 33.000000
-4.057364 -24.913170 2.610225 32.000000
-7.763388 -24.399462 2.647804 40.666668
-7.327681 -24.393307 2.633884 52.500000
-7.169706 -24.423618 2.632238 58.500000
-19.130337 -24.284151 2.654633 4.000000
-18.938236 -24.353531 2.649157 6.000000
-7.861478 -24.354128 2.646433 31.000000
-18.722748 -24.233147 2.629651 13.000000
-18.322649 -24.182987 2.605353 3.000000
-18.786213 -24.002047 2.617331 7.000000
-9.558661 -23.838009 2.655896 5.000000
-11.720934 -23.294348 2.696630 23.000000
-10.226103 -23.351059 2.636147 15.000000
-10.246480 -23.100727 2.613311 21.500000
-12.004244 -22.952238 2.678526 6.000000
-10.347298 -22.937944 2.602202 14.500000
-12.573281 -22.804674 2.692927 12.000000
-12.874569 -22.672556 2.696218 8.000000
-11.874088 -22.530748 2.633678 11.000000
-12.929372 -22.439528 2.678114 23.000000
-12.718547 -22.234823 2.648902 6.000000
-12.831151 -21.949095 2.629152 9.000000
-14.211698 -21.430874 2.659188 15.000000
-5.236465 -21.399675 2.668000 17.000000
-14.256862 -21.353029 2.655073 1.000000
-13.757923 -21.323586 2.624215 1.000000
-5.294109 -21.344576 2.663190 6.000000
-14.521646 -20.956341 2.636558 21.000000
-14.592903 -20.848568 2.631621 1.000000
-14.815948 -20.474955 2.613517 11.000000
-14.877858 -20.425089 2.613106 23.000000
-9.357955 -20.150776 2.690601 7.000000
-9.529700 -19.863319 2.668000 9.000000
-9.452947 -19.943884 2.672808 33.500000
-9.712885 -19.765421 2.667038 5.500000
-9.804234 -19.485071 2.641550 12.000000
-9.687985 -19.405638 2.626642 24.000000
-10.319060 -19.212849 2.641069 4.000000
-10.127169 -19.216017 2.630490 8.000000
11.006294 -19.002174 2.659343 10.000000
11.071666 -18.908989 2.653573 24.000000
11.143443 -18.827538 2.649485 8.000000
11.469591 -18.768103 2.663671 6.000000
11.346710 -18.698803 2.648764 6.000000
11.428593 -18.569649 2.640589 12.000000
11.913904 -18.437256 2.658381 12.000000
11.497440 -18.293011 2.616544 5.000000
12.421165 -18.325308 2.680984 3.000000
13.271242 -17.605137 2.669923 18.000000
13.321686 -17.557032 2.668961 0.000000
13.426423 -17.019117 2.625200 4.000000
13.958971 -16.807690 2.645878 73.000000
14.075369 -16.839930 2.657901 19.000000
14.120727 -16.609499 2.640108 36.333332
13.921152 -16.549480 2.618948 36.000000
13.975703 -16.299973 2.600193 35.000000
11.298070 -15.699789 2.685705 13.000000
15.240790 -15.471287 2.630009 0.000000
15.278138 -15.412049 2.628085 4.000000
15.453446 -15.394219 2.641550 7.000000
15.304045 -15.341483 2.624238 4.000000
12.806986 -14.293682 2.664801 15.000000
10.748989 -13.455390 2.699316 13.000000
10.687209 -13.292205 2.673302 9.000000
10.307180 -13.240153 2.629944 1.000000
11.096657 -13.168390 2.699110 23.000000
12.687100 -11.540368 2.688167 11.000000
12.682917 -11.391773 2.672063 11.000000
12.680327 -11.246311 2.656578 11.000000
12.679390 -11.103935 2.641713 11.500000
12.677170 -10.962008 2.626847 11.000000
12.670521 -10.783584 2.607852 11.666667
-7.509089 -8.876370 2.670531 4.666667
-7.442166 -8.929204 2.669934 34.333332
-7.097357 -8.945012 2.622773 4.000000
-7.558491 -8.765870 2.658592 15.000000
12.623528 -8.839171 2.692349 12.000000
-8.806908 -8.696898 2.612371 21.000000
12.626080 -8.693930 2.678236 12.000000
12.619413 -8.544086 2.662518 12.333333
12.621602 -8.430298 2.651733 12.000000
12.618429 -8.342487 2.642784 12.000000
-7.103846 -8.186459 2.691002 59.000000
-6.947760 -8.212839 2.670762 38.000000
12.611192 -8.224291 2.630392 12.000000
-7.121869 -8.155329 2.688111 33.000000
-6.930745 -8.140719 2.654377 49.000000
12.608998 -8.082485 2.616624 12.000000
-9.642285 -8.053627 2.651609 3.000000
-7.236000 -7.902225 2.660160 14.000000
12.608791 -7.943283 2.603544 12.000000
-7.262617 -7.856655 2.656304 2.000000
-6.509578 -7.597537 2.673870 5.000000
-8.839834 -7.501991 2.663069 3.500000
-8.692060 -7.494845 2.636205 8.000000
-8.492064 -7.510501 2.603969 11.000000
-8.842505 -7.107019 2.605760 20.000000
-8.203269 -6.808069 2.646666 3.000000
-8.471149 -6.743124 2.688111 10.500000
-8.738938 -6.286506 2.672689 6.000000
-7.488893 -6.315173 2.618099 14.000000
-8.511038 -6.204082 2.614860 26.000000
-8.440664 -6.234369 2.605222 0.000000
-9.801871 -6.155857 2.658592 7.000000
12.547496 -6.122588 2.691366 15.000000
-9.691658 -6.023216 2.620982 7.000000
12.547908 -5.977034 2.679251 15.333333
12.546690 -5.832030 2.667137 15.666667
12.539103 -5.685391 2.654014 15.333333
-8.306133 -5.493570 2.661476 28.000000
12.535846 -5.542089 2.642152 15.333333
-8.325943 -5.431738 2.656829 54.500000
12.528606 -5.398308 2.629785 15.666667
12.529779 -5.236259 2.617797 15.750000
12.524153 -5.072840 2.604800 16.000000
-8.646545 -4.639223 2.622489 23.500000
-8.658490 -4.532324 2.611903 7.000000
12.473067 -2.685398 2.692911 16.000000
12.469202 -2.541459 2.685890 16.250000
12.467477 -2.378336 2.678868 16.500000
12.471084 -2.237178 2.674187 16.000000
12.458866 -2.093879 2.666478 16.000000
12.455191 -1.932636 2.660282 16.500000
12.451837 -1.792131 2.655188 17.333334
12.451365 -1.672436 2.651609 17.333334
12.446141 -1.592180 2.648305 18.000000
12.447498 -1.493096 2.646033 18.000000
12.445818 -1.334494 2.641903 18.750000
12.439201 -1.175873 2.637153 18.750000
12.436464 -1.037774 2.633986 19.000000
12.429846 -0.899728 2.630338 19.250000
12.427474 -0.742694 2.627654 19.250000
12.421165 -0.585778 2.624556 19.250000
12.421679 -0.429438 2.623317 19.750000
12.419247 -0.273164 2.621871 19.500000
12.417622 -0.136553 2.621045 19.333334
12.407574 -0.000007 2.618773 20.250000
12.407572 0.155923 2.618980 20.250000
12.406590 0.311877 2.619393 19.750000
12.399426 0.526194 2.619393 20.000000
12.403749 0.448326 2.619668 19.666666
12.398743 0.623754 2.620219 19.000000
12.393775 0.760211 2.620770 19.000000
12.389835 0.896818 2.621871 19.250000
12.387338 1.053264 2.623936 19.000000
12.384809 1.209992 2.626414 18.750000
12.384186 1.367245 2.629719 18.250000
12.381567 1.524653 2.633023 19.000000
12.376372 1.662363 2.635639 18.333334
12.371187 1.800371 2.638598 18.000000
12.369812 1.959211 2.643348 17.500000
12.365433 2.118133 2.647892 17.000000
12.365177 2.258291 2.652986 17.000000
12.361972 2.398471 2.657804 17.000000
12.355766 2.558787 2.663173 16.000000
-10.147004 2.679065 2.605543 4.000000
12.352258 2.720377 2.669575 16.000000
12.354364 2.863605 2.676666 16.000000
12.353147 3.006846 2.683412 16.000000
12.346608 3.170115 2.690433 16.000000
-9.950788 3.293774 2.602330 8.250000
12.345067 3.314792 2.697867 16.000000
-9.352745 3.601437 2.678517 10.250000
-9.026861 5.396047 2.611005 0.000000
-8.264001 5.409901 2.639788 43.500000
-9.122945 5.492462 2.643775 0.000000
-8.075675 5.469697 2.606739 0.000000
12.287508 5.571320 2.600762 15.000000
12.287880 5.711711 2.612119 15.000000
-9.043512 5.889748 2.679436 6.750000
12.280785 5.849783 2.622214 15.333333
12.281583 5.992827 2.634328 15.000000
12.282228 6.113011 2.644675 15.000000
12.282135 6.209549 2.653004 15.000000
-7.433481 6.317151 2.607182 39.285713
12.274845 6.327425 2.662090 15.000000
-7.676641 6.494159 2.687296 41.000000
-7.335169 6.446371 2.609837 29.000000
12.272559 6.473384 2.674709 14.666667
-7.541670 6.585977 2.675935 41.000000
12.278987 6.625438 2.689599 14.333333
-9.287877 6.815140 2.646055 45.000000
-7.416471 6.812632 2.691427 27.000000
-9.420856 6.897408 2.681873 28.000000
-9.273029 6.894297 2.654114 27.000000
-7.274775 7.005569 2.699173 3.000000
-8.117313 7.088674 2.675581 9.000000
-8.090977 7.224051 2.692930 16.000000
-7.699475 7.344932 2.641847 9.000000
-7.706224 7.444412 2.660160 0.000000
-7.620445 7.454679 2.646666 0.000000
12.254786 8.444574 2.600102 12.000000
12.249943 8.555246 2.610428 11.000000
-7.582646 8.682970 2.647846 35.000000
12.249789 8.699119 2.624885 12.000000
-7.639649 8.803914 2.677396 37.000000
12.243840 8.869664 2.641407 12.000000
12.240484 9.014597 2.655863 12.000000
12.236543 9.160855 2.670549 12.000000
12.230644 9.307163 2.685120 12.000000
-10.282142 9.504711 2.699189 0.000000
-10.045711 9.493059 2.664361 5.500000
-9.554985 9.525014 2.600762 51.000000
-8.259591 9.518333 2.659869 27.000000
-9.770676 9.558136 2.634833 2.000000
-8.336987 9.668727 2.694563 56.000000
-7.867582 9.663812 2.630131 14.000000
-8.244071 9.776226 2.699106 26.000000
-7.581522 9.934172 2.637566 23.000000
-7.838391 9.942949 2.672260 0.000000
-7.801789 10.090692 2.692085 18.000000
-8.878378 10.428366 2.640133 31.000000
-8.977537 10.477972 2.659818 7.000000
-8.812121 10.483316 2.639981 29.600000
-8.804323 10.608625 2.657547 11.000000
12.186815 11.412332 2.616937 11.000000
12.178471 11.585304 2.634590 11.000000
12.176516 11.693189 2.646048 11.000000
-9.346563 11.813562 2.631769 9.000000
12.176662 11.767083 2.654100 11.000000
12.173365 11.875397 2.665559 10.500000
-9.373412 11.962958 2.655175 3.000000
-9.184092 12.029687 2.644160 116.000000
12.174410 12.026638 2.682283 10.500000
-9.417791 12.176356 2.689366 22.666666
-9.215034 12.228765 2.675138 1.000000
12.168459 12.172755 2.697768 11.000000
-9.127829 12.272659 2.672155 19.333334
-8.958391 12.325546 2.662059 12.500000
-9.869910 13.535027 2.625608 15.000000
-9.848208 13.594768 2.631183 4.000000
-9.413173 13.799195 2.618176 1.000000
-9.345394 13.792712 2.611362 6.000000
-9.199614 13.951947 2.619415 9.000000
-8.734055 14.197005 2.612601 8.000000
12.124430 14.383008 2.611989 9.500000
12.121258 14.563967 2.630968 10.500000
12.114292 14.695810 2.644446 11.000000
12.115005 14.838684 2.659850 11.500000
12.108557 15.022476 2.679104 11.500000
12.106899 15.166051 2.694507 11.000000
-8.247515 17.447758 2.679654 6.000000
-8.045748 17.589647 2.685705 2.000000
-8.018268 17.676178 2.695057 8.000000
12.033913 17.901600 2.612216 8.000000
12.030533 18.018578 2.623757 8.000000
12.035316 18.148949 2.637222 8.000000
12.028477 18.262943 2.648283 8.000000
12.023214 18.380398 2.659824 8.000000
12.028148 18.514648 2.673770 9.000000
12.023745 18.635763 2.685792 8.000000
12.020842 18.760376 2.698296 8.000000
-10.402880 18.977646 2.620872 2.000000
-10.709414 19.107386 2.652611 1.000000
-10.907788 19.177788 2.671847 2.000000
-10.581468 19.160395 2.650687 8.000000
-10.354815 19.540329 2.678098 4.500000
-10.317906 19.694466 2.692525 6.000000
-9.199800 20.271446 2.695891 3.000000
11.940521 22.148165 2.601997 8.000000
11.930949 22.297829 2.615163 6.000000
11.931751 22.468733 2.630798 6.000000
11.924176 22.625784 2.644787 6.000000
11.921264 22.793583 2.660011 6.000000
11.919247 22.965118 2.675646 6.000000
11.910803 23.126253 2.690047 6.000000
11.771472 28.071777 2.613908 6.000000
11.768883 28.314703 2.633073 6.000000
11.764883 28.557890 2.652237 6.000000
11.759470 28.801331 2.671402 5.000000
11.745168 29.026545 2.688855 5.000000
11.603049 36.335262 2.608349 3.000000
11.583802 36.672161 2.629908 3.000000
11.570881 37.035954 2.653377 4.000000
11.519266 37.281830 2.668387 9.000000
11.357500 37.594139 2.685579 43.000000
11.475549 37.558273 2.685579 50.000000
-16.758915 -26.892920 2.721025 3.000000
-17.030882 -26.764042 2.724104 2.000000
-18.503019 -26.612448 2.783309 20.000000
-18.686146 -26.342613 2.773385 14.000000
-19.279896 -25.950943 2.776123 2.000000
-6.291743 -25.712242 2.737363 23.000000
-7.727933 -25.292709 2.734894 7.000000
-7.181737 -25.345650 2.724196 0.500000
-9.877802 -25.205175 2.799492 11.000000
-8.952363 -25.016727 2.747649 30.000000
-9.017383 -24.951061 2.743535 6.000000
-10.990263 -24.465870 2.773570 8.000000
-12.914021 -23.774778 2.797846 4.000000
-11.602646 -23.610891 2.720494 12.000000
-11.898424 -23.463230 2.720494 6.000000
-11.667243 -23.370213 2.701156 14.000000
-11.595530 -23.410318 2.701567 27.000000
-12.047616 -23.301868 2.712676 22.500000
-14.102258 -22.949810 2.785502 4.000000
-12.545507 -22.924339 2.702390 11.000000
-14.126133 -22.827576 2.776039 8.000000
-14.183049 -22.759445 2.773159 5.000000
-13.496512 -22.595751 2.721728 1.000000
-13.522311 -22.478233 2.712676 30.000000
-13.596981 -22.442450 2.713499 1.000000
-9.318368 -20.570856 2.734844 1.000000
-9.495300 -20.279514 2.711761 7.000000
12.358272 -18.735188 2.718012 0.000000
13.094063 -18.555138 2.750232 17.000000
10.333638 -17.218460 2.788303 2.500000
10.564549 -17.052158 2.785278 3.000000
10.775626 -17.032188 2.798481 7.000000
16.144917 -16.492405 2.794955 1.000000
11.720972 -16.073463 2.762172 6.000000
11.832367 -16.119602 2.776476 8.000000
12.032291 -16.142534 2.795547 27.333334
11.544905 -15.936945 2.732466 8.000000
16.419735 -15.900744 2.768025 33.000000
12.297952 -15.797411 2.779777 9.000000
16.477320 -15.806705 2.765140 12.000000
12.950609 -15.303292 2.783627 7.000000
13.186479 -14.578398 2.729440 29.000000
14.061365 -13.750688 2.730815 9.000000
14.187384 -13.700600 2.738517 7.000000
10.890296 -13.371872 2.703032 2.000000
11.082231 -13.434263 2.729666 13.000000
11.613213 -13.378325 2.776740 5.000000
11.079861 -13.289032 2.711910 22.000000
12.696409 -12.133010 2.752584 5.666667
12.589403 -11.930203 2.718517 10.000000
12.675581 -11.861662 2.720995 9.333333
12.688446 -11.688139 2.703962 10.500000
-8.162030 -10.220739 2.760647 7.000000
-8.180677 -9.984166 2.724301 15.000000
12.645610 -9.837254 2.799051 12.000000
12.643408 -9.740294 2.788381 12.000000
-7.404829 -9.639707 2.792013 34.000000
12.643574 -9.583193 2.771744 12.000000
-8.909065 -9.547132 2.756104 25.500000
-8.966301 -9.428694 2.746191 8.500000
12.640063 -9.425079 2.754649 12.000000
12.637144 -9.299939 2.741225 12.000000
-6.605375 -9.121617 2.796059 24.000000
12.633135 -9.144972 2.724704 12.000000
-6.726902 -8.988765 2.787385 23.000000
-6.595992 -8.989071 2.768108 19.500000
12.632408 -8.994020 2.709214 12.000000
-6.733992 -8.881358 2.767144 2.000000
-8.363418 -8.767122 2.783059 29.000000
-9.681873 -8.671810 2.743300 7.000000
-8.358522 -8.707057 2.772314 49.000000
-9.913892 -8.657587 2.777994 13.000000
-9.517040 -8.632550 2.711910 13.000000
-9.481201 -8.654491 2.709432 12.000000
-9.941429 -8.517971 2.763125 3.500000
-8.245935 -8.482381 2.717243 43.000000
-8.351223 -8.440862 2.727362 49.599998
-8.222848 -8.458693 2.709632 59.000000
-9.724587 -8.332040 2.702824 5.000000
-6.905048 -7.684907 2.761140 6.500000
-6.864865 -7.713082 2.759591 17.000000
-9.308609 -7.578396 2.757091 22.000000
12.574452 -7.198614 2.793074 14.000000
12.572059 -7.040761 2.777679 13.666667
12.567818 -6.883586 2.762284 14.666667
12.566346 -6.729608 2.747898 15.000000
12.560778 -6.575051 2.733008 15.000000
-9.153465 -6.541159 2.793168 18.000000
12.558079 -6.423588 2.719127 15.000000
-8.098773 -6.271843 2.737644 33.000000
12.554992 -6.322741 2.709789 15.000000
-8.094616 -6.177613 2.721378 5.000000
12.551221 -6.246890 2.702596 15.000000
-9.160769 -6.141875 2.738230 7.000000
-9.586986 -5.812948 2.783529 7.000000
-9.478377 -5.808360 2.759916 10.000000
-9.262433 -4.519589 2.754427 3.000000
12.513452 -4.350338 2.796167 15.000000
12.508536 -4.195069 2.784602 14.250000
12.503053 -4.040825 2.773313 15.000000
12.501529 -3.889066 2.763331 14.750000
12.495144 -3.736875 2.752662 15.000000
12.490923 -3.586484 2.742887 15.000000
12.492539 -3.438699 2.734764 15.666667
12.486345 -3.289757 2.725333 16.000000
12.486696 -3.143418 2.717692 15.666667
12.481457 -2.996578 2.709225 16.000000
12.479959 -2.830833 2.700965 15.750000
-10.145510 2.351604 2.783345 5.000000
-10.066616 2.383352 2.764754 16.500000
12.341748 3.459852 2.705302 15.500000
12.336807 3.605224 2.712736 15.333333
-9.543636 3.813335 2.746681 7.500000
12.335697 3.752617 2.721410 15.250000
12.335119 3.922461 2.731942 15.000000
12.329998 4.070631 2.740546 15.000000
12.260736 4.197702 2.735246 14.750000
12.328491 4.373048 2.760922 15.000000
12.322267 4.502025 2.768907 15.000000
12.322315 4.656276 2.780266 14.250000
12.312646 4.807964 2.789834 14.000000
12.317401 4.899199 2.797819 15.000000
-8.648531 5.374789 2.721378 8.000000
-9.025045 6.687911 2.788830 3.500000
-8.786348 6.727352 2.747386 19.500000
-8.699406 6.747952 2.733410 46.000000
12.274460 6.773127 2.702470 14.000000
-9.923641 6.920237 2.778880 24.333334
-8.746984 6.851119 2.758470 3.000000
-7.415893 6.898578 2.706919 1.500000
12.270513 6.922607 2.715846 14.000000
-9.703104 7.010911 2.749629 0.666667
-7.671874 7.002931 2.776115 72.000000
-7.439977 7.008632 2.731705 19.000000
-7.338263 6.978349 2.706402 7.000000
12.267108 7.073909 2.729727 14.000000
-8.619835 7.199636 2.788348 29.000000
-7.397715 7.236794 2.765787 0.000000
12.268693 7.229764 2.745122 13.333333
-8.108779 7.308871 2.710279 16.000000
-7.349902 7.250525 2.759246 24.333334
12.262825 7.382879 2.759255 13.333333
12.260317 7.513161 2.771874 13.000000
-9.170771 7.611020 2.737391 31.000000
-9.411405 7.711379 2.794700 6.000000
-9.332994 7.696262 2.778582 7.000000
12.256429 7.643880 2.784493 13.000000
-9.273733 7.770578 2.779029 29.000000
12.262453 7.754998 2.796860 13.000000
-8.292264 8.556998 2.736943 25.000000
-7.698593 9.158580 2.748137 0.000000
-7.659783 9.170754 2.744555 3.000000
-7.700648 9.278769 2.769627 18.000000
-8.847954 9.362919 2.718932 8.000000
-8.768294 9.425947 2.717142 27.666666
-7.376682 9.387566 2.742316 11.500000
-7.211312 9.408171 2.722765 13.666667
12.229310 9.458816 2.701068 12.000000
12.222342 9.607711 2.716099 12.000000
-7.299464 9.753841 2.798282 10.000000
12.221871 9.763685 2.732965 12.000000
12.215230 9.916473 2.748798 12.000000
-8.051324 9.953213 2.701998 47.000000
12.213556 10.043075 2.762566 12.000000
12.210842 10.202716 2.780005 12.000000
-8.294625 10.320121 2.794515 26.000000
12.205743 10.329268 2.793544 12.000000
-9.432609 10.464950 2.715846 4.000000
9.361480 10.995816 2.783799 26.250000
-7.942905 11.806934 2.743103 33.000000
-7.839281 11.772293 2.726446 23.500000
-7.748750 11.836739 2.727203 10.333333
12.165299 12.323503 2.714182 10.500000
12.162107 12.476099 2.730905 10.500000
12.158848 12.630558 2.747939 10.000000
-8.881226 12.787995 2.720114 45.333332
12.155484 12.786900 2.765282 10.000000
12.156094 12.908759 2.779218 10.000000
12.153034 13.028042 2.792535 10.000000
-8.171966 13.283342 2.724704 25.000000
-7.933987 13.314565 2.707838 2.000000
-8.189767 13.406463 2.744667 60.000000
-8.074492 13.358912 2.727113 36.000000
