# This PCD file was generated using the MATLAB® pcwrite function
# from Computer Vision Toolbox®.
# .PCD v.7 - Point Cloud Data file format
VERSION .7
FIELDS x y z intensity
SIZE 4 4 4 4
TYPE F F F F
COUNT 1 1 1 1
WIDTH 1231
HEIGHT 1
VIEWPOINT 0 0 0 1 0 0 0
POINTS 1231
DATA ascii
-5.504094 -16.594158 3.054449 20.000000
-5.747161 -16.540773 3.059268 0.000000
-5.670432 -16.571377 3.059957 17.000000
-1.183745 -16.004824 3.093657 22.000000
-1.085019 -16.039375 3.098957 18.000000
-6.803030 -15.934062 3.026913 5.000000
-6.739115 -15.922697 3.020717 17.000000
-0.274503 -15.885134 3.062615 0.000000
-6.829673 -15.858328 3.016587 26.000000
6.891713 -15.782008 3.008670 1.000000
2.458269 -15.680266 3.059586 20.000000
-2.808716 -15.657212 3.066400 18.000000
-2.994112 -15.562828 3.055043 13.000000
-4.423987 -15.377673 3.084571 46.666668
-4.325304 -15.336374 3.071700 16.000000
-4.619289 -15.270923 3.075486 9.000000
-4.245474 -15.236381 3.048986 21.000000
3.875434 -15.192847 3.022486 0.000000
8.418847 -15.250715 3.043435 4.000000
-4.820309 -15.076764 3.051258 32.000000
4.564705 -15.090467 3.039143 57.000000
4.616683 -15.091078 3.042172 4.000000
8.405435 -15.113997 3.021406 16.000000
8.584903 -14.990085 3.017964 2.000000
4.473384 -14.957976 3.009615 22.000000
8.614233 -14.932323 3.011768 0.000000
1.586771 -14.582760 3.096022 17.000000
1.475965 -14.405559 3.056371 12.000000
1.994760 -14.338957 3.055545 15.500000
3.199080 -14.311718 3.095196 16.500000
1.506002 -14.256842 3.025808 48.000000
3.290175 -14.262889 3.089413 9.333333
3.325812 -14.213089 3.080878 5.666667
3.925590 -13.672201 3.002265 10.000000
5.666373 -13.381591 3.067110 1.000000
1.195650 -13.318233 3.071394 4.000000
5.543093 -13.322978 3.045633 4.000000
1.507211 -13.086464 3.025726 1.000000
1.876094 -12.217541 3.068822 0.000000
2.016740 -12.195100 3.068822 22.000000
2.305035 -12.187386 3.079424 11.000000
2.359946 -12.062175 3.051473 4.000000
3.604637 -11.782887 3.059184 8.000000
3.581975 -11.578650 3.009065 23.000000
-0.453627 -11.545561 3.088015 29.000000
-0.343334 -11.499023 3.074589 26.250000
-0.235869 -11.549447 3.087326 15.333333
0.235616 -11.536606 3.083884 12.000000
0.089381 -11.380221 3.041540 9.000000
-1.236737 -11.202363 3.012105 15.000000
-1.401141 -11.138203 3.000228 29.333334
-2.741804 -11.012793 3.033105 13.000000
-3.524187 -10.788644 3.033278 19.000000
-3.448094 -10.784807 3.026048 47.000000
9.474107 -10.780353 3.029112 4.000000
-3.733158 -10.720067 3.033794 25.166666
-3.570040 -10.728726 3.021917 34.750000
-3.400213 -10.751373 3.013655 21.000000
6.109283 -10.749915 3.069786 2.000000
9.515633 -10.691379 3.020852 32.000000
9.658770 -10.749744 3.050176 8.500000
9.891555 -10.768296 3.086109 2.000000
-3.896255 -10.612579 3.021400 19.000000
-3.834071 -10.649578 3.025015 30.000000
8.321039 -10.487254 3.074976 15.000000
6.823252 -10.423051 3.092917 0.000000
8.285830 -10.375764 3.049903 28.000000
8.735226 -10.098486 3.066916 16.000000
7.033215 -9.842026 3.003282 18.000000
9.072690 -9.631074 3.039158 28.000000
6.888534 -9.295752 3.092146 14.000000
9.118588 -8.482417 3.091954 29.000000
9.380986 -7.637323 3.003282 7.000000
9.474318 -7.639275 3.021594 21.000000
-10.896540 3.147187 3.031212 4.000000
-10.748875 3.411830 3.013999 16.000000
-11.285530 4.366045 3.004246 7.000000
-11.247809 4.638306 3.020631 3.000000
-11.168329 4.687852 3.007137 13.000000
-10.292662 4.882853 3.044638 8.000000
-10.185921 4.891212 3.019851 24.000000
-15.599377 7.188114 3.000754 7.000000
-15.490669 7.555301 3.011080 3.000000
-15.466855 7.603933 3.011080 0.000000
-17.231255 8.337336 3.000341 10.000000
-17.384216 8.546561 3.036266 2.000000
12.652962 9.878443 3.094414 7.000000
12.324659 9.969632 3.055800 1.000000
12.618612 9.947712 3.097443 0.000000
12.530027 10.027636 3.093657 3.000000
12.442528 10.129809 3.092900 6.000000
9.100188 12.734472 3.017186 40.000000
9.165379 12.740892 3.025515 46.000000
8.303949 13.503157 3.055800 3.000000
7.930427 13.653231 3.043686 1.000000
8.263743 13.628954 3.072457 20.000000
8.167409 15.609540 3.077855 14.000000
8.376757 15.589935 3.091967 13.000000
8.152829 15.701564 3.090935 12.000000
8.285103 15.654441 3.094377 14.500000
7.322500 16.023273 3.077855 12.000000
7.206874 16.103649 3.082330 16.000000
7.272126 16.046198 3.077855 14.000000
7.410729 16.082497 3.093688 15.000000
7.088843 16.179579 3.086116 14.666667
6.951514 16.281906 3.093000 13.000000
6.709857 16.425610 3.099884 13.000000
6.753919 16.386236 3.096442 12.000000
6.828773 16.348753 3.095409 11.000000
3.769588 18.813786 3.007464 16.000000
3.662957 18.897232 3.017065 16.000000
3.501864 19.024191 3.031930 16.500000
3.583433 18.964783 3.025117 16.000000
3.421267 19.091066 3.039983 17.000000
3.340745 19.161461 3.048654 16.500000
3.204131 19.271538 3.062074 17.000000
3.093876 19.358980 3.072810 17.000000
2.969838 19.465279 3.086282 16.750000
2.870475 19.533171 3.094489 17.000000
-13.653345 -34.049595 3.150174 20.000000
-17.566153 -31.860449 3.124165 3.000000
-12.007627 -28.137873 3.163623 2.000000
-12.007864 -27.895359 3.140582 9.000000
-12.101781 -27.872095 3.142228 17.000000
-12.088732 -27.604326 3.116307 8.000000
-6.507273 -25.547670 3.192655 22.000000
-6.383419 -25.564541 3.190971 37.000000
-6.988698 -25.424311 3.193135 1.000000
-7.849928 -25.125973 3.187846 5.000000
-7.770953 -25.150509 3.187846 8.000000
-8.826449 -24.664871 3.172457 14.000000
-8.715762 -24.598904 3.160435 22.000000
-8.426738 -24.514723 3.139276 6.000000
-8.069521 -24.471598 3.120521 3.000000
-8.285732 -24.353104 3.115231 3.000000
-3.862108 -22.359215 3.150560 5.000000
-3.625072 -22.234297 3.128005 0.000000
-7.030095 -21.306934 3.115352 26.000000
-7.081960 -21.239639 3.108751 1.000000
2.906101 -20.166925 3.193592 2.000000
-3.217532 -19.998163 3.174804 45.666668
-3.130863 -19.993271 3.171913 48.000000
2.313069 -20.052589 3.163861 9.000000
-2.414406 -19.893360 3.140944 0.000000
2.429946 -19.963125 3.152093 7.000000
1.091804 -19.776070 3.104399 6.000000
-2.545726 -19.681725 3.110593 8.000000
-2.635299 -19.646032 3.106877 46.000000
-6.505613 -19.308737 3.193592 5.000000
-6.163033 -19.288084 3.173772 5.000000
-6.034645 -19.303797 3.170055 8.000000
-5.409321 -19.192827 3.125459 7.000000
-5.903935 -19.096134 3.132892 29.000000
-5.805855 -19.097244 3.128556 27.500000
-5.518722 -19.075222 3.112452 50.400002
-5.697673 -19.063845 3.118645 8.000000
-5.618718 -19.017225 3.108116 31.000000
-6.578908 -18.744453 3.113690 9.000000
-0.196685 -18.175619 3.175608 4.000000
0.943731 -18.128494 3.171478 2.000000
-1.960942 -18.050779 3.172166 8.000000
1.182343 -17.990747 3.149908 6.666667
1.404468 -17.985929 3.151858 25.750000
1.102204 -17.918219 3.136369 0.000000
2.771409 -17.840534 3.154268 10.000000
-1.983051 -17.735172 3.117782 12.000000
3.040999 -17.734600 3.143598 9.500000
-4.674598 -17.642765 3.188688 21.000000
-4.352111 -17.416534 3.136369 20.000000
-4.443891 -17.320129 3.123978 17.000000
-0.702586 -16.556021 3.194356 20.000000
0.698756 -16.465765 3.176942 25.000000
0.749052 -16.432100 3.170885 3.000000
3.593683 -16.196671 3.198142 1.000000
-1.243383 -16.122423 3.117128 8.000000
-1.144835 -16.169098 3.124700 16.000000
-1.039680 -16.121096 3.114100 16.000000
-4.371664 -15.882047 3.175428 0.000000
-4.124609 -15.960162 3.177699 27.000000
-2.810615 -15.956069 3.123185 9.000000
4.703644 -15.909822 3.198142 4.000000
-4.185153 -15.784562 3.147918 13.000000
-4.581732 -15.587444 3.131893 11.500000
2.340450 -14.928744 3.189365 8.000000
2.154425 -14.804453 3.157562 13.500000
2.221582 -14.776732 3.153845 36.000000
2.377442 -14.859484 3.176148 11.000000
1.915192 -14.606430 3.109238 1.000000
3.159261 -14.562943 3.145172 5.000000
8.193781 -14.312938 3.179214 0.000000
8.461689 -14.256777 3.195870 0.000000
4.548439 -12.822835 3.125121 20.000000
4.669042 -12.779487 3.125121 7.000000
3.517294 -12.106664 3.130025 12.000000
3.623805 -11.979944 3.107375 1.000000
-1.058721 -11.793005 3.164441 0.000000
4.359440 -11.010747 3.164957 31.000000
4.499329 -10.814262 3.130359 18.000000
4.518324 -10.764441 3.120031 6.000000
5.193896 -10.476804 3.125195 5.000000
5.407847 -10.572411 3.173736 0.000000
5.542077 -10.507038 3.174768 0.000000
5.185329 -10.377470 3.100408 7.000000
7.649418 -10.322594 3.189782 7.500000
8.977629 -10.280376 3.134971 1.000000
8.565458 -9.563136 3.187372 0.000000
6.874384 -9.368621 3.105572 15.000000
8.561770 -9.262073 3.131470 14.000000
8.710364 -8.001226 3.160998 9.000000
-11.295863 3.847623 3.189227 0.000000
-10.897046 4.145048 3.115900 12.200000
-11.151763 4.354618 3.199555 0.000000
-11.099467 4.455207 3.196457 17.000000
12.518782 10.389604 3.136057 14.000000
12.638021 10.399428 3.154985 20.333334
10.768754 10.667738 3.199277 1.000000
8.690134 13.646033 3.118643 22.000000
9.369830 13.648492 3.191328 2.000000
8.709739 13.804095 3.146404 44.666668
8.956799 13.871631 3.182999 5.000000
7.904990 14.115375 3.118643 12.000000
8.353049 14.175005 3.171642 4.000000
8.467704 14.266910 3.198142 16.000000
8.514497 14.243608 3.198899 3.000000
8.483076 15.610887 3.104014 5.000000
8.110216 15.801140 3.102982 10.500000
8.879514 15.803705 3.167003 6.500000
8.964602 15.780551 3.170789 6.000000
9.020003 15.762569 3.172855 6.000000
8.022325 15.874645 3.107456 10.000000
8.731357 15.829771 3.158398 5.333333
7.834296 15.998898 3.112275 11.000000
7.954491 15.926388 3.110210 10.000000
7.541193 16.098577 3.105850 9.000000
7.685765 16.077427 3.113308 11.000000
6.637511 16.469822 3.102293 15.500000
6.480570 16.604799 3.114111 16.000000
6.572221 16.532057 3.108145 16.000000
6.344307 16.719166 3.124207 16.000000
6.227431 16.807919 3.131550 16.000000
6.134478 16.881901 3.138090 16.000000
5.995424 16.996557 3.148761 16.000000
6.066174 16.942165 3.143942 16.000000
5.876667 17.086565 3.156792 16.333334
5.737378 17.207233 3.168954 17.000000
5.595140 17.323034 3.180427 17.000000
5.498122 17.395460 3.187311 18.000000
5.426591 17.455027 3.193507 17.000000
2.815280 19.585119 3.101302 17.000000
2.702923 19.680721 3.113690 17.000000
2.759238 19.632999 3.107497 17.000000
2.588194 19.766483 3.124633 14.333333
2.444898 19.883638 3.140015 13.500000
2.270082 20.017704 3.157667 10.500000
2.357928 19.951864 3.148996 13.000000
2.182588 20.091059 3.167578 9.000000
2.094178 20.162025 3.177178 7.500000
1.975316 20.255413 3.189876 5.500000
-13.340006 -35.509315 3.257290 19.000000
-13.236721 -35.573460 3.259343 15.000000
-9.977974 -25.343525 3.298451 8.000000
-6.342749 -22.778563 3.283140 11.000000
-6.402457 -22.716576 3.277089 18.000000
2.802815 -20.839642 3.295792 0.000000
2.714696 -20.675945 3.268539 1.000000
2.316139 -20.648825 3.256770 2.000000
3.275636 -20.450462 3.246241 0.000000
-6.709349 -19.310024 3.204122 2.000000
-0.025946 -18.582518 3.246514 1.000000
1.805288 -18.445126 3.237909 3.000000
-4.364907 -18.321959 3.290572 43.000000
-4.459319 -18.209972 3.275427 11.000000
-4.929792 -17.995668 3.259823 34.333332
-5.040318 -17.926794 3.253398 48.200001
-4.680976 -17.893711 3.231369 5.000000
-5.158674 -17.872643 3.249956 15.000000
-0.856353 -17.022661 3.285591 5.500000
-0.774627 -16.993177 3.279155 28.000000
-0.400176 -16.982460 3.274613 8.000000
-0.294997 -17.071117 3.291270 26.000000
-0.664451 -16.911366 3.262498 21.000000
-0.505622 -16.936508 3.266284 22.000000
-0.397997 -16.888304 3.256441 26.000000
-0.239088 -16.910942 3.260227 5.000000
0.132767 -16.904255 3.258713 7.000000
-0.569144 -16.718327 3.224642 24.666666
0.078997 -16.763193 3.231456 3.000000
-0.078478 -16.653219 3.210256 3.000000
-2.622935 -16.393841 3.200413 31.000000
4.268091 -16.097183 3.210256 2.000000
5.132242 -16.139832 3.264770 15.000000
-4.362965 -16.047306 3.205713 6.000000
-0.318463 -15.593148 3.291795 0.000000
2.545944 -15.295950 3.272796 21.000000
3.237932 -15.272592 3.295099 29.000000
2.470137 -15.133916 3.236449 12.000000
2.304230 -15.005654 3.204234 1.000000
3.126760 -14.980024 3.229841 12.000000
8.137820 -14.969306 3.284455 10.000000
8.399117 -14.779114 3.276884 0.000000
8.127779 -14.620745 3.224642 0.000000
5.120119 -14.292080 3.204234 1.000000
1.009113 -14.252259 3.281825 5.000000
1.188127 -14.238454 3.281825 10.000000
3.012780 -13.783178 3.240634 0.000000
3.422850 -13.779517 3.261229 2.000000
3.050156 -13.747005 3.234366 4.000000
3.465172 -13.764915 3.260334 7.000000
3.561414 -13.691978 3.249588 1.500000
4.992542 -13.149874 3.230784 14.000000
0.096149 -12.241950 3.271850 1.000000
0.211656 -12.248228 3.273915 18.000000
0.401850 -12.177734 3.256358 0.000000
0.170936 -12.090408 3.231571 4.000000
4.596524 -11.196397 3.234670 18.000000
9.684115 -10.542471 3.288093 8.000000
9.638643 -10.361529 3.250484 0.000000
9.827204 -10.236978 3.259439 14.000000
9.602892 -10.098106 3.200787 7.500000
9.145962 -9.349338 3.247130 16.000000
9.320460 -9.291227 3.267370 0.000000
7.973745 -9.247359 3.263330 37.500000
9.355121 -9.267365 3.269298 47.000000
9.649774 -8.920159 3.262551 3.000000
-11.147977 4.434160 3.206440 2.666667
-11.092710 4.554007 3.204719 8.000000
-15.284573 7.221723 3.258713 2.000000
-15.305576 7.468332 3.282941 1.000000
12.305454 9.576086 3.290969 4.000000
11.265778 10.679573 3.276375 11.166666
11.159012 10.779892 3.274723 8.333333
10.744317 10.880146 3.227363 3.500000
11.084566 10.843445 3.272796 13.000000
10.807866 11.048196 3.262057 0.000000
10.819481 11.129803 3.276100 17.000000
9.026384 12.301395 3.220342 8.000000
9.130382 12.280630 3.229841 3.000000
8.992861 12.584282 3.264535 12.000000
7.444608 13.441555 3.243058 7.000000
9.495288 13.738539 3.219342 13.000000
9.499504 13.930972 3.250384 26.000000
8.642262 14.354751 3.229942 17.000000
5.329995 17.532131 3.201424 16.500000
5.139469 17.701786 3.220355 17.500000
5.238250 17.627598 3.212782 16.000000
5.065752 17.759928 3.226550 17.000000
4.967040 17.838175 3.235041 17.000000
4.767445 17.993183 3.252021 17.000000
4.843425 17.938168 3.246170 17.000000
4.668676 18.078691 3.262118 17.000000
4.491663 18.218231 3.278181 17.000000
4.568841 18.162487 3.271985 17.000000
4.389518 18.297819 3.287474 17.500000
4.314533 18.366266 3.296079 17.000000
1.855180 20.346134 3.202264 4.500000
1.674130 20.494658 3.223013 2.500000
1.765792 20.429476 3.214032 3.000000
1.552157 20.595406 3.237259 1.000000
1.427236 20.669800 3.247479 0.000000
-17.404346 -34.589642 3.325050 27.000000
-17.277792 -34.608494 3.321628 26.000000
-17.518328 -34.545460 3.326077 7.000000
-10.300743 -30.911129 3.369347 3.000000
-11.223699 -30.753332 3.385393 17.000000
-11.082400 -30.664959 3.371816 34.000000
-11.373694 -30.566607 3.372638 3.000000
-11.230830 -30.475252 3.358649 6.000000
-10.715201 -30.546530 3.347540 40.000000
-11.461110 -30.219248 3.342191 3.000000
-11.609164 -30.039009 3.330259 1.000000
-11.493396 -30.019596 3.324088 30.000000
-9.504026 -26.041370 3.357120 3.000000
-10.927546 -25.718571 3.384050 9.000000
-10.332096 -25.766850 3.361929 6.000000
-10.163116 -25.577761 3.333076 26.000000
-10.929252 -25.389643 3.347502 2.000000
-10.415657 -25.282808 3.311435 1.000000
-11.631959 -25.254850 3.367219 5.000000
-6.161546 -23.254770 3.340353 10.000000
-10.064594 -22.207882 3.385463 1.000000
-10.112906 -22.129307 3.378311 27.000000
-10.109422 -21.939100 3.354106 12.000000
-10.345138 -21.728056 3.341453 2.000000
2.516069 -21.226431 3.350299 4.000000
-6.581905 -20.377964 3.356493 21.000000
-6.237401 -18.322243 3.381441 3.000000
-6.183584 -18.352949 3.383506 22.000000
-6.215473 -18.071541 3.338760 6.000000
-0.137767 -17.540522 3.381369 6.000000
1.791465 -17.484875 3.388183 5.000000
1.957051 -17.475021 3.389697 30.000000
2.124502 -17.479195 3.394240 30.000000
-2.252615 -17.391838 3.380612 9.000000
0.521211 -17.458658 3.366983 9.000000
1.729540 -17.420065 3.374555 4.000000
-0.190320 -17.308283 3.336698 11.000000
1.608061 -17.301531 3.349569 15.000000
1.667669 -17.351128 3.360169 4.000000
-4.171309 -16.867968 3.349569 19.000000
-4.208343 -16.717064 3.323069 13.000000
-4.054296 -16.771255 3.326098 14.000000
-4.246279 -16.646673 3.311712 25.000000
-6.274378 -16.294231 3.365848 11.500000
-2.533262 -15.833367 3.384312 10.000000
-2.669932 -15.735476 3.368617 14.000000
-2.214198 -15.734908 3.353748 6.000000
-4.176475 -15.554235 3.399181 30.000000
-3.079033 -15.353302 3.305011 4.500000
4.510834 -14.997265 3.305424 2.500000
1.356183 -14.591509 3.365997 5.000000
1.158368 -14.428642 3.324806 2.000000
4.854661 -13.686357 3.335552 15.000000
3.748444 -13.132908 3.390740 0.000000
4.079589 -12.899540 3.358933 12.000000
0.256210 -12.544997 3.353440 7.000000
1.228233 -12.370859 3.322456 23.000000
1.877476 -12.226542 3.305932 1.000000
3.548696 -11.866029 3.310063 11.000000
8.805235 -10.276872 3.359897 16.000000
8.828270 -10.369514 3.381101 3.000000
9.188751 -10.130226 3.395559 10.000000
7.528014 -9.961094 3.336915 14.500000
9.196337 -9.886051 3.352187 5.000000
9.174289 -9.800426 3.332910 1.000000
9.376111 -9.828698 3.372427 15.000000
9.327613 -9.595147 3.322308 23.000000
9.496862 -9.586792 3.350259 0.000000
9.393165 -9.541883 3.324236 3.000000
8.651484 -9.183945 3.372030 12.000000
8.420757 -9.052280 3.304210 2.333333
-15.420878 7.464708 3.302627 0.000000
14.435866 9.321121 3.312469 14.000000
14.399927 9.362145 3.310955 19.000000
12.480219 9.586794 3.321532 11.000000
12.505772 9.669045 3.336401 11.000000
12.088578 10.161512 3.333097 1.000000
12.399981 10.160114 3.383486 9.000000
12.462192 10.145819 3.391746 0.000000
10.329740 10.427557 3.371370 0.000000
10.037700 10.655474 3.362415 13.000000
15.578531 11.285265 3.360789 1.000000
11.067262 11.456483 3.362009 4.000000
9.516415 12.551064 3.324424 15.500000
9.457351 12.637302 3.331445 9.000000
8.418406 13.451251 3.349205 13.500000
8.132975 13.581229 3.341151 17.000000
8.240559 13.590716 3.354574 0.000000
7.713445 13.672416 3.313272 17.000000
7.843921 13.701801 3.332271 34.000000
8.003964 13.631607 3.336401 18.000000
7.982931 13.743623 3.354574 63.000000
7.943936 13.978175 3.393398 2.000000
9.606905 14.280426 3.317769 54.000000
9.642911 14.237166 3.314741 19.000000
9.597261 14.560538 3.361683 7.000000
9.483578 14.636946 3.362062 6.500000
8.454931 14.986732 3.317012 16.000000
8.398014 15.069658 3.325593 13.000000
8.289794 15.135388 3.326603 15.333333
8.608707 15.147909 3.358655 6.000000
8.139627 15.257064 3.333480 15.750000
7.990575 15.382565 3.341493 16.333334
7.860616 15.487498 3.348055 16.666668
7.730086 15.592653 3.354869 17.000000
7.664280 15.644762 3.358276 17.000000
7.466696 15.803055 3.369255 17.000000
7.552756 15.728645 3.363450 17.000000
7.377691 15.872176 3.374050 18.000000
7.245615 15.980351 3.382378 18.000000
7.157377 16.053104 3.388183 18.000000
6.978401 16.195885 3.399540 18.000000
7.069458 16.127695 3.394492 17.666666
4.236738 18.424778 3.302963 18.000000
4.004052 18.613823 3.326369 18.000000
4.107776 18.529264 3.315813 17.666666
3.925179 18.674883 3.333941 16.000000
3.767579 18.803772 3.350463 17.000000
3.846669 18.739510 3.342202 16.000000
3.660983 18.887032 3.361133 17.000000
3.501717 19.023390 3.379376 17.000000
3.581842 18.956362 3.370427 17.000000
3.420403 19.086241 3.387637 17.000000
3.339187 19.152592 3.396586 17.500000
16.510775 35.262749 3.343530 3.000000
16.517416 35.567467 3.367486 4.000000
16.170416 35.997612 3.388704 2.000000
19.191830 -35.807613 3.488633 13.000000
18.834364 -35.677261 3.464335 12.000000
19.017477 -35.751621 3.477340 15.000000
18.503206 -35.589809 3.444486 8.000000
18.664854 -35.626823 3.453727 13.000000
-11.201848 -31.302752 3.438059 6.000000
-11.025051 -31.116518 3.413783 5.000000
-7.331616 -27.867125 3.489607 1.500000
-11.591940 -26.469913 3.499465 12.000000
-11.940285 -26.140089 3.480229 10.000000
-10.901397 -25.996881 3.413866 4.000000
-12.855129 -25.851149 3.496339 14.500000
-12.700777 -25.845541 3.487443 18.000000
-12.558807 -25.829449 3.478145 18.333334
-4.873780 -24.524523 3.471833 1.000000
-4.748357 -24.496620 3.464681 3.500000
-4.388299 -24.487234 3.454229 27.000000
-4.309980 -24.493093 3.453128 7.000000
-6.376235 -24.374086 3.498239 8.000000
-6.227316 -24.113956 3.458079 52.000000
-5.745989 -24.119133 3.442676 5.000000
-6.573791 -23.898567 3.441576 2.000000
-9.005317 -23.508698 3.495488 22.000000
-9.195989 -23.345369 3.483935 10.000000
-10.210783 -22.720030 3.458630 2.000000
-4.475246 -21.801693 3.488423 5.000000
-1.401611 -21.792360 3.422768 4.000000
-1.333864 -21.808487 3.424626 17.000000
2.710127 -21.696442 3.427103 0.000000
2.149954 -21.616131 3.404805 4.000000
-6.495552 -21.245987 3.482229 1.000000
-2.670128 -19.670898 3.468180 47.500000
-2.570216 -19.628593 3.458542 56.000000
-2.906956 -19.358450 3.419992 9.000000
-2.810038 -19.332916 3.413108 10.000000
-2.720544 -19.357674 3.415173 38.000000
-5.792184 -19.160463 3.497093 6.000000
-5.709394 -19.103060 3.483325 10.000000
0.651185 -18.016331 3.475254 0.000000
1.388048 -17.998215 3.479796 0.000000
2.921175 -17.897314 3.495696 5.000000
3.036889 -17.897873 3.499482 14.000000
-2.392079 -17.809250 3.463897 11.000000
2.436247 -17.716043 3.447240 14.000000
2.705276 -17.617357 3.435883 12.000000
2.048696 -17.545559 3.405219 19.500000
2.184752 -17.515306 3.402569 20.000000
2.637069 -17.540319 3.419226 5.000000
-5.167742 -17.279755 3.476768 19.000000
-5.101181 -17.254475 3.468439 5.000000
-4.826387 -17.113081 3.427554 10.000000
-5.819108 -16.909508 3.447240 8.000000
-1.164780 -16.450111 3.480684 29.666666
-2.923848 -16.299013 3.495002 13.000000
-0.050888 -16.200977 3.419419 31.500000
-2.660872 -16.090155 3.442135 21.333334
-0.160545 -16.135685 3.405789 26.333334
-4.192646 -16.015581 3.494176 28.000000
-4.478126 -15.814747 3.469119 26.000000
-4.198806 -15.835876 3.457830 18.000000
-4.344942 -15.593356 3.416528 31.000000
-4.258521 -15.566444 3.406202 26.000000
2.299959 -14.977843 3.480615 8.000000
2.347003 -14.970544 3.480615 5.000000
2.200485 -14.741857 3.423604 13.666667
3.426976 -14.576649 3.439424 3.000000
3.726168 -14.607680 3.462706 0.000000
4.308349 -14.572758 3.490464 8.000000
4.345174 -14.529269 3.483301 0.000000
4.584609 -14.496395 3.492255 2.000000
4.676311 -14.469045 3.492703 3.500000
4.618053 -14.289246 3.449274 4.000000
-3.036531 -13.685599 3.480376 18.000000
-3.075247 -13.657055 3.475556 0.000000
3.435485 -13.646990 3.493869 2.000000
3.624878 -13.332565 3.430257 4.000000
3.673639 -13.264822 3.417245 11.500000
3.731403 -13.230555 3.412908 5.000000
1.524322 -12.878935 3.466013 23.000000
3.292248 -12.496023 3.453619 2.000000
3.073360 -12.372561 3.407144 2.000000
9.180274 -10.184997 3.404233 8.000000
9.506754 -9.923860 3.411944 4.000000
8.989215 -9.364046 3.469111 5.000000
9.141123 -9.027041 3.433480 23.500000
13.700391 8.514452 3.404550 29.500000
13.724432 8.649406 3.423962 23.000000
13.924516 8.867477 3.484263 49.000000
10.557950 10.524834 3.424201 1.000000
10.973869 10.435705 3.478376 1.000000
10.494836 10.694516 3.441663 6.500000
10.841797 10.706434 3.499867 11.500000
12.462230 10.643753 3.459069 4.000000
10.236643 10.747530 3.409202 14.000000
10.137386 10.829258 3.407188 8.000000
9.959610 11.368872 3.471660 3.000000
11.191129 11.657776 3.410745 11.000000
9.436946 11.741390 3.460019 11.000000
9.345177 11.854300 3.467183 12.000000
8.969580 11.985522 3.438529 0.000000
9.367987 11.960329 3.489569 10.000000
9.581370 13.144157 3.433049 20.000000
9.635031 13.349375 3.474764 5.500000
8.853115 13.523827 3.411572 0.000000
9.437457 13.473080 3.471873 0.000000
8.725266 13.606664 3.411572 0.000000
8.489859 13.708762 3.403311 42.000000
8.840364 13.644203 3.431396 8.000000
9.423824 13.635139 3.498306 4.000000
8.681439 13.727373 3.428092 11.000000
8.090259 14.029699 3.418180 96.000000
7.505235 14.672830 3.478481 6.000000
8.863097 15.482105 3.438911 7.000000
6.866530 16.287209 3.407301 17.750000
6.753093 16.376120 3.414683 17.000000
6.641427 16.471376 3.423579 16.750000
6.480791 16.596800 3.434621 17.000000
6.390030 16.672684 3.441940 17.000000
6.231562 16.810051 3.455946 17.000000
6.321782 16.730154 3.447618 17.000000
6.137218 16.880253 3.462382 17.000000
5.997469 16.992899 3.473739 17.500000
6.068226 16.938581 3.468439 17.000000
5.904060 17.069221 3.481689 17.500000
5.739805 17.204493 3.496201 17.333334
5.835610 17.132191 3.488882 18.000000
3.258148 19.222523 3.406224 18.000000
3.175817 19.288187 3.415173 18.000000
3.010192 19.422394 3.433760 18.000000
3.094250 19.361320 3.425499 18.000000
2.926267 19.487040 3.442709 18.000000
2.842598 19.557133 3.452691 18.000000
2.729952 19.648762 3.465771 17.500000
2.587184 19.758770 3.481489 16.000000
2.443837 19.874983 3.498470 14.000000
18.024828 35.544250 3.422242 9.000000
17.348202 35.870502 3.421557 3.000000
17.461256 36.395535 3.466389 4.000000
16.266436 36.517857 3.432851 10.000000
17.213518 36.464886 3.462624 4.000000
-14.490582 -39.320702 3.598487 27.000000
-10.247773 -32.442543 3.518291 1.000000
-10.540732 -32.306694 3.514177 8.000000
-15.799134 -30.208107 3.525286 4.000000
-15.588980 -30.267872 3.520760 15.000000
-15.627172 -30.109270 3.508005 24.000000
-7.640257 -28.493929 3.572561 2.000000
-12.082800 -27.125664 3.596125 6.000000
-12.062921 -26.629620 3.540341 6.000000
-11.956420 -26.616673 3.533608 8.000000
-11.541935 -26.582691 3.509564 17.000000
-12.284930 -26.453520 3.532166 4.000000
-12.447505 -26.368629 3.531204 7.000000
-12.496156 -26.257681 3.521586 13.000000
-12.508161 -26.071501 3.501869 7.000000
-13.041969 -25.919790 3.513892 11.000000
-8.414589 -24.217838 3.559852 11.000000
-8.713769 -23.863104 3.527395 26.000000
-8.805443 -23.766026 3.519143 24.000000
-8.920994 -23.621277 3.505940 9.500000
-4.392382 -22.471195 3.588765 0.000000
-4.316547 -22.457720 3.584429 6.000000
-3.809123 -22.473181 3.572661 2.000000
-3.446074 -22.467741 3.562751 6.000000
-0.523706 -22.388458 3.510102 8.000000
-8.074514 -21.078804 3.537975 13.000000
-7.948869 -21.147615 3.541072 5.000000
2.091148 -20.374737 3.578325 1.000000
2.254094 -20.095684 3.532890 1.000000
-3.878858 -20.010765 3.561115 19.500000
-3.714124 -20.000544 3.554001 23.333334
-4.480067 -19.719168 3.532890 28.000000
-4.576118 -19.664736 3.527383 36.333332
-5.863871 -19.179852 3.503977 8.000000
-5.692893 -19.268276 3.510173 5.000000
-5.926422 -19.168867 3.505354 32.000000
-2.213594 -18.212206 3.536582 7.000000
-5.434775 -17.765255 3.581253 25.000000
-5.190175 -17.760515 3.566867 6.000000
-5.455736 -17.635525 3.558539 3.000000
-5.957187 -17.489111 3.561567 1.000000
-5.530902 -17.488552 3.535825 2.000000
-6.253348 -17.397917 3.563838 54.333332
-6.135436 -17.427311 3.561567 27.250000
-5.847228 -17.435041 3.544910 8.000000
-7.946918 -16.888006 3.597909 20.000000
2.423078 -16.835798 3.589998 21.000000
-2.838193 -16.727142 3.580911 10.000000
-8.137374 -16.632490 3.569391 30.666668
-3.846017 -16.592859 3.594954 5.000000
-1.332541 -16.598358 3.514552 31.666666
-1.496315 -16.551132 3.507558 15.000000
-8.278395 -16.438305 3.547939 18.000000
-4.090132 -16.465828 3.580911 18.000000
-3.854237 -16.394007 3.554477 35.000000
-3.893922 -16.332327 3.543739 37.000000
-3.947655 -16.218718 3.523088 14.000000
-4.144373 -16.141285 3.517305 13.500000
-4.070183 -16.168243 3.518957 24.000000
5.250121 -15.902826 3.534652 0.000000
2.445140 -15.282608 3.554937 7.000000
2.738653 -15.129732 3.531655 0.000000
2.816311 -15.151176 3.539714 14.000000
1.648807 -14.315881 3.577722 8.000000
1.828081 -14.290180 3.576758 5.000000
1.916797 -14.270719 3.574831 18.000000
2.381440 -14.035217 3.534350 14.000000
-2.957550 -13.807434 3.505756 24.000000
-2.825164 -13.861541 3.512182 16.500000
4.036932 -12.491132 3.508357 4.000000
4.544910 -12.319514 3.509389 3.000000
8.869258 -11.397164 3.585433 13.000000
8.111265 -10.355844 3.515586 23.000000
14.532808 8.905708 3.597432 1.000000
14.160155 9.080192 3.550347 71.000000
14.239601 9.242110 3.582976 21.500000
12.430593 9.363724 3.574637 0.000000
15.114322 10.516469 3.549453 13.000000
12.365094 11.358343 3.543739 6.000000
10.000529 11.524590 3.504792 15.000000
16.814690 11.625685 3.571441 6.000000
10.142481 11.762623 3.567473 5.000000
11.459618 12.088587 3.515653 20.000000
11.593335 12.306852 3.568520 10.000000
11.578688 12.368928 3.575955 32.000000
11.474840 12.491916 3.580085 28.000000
7.630509 13.377750 3.537476 6.000000
7.855861 13.427586 3.573294 7.500000
10.267201 13.570765 3.591650 32.666668
8.969884 14.382730 3.577607 35.000000
8.127506 14.512707 3.510697 33.000000
7.973041 14.611492 3.513175 33.500000
8.707383 14.618341 3.591237 4.500000
8.104521 14.632999 3.530522 23.500000
8.323059 14.752983 3.575129 6.000000
7.735998 15.007495 3.563564 30.000000
7.539804 15.089518 3.560260 36.000000
9.123594 15.821656 3.520682 7.000000
5.597532 17.320114 3.508820 17.333334
5.503663 17.402422 3.518410 18.000000
5.429151 17.452524 3.523332 17.000000
5.239651 17.621014 3.543775 16.500000
5.334253 17.535141 3.533175 17.000000
5.139778 17.691309 3.551346 18.000000
5.066621 17.751228 3.558539 17.000000
4.968629 17.831854 3.568381 17.000000
4.820037 17.951227 3.583019 17.333334
4.670622 18.073181 3.598414 17.666666
2.269722 20.014591 3.519122 12.000000
2.356654 19.941084 3.508107 15.000000
2.180953 20.076010 3.528071 10.000000
2.105388 20.167250 3.542528 7.666667
1.979926 20.302685 3.563868 6.000000
1.890093 20.374584 3.574883 3.000000
1.830295 20.427519 3.583143 1.000000
17.348988 37.052956 3.513273 2.000000
-14.458523 -39.616867 3.621416 4.000000
-14.291998 -39.545902 3.610807 20.000000
-7.263783 -34.320675 3.627736 2.000000
-7.469106 -34.227711 3.622799 5.000000
-12.986032 -33.290276 3.695214 2.000000
-13.087638 -33.241909 3.694391 38.000000
-13.626344 -33.076382 3.699328 3.000000
-13.708812 -32.981976 3.693568 3.000000
-13.758508 -32.810318 3.679167 4.000000
-13.850667 -32.741283 3.676287 6.000000
-15.646699 -32.094711 3.692333 3.000000
-16.156511 -31.613401 3.671350 12.000000
-16.803944 -31.404995 3.683282 26.000000
-16.457006 -30.990267 3.628559 15.000000
-16.210340 -30.994335 3.617038 11.000000
-16.270525 -30.872862 3.608810 27.000000
-6.368195 -25.655867 3.670427 13.000000
-6.506763 -25.527044 3.657774 39.000000
-6.427501 -25.551203 3.658324 40.000000
-8.201843 -24.990116 3.651998 23.000000
-8.395967 -24.919329 3.651173 2.000000
-8.553658 -24.869833 3.651723 5.000000
-11.049721 -23.782839 3.641271 14.000000
-11.276778 -23.684797 3.642371 2.000000
-5.321300 -22.975893 3.696539 1.000000
-4.314941 -22.836176 3.642652 5.000000
-4.562437 -22.586475 3.611683 25.000000
-6.700927 -22.166571 3.629645 3.000000
-8.658826 -21.292034 3.602701 13.000000
-0.753520 -20.948940 3.662310 3.000000
3.145381 -20.896524 3.691911 1.000000
-1.138309 -20.750034 3.630643 2.000000
-1.073322 -20.757442 3.631332 24.000000
1.724802 -20.626497 3.616187 8.000000
1.821660 -20.614187 3.615499 3.500000
1.917665 -20.593630 3.613433 3.000000
3.327485 -20.566967 3.639937 0.500000
3.727928 -20.392052 3.621694 8.000000
0.502750 -18.822632 3.629709 3.000000
-0.430126 -17.467033 3.687746 27.333334
-0.246319 -17.422392 3.677558 23.000000
0.219244 -17.440346 3.681276 24.500000
2.213459 -17.302698 3.681689 1.000000
-7.775321 -17.196415 3.638038 46.666668
-7.624638 -17.246498 3.635009 8.000000
-0.533436 -17.261932 3.645067 20.666666
-7.885307 -17.151957 3.639047 32.333332
1.976599 -17.161959 3.646168 0.000000
-8.694523 -16.997906 3.680438 9.000000
-3.861310 -17.022984 3.684167 8.500000
-8.702891 -16.883226 3.661509 42.000000
-2.164789 -16.922249 3.600736 0.000000
-8.794229 -16.800373 3.655452 32.000000
-8.076921 -16.865423 3.604724 21.333334
-3.517808 -16.853483 3.633778 3.000000
-8.694330 -16.737297 3.635767 32.000000
-3.674220 -16.683823 3.605692 15.500000
-3.574497 -16.688131 3.602113 33.000000
-5.400653 -16.533096 3.670950 13.000000
-5.495410 -16.386276 3.647821 14.500000
-5.558771 -16.319439 3.638734 25.000000
-5.402262 -16.363672 3.637082 5.000000
6.205444 -15.891546 3.600736 0.000000
1.621542 -14.479169 3.617239 28.000000
2.002873 -14.564610 3.650009 4.000000
1.802878 -14.453797 3.616275 0.000000
8.657830 -12.035343 3.680851 0.000000
8.713320 -11.992809 3.680369 5.000000
8.987755 -11.624602 3.648081 8.000000
9.068071 -11.502795 3.636515 2.000000
9.123468 -11.498579 3.644226 22.000000
8.453673 -10.863131 3.678766 8.000000
8.423670 -10.685376 3.636421 33.000000
14.555975 9.725992 3.694905 10.000000
11.963404 10.348355 3.633289 7.000000
15.644645 10.417883 3.623274 3.500000
15.901801 10.409811 3.663780 0.000000
10.031548 10.750068 3.650491 26.500000
11.588929 10.780411 3.635527 0.000000
9.966556 10.849943 3.657719 1.000000
11.791640 10.900081 3.688359 16.000000
11.863150 10.897266 3.700000 0.000000
9.507429 11.096427 3.627841 0.000000
9.625902 11.163527 3.659647 17.000000
12.955855 11.171362 3.610649 4.000000
9.525277 11.259680 3.661575 3.000000
12.649308 11.546357 3.614779 0.000000
12.786981 11.598593 3.643690 11.000000
10.626070 11.677926 3.626573 5.500000
10.586072 11.819103 3.644482 9.000000
16.884684 11.910833 3.609991 8.000000
10.668116 11.986260 3.685673 1.000000
16.944143 12.112931 3.638904 7.000000
17.120258 12.157742 3.668506 1.000000
12.384206 12.268036 3.679210 49.000000
10.306346 12.339375 3.692836 3.000000
10.365129 12.330810 3.700000 0.000000
12.414900 12.375959 3.699862 38.000000
9.689503 12.451198 3.623887 9.000000
9.691824 12.616947 3.654332 13.000000
9.757645 12.620363 3.664182 21.000000
9.961502 12.554776 3.681195 6.000000
11.665194 12.566491 3.618909 30.000000
9.650017 12.727253 3.668659 9.000000
8.408769 13.483010 3.649855 1.000000
8.344307 13.664804 3.677614 26.000000
8.135173 15.248790 3.647821 17.000000
8.657497 15.233761 3.698210 7.000000
8.011103 15.363001 3.656907 15.500000
7.865770 15.467516 3.662483 14.250000
7.706862 15.607386 3.673841 17.000000
7.642687 15.662891 3.678384 17.000000
7.463655 15.796619 3.687471 17.000000
7.551983 15.727026 3.682239 17.000000
7.377952 15.872738 3.694355 17.000000
4.494083 18.214359 3.616459 17.000000
4.570783 18.156809 3.609267 17.000000
4.391464 18.291885 3.626302 17.500000
4.316486 18.360186 3.635767 17.000000
4.170866 18.522667 3.659995 18.000000
4.241772 18.431980 3.645988 17.000000
4.096596 18.601555 3.671731 15.500000
3.946143 18.709660 3.685990 6.333333
4.016779 18.657146 3.678923 15.000000
-12.834931 -33.523552 3.712083 5.000000
-13.431687 -33.194538 3.703031 4.000000
-13.538914 -33.159546 3.703854 10.000000
-17.197332 -31.581446 3.718666 16.333334
-17.025251 -31.579697 3.710026 23.000000
-0.411816 -24.074509 3.773964 1.000000
-5.406107 -23.012920 3.705211 1.000000
-8.052931 -20.164539 3.793451 27.500000
-8.143864 -20.025932 3.776929 26.500000
-8.235629 -19.892448 3.761440 15.000000
-8.309493 -19.806198 3.752491 2.000000
-8.362461 -19.758224 3.748361 11.000000
-8.799714 -19.580284 3.750426 20.000000
-2.620046 -19.506481 3.794008 18.000000
-2.299940 -19.432114 3.772051 8.000000
-2.968172 -19.329401 3.769779 17.000000
-2.837519 -19.285496 3.757665 1.000000
-2.713551 -19.283497 3.753880 5.000000
-9.836049 -19.089685 3.751803 2.000000
-9.774236 -19.116985 3.751114 10.000000
-9.576026 -19.173002 3.744230 1.000000
0.337917 -17.921890 3.783292 27.000000
1.324183 -17.903591 3.789075 2.000000
0.084029 -17.830969 3.763467 21.000000
1.092153 -17.805529 3.765119 0.000000
0.139582 -17.771912 3.751076 25.000000
0.527774 -17.678482 3.732903 1.000000
1.699954 -17.687038 3.750250 8.000000
-0.304907 -17.644585 3.724643 21.000000
0.027660 -17.608059 3.716383 30.000000
1.752415 -17.650455 3.743642 2.000000
-0.799686 -17.542898 3.706470 4.000000
-0.413184 -17.532766 3.701514 19.000000
1.795890 -17.528061 3.718861 3.000000
-8.704232 -17.419901 3.753880 10.000000
-9.272215 -17.184492 3.764101 31.000000
-9.092507 -17.238186 3.756908 30.000000
-8.553512 -17.253616 3.712237 18.000000
-9.561175 -17.135777 3.782651 8.500000
-9.455655 -17.135960 3.772808 3.000000
-9.107908 -17.136702 3.741008 21.000000
-8.697964 -17.137215 3.704666 9.000000
-9.350831 -17.072571 3.752365 34.000000
-5.392018 -16.684048 3.700688 18.000000
0.486740 -16.303989 3.746563 0.000000
0.922685 -16.298780 3.749697 0.000000
0.837862 -16.149185 3.714327 9.000000
-4.437837 -15.926743 3.797604 20.000000
-4.383644 -15.925570 3.794022 13.000000
-3.922282 -14.426442 3.711694 3.000000
1.936391 -13.760702 3.713880 3.000000
3.669016 -13.579357 3.759322 13.000000
9.038451 -11.959635 3.721814 10.000000
13.677571 9.015271 3.762681 1.000000
13.611279 9.344284 3.792231 29.000000
14.626016 9.839395 3.720513 11.000000
12.684638 9.935307 3.700895 5.000000
14.719545 9.992206 3.754931 29.000000
14.742364 10.120785 3.774206 3.000000
14.567760 10.170116 3.749837 9.500000
10.756316 10.522336 3.735789 6.000000
12.647514 10.429514 3.765368 9.000000
12.426866 10.613562 3.753727 4.500000
12.676109 10.553835 3.788650 32.000000
14.075225 10.741873 3.737034 3.000000
12.453322 10.875214 3.797604 34.000000
15.850383 10.881452 3.706180 2.000000
10.418880 11.060116 3.772415 4.000000
15.901691 11.175869 3.746687 5.500000
13.550263 11.317730 3.726295 0.000000
9.558866 11.444448 3.702055 18.000000
9.618574 11.515877 3.725187 11.500000
15.483352 11.549345 3.723594 1.000000
9.649879 11.777260 3.780125 20.000000
13.446779 11.817443 3.778336 4.000000
13.529631 11.740416 3.780814 2.000000
13.430108 11.877777 3.784118 33.000000
15.636308 11.855704 3.782651 13.000000
8.978508 11.997453 3.720368 13.000000
9.343087 11.928539 3.761813 9.000000
9.463013 11.965044 3.787354 22.500000
13.217407 12.218046 3.798987 1.000000
10.521156 12.318658 3.721043 2.500000
12.525885 12.330657 3.709774 22.000000
7.405490 13.223454 3.762776 0.000000
7.902545 14.215583 3.735818 1.000000
8.208600 14.234920 3.774322 14.000000
7.712615 14.402058 3.752533 17.333334
7.620781 14.447984 3.751936 4.000000
7.571801 14.688961 3.795813 0.000000
7.245269 15.979589 3.703166 17.000000
7.067469 16.123137 3.715556 17.000000
7.155930 16.049858 3.708948 17.000000
6.976912 16.192429 3.721339 17.000000
6.865759 16.285419 3.730219 17.250000
6.754537 16.379620 3.739512 17.000000
6.639847 16.467480 3.747566 17.250000
6.482517 16.601198 3.761540 17.000000
6.353989 16.735964 3.778336 16.000000
6.177229 16.907606 3.799263 12.666667
6.269279 16.830605 3.790727 15.000000
3.864477 18.809595 3.701637 0.000000
-10.447520 -25.575340 3.836015 6.000000
-11.603247 -25.390507 3.876174 1.000000
-10.869731 -25.459095 3.843716 3.000000
-4.731558 -24.410053 3.897223 40.500000
-5.818755 -24.088627 3.884216 34.000000
-6.119041 -24.005949 3.882977 2.000000
-5.705616 -24.061501 3.875957 52.333332
-3.624926 -21.801941 3.861259 5.000000
-3.935810 -21.571756 3.830969 37.000000
-7.474133 -20.874439 3.873650 6.000000
-6.638292 -20.888542 3.829248 11.500000
-7.503495 -20.750809 3.855063 13.000000
-8.064143 -20.662140 3.875027 21.000000
-7.957980 -20.580793 3.855063 6.000000
-7.850997 -20.495304 3.834411 26.000000
-8.056809 -20.453398 3.840607 9.000000
-8.846966 -20.020887 3.824085 16.000000
-8.695876 -20.018255 3.813071 2.000000
-2.548974 -19.680243 3.825429 29.500000
-6.892767 -18.774467 3.855336 13.000000
-6.978442 -18.734434 3.853822 0.000000
-8.062397 -18.392815 3.871236 30.000000
-7.910929 -18.360144 3.853822 10.000000
-7.840866 -18.356010 3.847764 22.000000
-7.770906 -18.351618 3.841707 18.000000
-8.496931 -17.983522 3.834136 10.000000
-8.327067 -18.062803 3.834136 26.000000
1.672993 -18.000154 3.815508 1.000000
-8.560143 -17.970924 3.837165 20.000000
-8.352317 -17.968882 3.819751 26.000000
-5.152157 -17.527962 3.855984 19.000000
-9.400046 -17.421341 3.815965 20.000000
-6.189287 -17.276503 3.873331 21.000000
-6.142831 -17.317993 3.878288 2.000000
-6.686619 -17.123789 3.879940 27.000000
-6.388252 -16.986664 3.830377 1.000000
-6.839557 -16.886057 3.845246 21.000000
1.357721 -16.911785 3.896999 22.000000
-7.484242 -16.786222 3.879114 3.000000
-6.980357 -16.777487 3.835333 35.000000
-6.730092 -16.843590 3.828312 11.500000
-0.581221 -16.811888 3.863867 19.000000
-7.326772 -16.714626 3.851854 7.000000
-7.269544 -16.726793 3.849376 33.000000
-7.059999 -16.721451 3.830928 43.333332
1.848927 -16.747471 3.870135 6.500000
-7.126931 -16.636278 3.819914 36.333332
-7.724566 -16.482698 3.841942 2.000000
-7.680998 -16.524630 3.846072 0.000000
-7.290626 -16.491072 3.805596 5.000000
-7.797107 -16.435490 3.839463 8.000000
-4.008072 -16.354824 3.867748 18.333334
2.201636 -15.297192 3.836991 1.000000
2.248549 -15.282519 3.835063 23.000000
2.656675 -15.151798 3.819160 2.500000
-3.261703 -14.071954 3.860535 14.000000
2.886047 -14.047273 3.832650 3.000000
-3.401920 -13.881533 3.819740 13.000000
-3.277928 -13.877641 3.810961 19.666666
8.392823 -11.513653 3.807863 10.000000
12.642227 9.245955 3.888556 1.000000
13.746860 9.373956 3.821781 25.000000
13.767865 9.515557 3.844167 23.000000
13.877038 9.720416 3.891626 38.000000
13.933106 9.694585 3.898790 27.000000
13.567925 9.825150 3.847749 25.000000
13.433633 9.857160 3.827154 22.000000
13.546442 9.874614 3.850435 37.000000
11.693894 10.104632 3.836991 13.333333
11.871333 10.074866 3.865665 4.000000
14.725969 10.384179 3.803117 20.000000
13.093809 10.591811 3.868345 2.000000
9.433986 10.666932 3.805798 3.000000
12.736665 10.706285 3.821781 0.000000
13.048109 10.691167 3.874613 2.000000
9.370127 10.729850 3.807175 8.333333
9.395093 10.895849 3.845043 16.000000
9.455326 11.070740 3.891002 10.500000
10.547055 11.125937 3.806149 0.000000
14.191786 11.115788 3.804770 17.000000
14.249002 11.233006 3.829551 0.000000
16.488182 11.395685 3.863664 21.000000
10.345133 11.808830 3.897712 5.500000
9.564108 11.976463 3.805185 5.000000
13.462893 11.982360 3.803943 1.000000
9.698967 12.067394 3.843738 18.000000
9.850578 12.099545 3.873616 23.000000
9.958515 12.076349 3.886146 4.000000
9.152045 12.722357 3.890965 17.000000
7.544280 13.372562 3.811932 14.000000
8.427811 14.405147 3.833422 3.000000
8.628267 14.331505 3.842376 39.000000
7.537583 14.850965 3.825363 14.000000
6.038105 17.022861 3.812204 3.000000
-17.689493 -34.346268 3.995159 3.000000
-17.399555 -34.311245 3.978290 10.000000
-17.510885 -34.263496 3.979113 14.000000
-17.166500 -34.116940 3.949488 1.000000
-7.286696 -27.854456 3.997751 32.000000
-7.756162 -27.192184 3.926235 14.000000
-7.839354 -27.160070 3.925135 28.000000
-10.999248 -26.217398 3.947690 2.000000
-11.353084 -26.135254 3.956492 4.000000
-4.638454 -24.761692 3.948633 23.500000
-4.851943 -24.414644 3.901559 1.000000
-7.039981 -21.564344 3.963143 11.000000
-7.122249 -21.472946 3.952472 14.000000
-7.483759 -21.322529 3.947998 19.000000
-1.752156 -20.606869 3.986699 7.000000
-1.243679 -20.275904 3.915907 21.000000
-1.149532 -20.307005 3.920828 9.500000
1.756888 -20.285204 3.924992 0.000000
-1.587793 -20.175013 3.901143 9.500000
-4.458071 -20.092461 3.967392 27.000000
-4.737579 -20.010208 3.963985 22.500000
-4.613962 -20.049149 3.965878 50.000000
-4.516859 -20.059198 3.963606 55.000000
-0.801320 -18.882631 3.988978 31.000000
-0.445365 -18.898294 3.989804 4.000000
-0.267399 -18.913393 3.992282 0.000000
-2.631950 -18.703611 3.986500 30.000000
-0.906803 -18.607494 3.931981 8.000000
-0.844954 -18.535967 3.916286 29.000000
-5.194732 -18.092287 3.972870 23.000000
-5.532625 -17.784952 3.931154 1.000000
-5.614810 -17.689388 3.917112 23.000000
-7.151426 -17.342062 3.959240 26.000000
-0.280733 -17.297871 3.973709 20.666666
-7.734354 -17.201681 3.980717 55.000000
-7.018432 -17.172432 3.915460 47.000000
-0.779873 -17.108271 3.933712 0.000000
-0.511168 -17.122307 3.934608 3.000000
-0.404405 -17.162121 3.943115 27.000000
-8.219268 -16.979675 3.981543 34.000000
-7.769087 -16.992455 3.943545 9.500000
-0.688046 -17.056267 3.920878 27.000000
-0.402293 -17.070616 3.922071 24.000000
2.098045 -17.038260 3.943115 1.500000
-3.923418 -16.926786 3.991021 7.000000
-3.398566 -16.946476 3.969978 12.000000
-8.209064 -16.823627 3.950980 26.000000
-4.011612 -16.825956 3.973112 16.000000
-3.618495 -16.807199 3.948935 2.000000
-3.923936 -16.690470 3.938190 24.000000
-3.522013 -16.612545 3.900581 16.000000
-8.816995 -16.464319 3.941893 11.000000
-6.383843 -16.198034 3.999080 14.000000
-4.320618 -15.137561 3.908314 2.000000
-4.225420 -15.164410 3.908314 0.000000
-2.759123 -14.588285 3.967944 19.000000
-2.704803 -14.551291 3.955551 12.000000
3.241686 -14.502537 3.971559 2.000000
-3.030351 -14.293487 3.904944 27.000000
-3.734471 -14.265698 3.941092 26.500000
12.635863 9.518350 3.927591 16.000000
14.155499 9.458402 3.910431 34.000000
12.530203 9.625190 3.922772 38.000000
12.787913 9.538774 3.960843 3.500000
14.155622 9.544457 3.921475 48.000000
12.526062 9.716291 3.935783 30.500000
12.689995 9.684698 3.963252 14.000000
12.723452 9.647129 3.964216 6.000000
12.483168 9.809084 3.941566 30.000000
12.346876 9.828087 3.917953 7.500000
13.791772 9.921348 3.902372 29.000000
13.977058 9.856077 3.928340 38.000000
13.898996 9.932368 3.923862 34.000000
14.111331 10.017284 3.974903 28.000000
12.487998 10.037021 3.977710 12.000000
13.466318 10.377920 3.905058 16.500000
12.000525 10.479796 3.955542 3.000000
11.936024 10.623404 3.967108 4.000000
13.561869 10.553825 3.947144 79.000000
11.455672 10.757584 3.901567 11.500000
11.734819 10.779245 3.956024 2.500000
11.841123 10.740641 3.969035 0.000000
13.636119 10.749849 3.988335 7.000000
15.078598 10.847049 3.920416 22.000000
11.310837 10.926564 3.904459 15.000000
11.471132 11.011956 3.947831 4.000000
11.750700 10.930896 3.984457 0.000000
15.142715 10.965527 3.946023 28.000000
15.244186 11.112177 3.981543 5.000000
14.943540 11.183265 3.939415 13.000000
15.177648 11.136860 3.973283 17.000000
12.767297 11.291578 3.914908 0.000000
15.195316 11.297387 3.996412 74.000000
16.718468 11.400289 3.900764 15.000000
9.103247 11.850729 3.993764 26.000000
12.402492 11.906034 3.948935 21.000000
8.909063 11.982951 3.990665 16.000000
9.002779 11.951431 3.998928 27.000000
12.600518 11.944992 3.988036 27.666666
16.384127 11.982502 3.912878 8.000000
12.395630 12.125990 3.982962 8.000000
12.438616 12.053867 3.978485 4.000000
10.348303 12.154915 3.963252 2.000000
9.433435 12.771851 3.942048 0.000000
9.394842 12.845961 3.951204 15.000000
9.187703 13.000339 3.952329 9.000000
8.884120 13.028516 3.915061 5.000000
9.262941 13.048688 3.972891 14.000000
11.087578 13.190267 3.957890 35.000000
7.605782 14.202573 3.999878 0.000000
9.613805 14.290683 3.956099 4.000000
8.345285 14.901580 3.922967 7.000000
-16.197636 -36.058212 4.087735 12.000000
-16.279644 -35.938290 4.079917 9.000000
-5.680601 -32.921417 4.045761 1.000000
-5.573831 -32.919525 4.043356 10.000000
-7.010125 -32.867157 4.069805 5.500000
-7.135297 -32.698009 4.052974 5.000000
-7.380257 -27.854404 4.001052 15.000000
-12.270597 -26.194927 4.016455 6.000000
-12.578092 -25.995865 4.009854 2.000000
-12.640588 -25.917053 4.003802 7.000000
-11.213666 -23.552242 4.088615 21.000000
-4.120914 -20.717239 4.071877 24.000000
-3.521752 -20.755756 4.058248 21.000000
-2.325554 -20.765491 4.027963 9.000000
-2.183481 -20.670328 4.006763 21.000000
-8.334584 -19.511839 4.090048 8.000000
-8.229594 -19.520098 4.083612 16.500000
-2.032339 -19.048500 4.043221 23.000000
-1.950267 -19.034805 4.038540 24.000000
-0.328913 -19.033768 4.017889 1.000000
-2.729725 -18.966421 4.044323 2.000000
-2.527404 -18.816753 4.007151 106.000000
-9.480123 -18.678268 4.037806 0.000000
-9.520869 -18.613422 4.030234 11.000000
0.278416 -17.720295 4.070716 6.500000
0.027478 -17.492472 4.017885 8.000000
0.192764 -17.530416 4.026839 12.000000
-0.118686 -17.433592 4.004453 26.666666
-3.125576 -17.319258 4.042360 24.666666
-3.348438 -17.258358 4.038033 15.500000
-8.422543 -17.056702 4.014998 10.500000
-9.140987 -16.898832 4.055061 16.666666
-6.854241 -16.474365 4.098475 22.000000
-6.335536 -16.530504 4.066239 6.000000
-6.348523 -16.257959 4.008930 23.000000
0.587263 -16.247808 4.036503 2.000000
-7.619350 -16.126148 4.096684 20.000000
7.001838 -16.110815 4.034898 1.000000
7.493228 -16.120676 4.083252 4.000000
-7.707025 -16.049841 4.089520 24.000000
-7.811489 -15.882040 4.065343 22.000000
-7.586151 -15.926151 4.051912 20.000000
-7.835372 -15.805029 4.051912 18.000000
-8.524186 -15.680010 4.099370 1.000000
-2.626631 -15.096706 4.095320 35.333332
-4.297875 -14.707108 4.094976 17.000000
-3.309050 -14.695365 4.025780 10.000000
-2.875216 -14.695813 4.002026 24.000000
-4.330907 -14.649065 4.082583 16.000000
-4.695298 -14.528248 4.080517 14.000000
-4.463838 -14.510060 4.057280 21.000000
-3.703115 -14.517309 4.004091 21.000000
5.110223 -14.264458 4.049534 2.000000
12.632419 10.284405 4.044214 1.000000
14.101893 10.415819 4.026839 2.000000
14.143858 10.724104 4.076984 1.000000
15.737557 10.876896 4.037714 37.000000
