# This PCD file was generated using the MATLAB® pcwrite function
# from Computer Vision Toolbox®.
# .PCD v.7 - Point Cloud Data file format
VERSION .7
FIELDS x y z intensity
SIZE 4 4 4 4
TYPE F F F F
COUNT 1 1 1 1
WIDTH 1262
HEIGHT 1
VIEWPOINT 0 0 0 1 0 0 0
POINTS 1262
DATA ascii
-11.588893 6.628968 1.146451 45.000000
6.152055 6.702038 1.101728 10.000000
-8.394218 6.794073 1.116752 28.400000
6.300437 6.721290 1.115674 24.333334
6.519401 6.732219 1.134910 2.500000
8.741899 6.763822 1.143002 5.000000
-8.322775 6.836388 1.113790 60.500000
-8.256706 6.869473 1.110704 39.500000
6.141029 6.904662 1.119040 11.000000
-3.818855 6.969345 1.103457 20.666668
5.868072 6.963534 1.102810 36.500000
5.961984 7.007785 1.114231 44.000000
-11.955296 7.014093 1.190256 19.500000
-3.759452 7.017333 1.105382 79.333336
5.734258 7.048372 1.100381 35.799999
6.194478 7.053509 1.136833 24.000000
-8.984598 7.169742 1.188673 7.000000
-8.461004 7.198332 1.148763 22.000000
5.736445 7.188495 1.113750 31.000000
6.298127 7.126253 1.151741 27.000000
-11.053267 7.279989 1.136526 17.000000
-10.970559 7.275030 1.130366 5.000000
6.025445 7.219144 1.138757 33.000000
7.825623 7.400298 1.113790 54.000000
7.659217 7.490043 1.107823 65.666664
7.764581 7.435584 1.111732 22.000000
-11.226892 7.529915 1.160824 57.333332
7.655252 7.604660 1.115847 20.000000
-11.386680 7.706461 1.180673 22.000000
-7.930166 7.679493 1.141562 13.500000
-7.855286 7.751746 1.141254 20.000000
-11.029162 7.823505 1.161167 8.333333
7.208511 8.648808 1.164306 32.666668
7.710492 8.669305 1.199782 50.000000
7.264432 8.872243 1.185793 34.000000
7.161270 9.075828 1.195530 49.333336
7.928790 10.602489 1.136869 2.000000
7.305865 11.017058 1.135158 14.000000
7.915787 11.159205 1.174856 10.000000
6.821042 11.258445 1.130366 12.000000
5.787825 15.188622 1.111509 6.500000
5.723209 15.234425 1.112874 1.000000
7.475298 15.497784 1.176641 19.333334
7.404887 15.559598 1.178369 1.000000
-19.466789 27.392418 1.128300 4.000000
-19.346045 27.404453 1.126286 12.000000
-19.159445 27.413342 1.122931 9.500000
-19.029955 27.595707 1.125481 6.500000
-7.825114 -24.255957 1.298694 9.000000
-8.279608 -24.100378 1.298491 32.000000
-7.911986 -23.923567 1.283970 24.000000
-7.805913 -23.938808 1.283020 12.000000
-8.319854 -23.731215 1.281392 16.000000
-8.482993 -23.601202 1.277931 3.500000
-8.354363 -23.591990 1.275285 7.000000
-8.181077 -23.572308 1.271417 8.000000
7.957261 -16.556143 1.256145 13.000000
6.907333 -16.391874 1.216393 27.333334
6.791771 -16.380344 1.212618 23.500000
9.553770 -16.316616 1.292986 5.000000
9.621202 -16.314020 1.295169 12.000000
9.664255 -16.269991 1.294078 9.000000
9.723516 -16.253246 1.295169 12.000000
6.915689 -16.174475 1.202930 24.000000
7.271330 -16.022127 1.203203 4.000000
8.291044 -15.469213 1.200201 2.000000
7.562946 -13.010103 1.292238 18.000000
7.651546 -12.881683 1.286592 18.000000
7.733459 -12.835087 1.286763 20.000000
7.817157 -12.882279 1.293950 4.000000
7.591601 -12.780631 1.276496 17.000000
8.003165 -12.645093 1.285052 2.000000
8.483615 -12.516126 1.298398 0.000000
7.992438 -11.871613 1.228927 65.000000
8.124281 -11.825321 1.232007 5.000000
8.274258 -11.803706 1.237825 0.000000
8.532739 -11.543973 1.232692 47.000000
8.244968 -11.452985 1.211816 69.000000
8.378491 -11.410106 1.215580 3.000000
8.887042 -11.156507 1.224820 7.000000
9.911092 -11.057736 1.275127 22.000000
9.929696 -10.985562 1.271591 17.666666
9.204903 -10.533209 1.201207 12.000000
7.115086 -10.356383 1.299353 7.000000
10.683372 -9.931079 1.252540 3.000000
7.719990 -9.660285 1.278780 23.000000
6.932921 -9.441480 1.211303 2.000000
8.056920 -9.396848 1.280015 12.000000
8.229788 -9.447261 1.295650 23.000000
7.628858 -9.304067 1.244218 34.000000
7.561895 -9.281718 1.238047 40.000000
7.238578 -9.145868 1.206160 34.500000
7.317406 -9.039472 1.202662 42.000000
7.707399 -9.046561 1.228995 42.000000
8.126164 -9.066305 1.259031 13.000000
7.981205 -8.961059 1.240927 2.000000
8.021904 -8.865688 1.236401 9.500000
7.980478 -8.736674 1.223646 37.000000
8.728329 -8.658474 1.271374 8.000000
9.232658 -8.528607 1.299764 11.000000
9.174692 -8.237696 1.275077 22.000000
6.690609 -7.970793 1.260263 36.000000
7.089670 -7.959886 1.290879 39.333332
7.239435 -7.900425 1.297692 35.000000
8.828230 -7.558692 1.201839 13.000000
7.339323 -7.357277 1.258499 31.000000
5.988114 -6.489254 1.226043 25.333334
6.190474 -6.432837 1.239613 24.000000
6.307476 -6.110213 1.219350 8.000000
10.697414 -6.163729 1.276723 4.500000
8.226569 -5.992323 1.232531 33.000000
8.558481 -6.050811 1.269320 12.000000
10.660698 -6.031529 1.266642 13.500000
10.806882 -6.002688 1.278369 19.000000
8.247131 -5.889139 1.227241 51.000000
8.131858 -5.845485 1.212814 21.000000
5.911899 -5.584820 1.274712 23.000000
10.388136 -5.412323 1.211303 29.500000
10.501964 -5.408868 1.221589 1.000000
10.706679 -5.471813 1.243396 8.000000
8.515730 -5.232769 1.210410 2.000000
8.822862 -5.269924 1.244553 58.000000
8.722324 -5.135777 1.225799 28.666666
6.276647 -4.922297 1.250245 13.750000
6.646511 -4.931682 1.260007 32.500000
6.626244 -4.796601 1.282144 37.000000
7.698497 -4.816154 1.260884 14.500000
7.844099 -4.821949 1.278488 2.000000
6.577114 -4.729618 1.269756 26.000000
7.936722 -4.776407 1.286190 25.000000
6.283165 -4.669694 1.227018 41.000000
6.359448 -4.506699 1.221691 32.400002
6.419142 -4.494732 1.228257 15.000000
6.601920 -4.510415 1.253239 54.333332
7.430384 -4.503546 1.206422 37.000000
6.387517 -4.398226 1.215559 33.000000
9.287212 -4.455666 1.247439 22.000000
9.474858 -4.472464 1.268839 12.500000
9.571466 -4.481641 1.279899 8.000000
6.489604 -4.364121 1.225779 27.000000
7.476203 -4.351344 1.201104 38.333332
9.485898 -4.369043 1.264751 16.000000
9.515781 -4.202926 1.259782 8.333333
8.213803 -4.134705 1.276838 7.000000
9.173147 -4.155334 1.219547 20.000000
9.630672 -4.181540 1.271484 16.000000
9.474137 -4.043017 1.247439 14.000000
6.307364 -3.932111 1.298560 3.666667
9.410919 -3.911654 1.234214 8.000000
8.479117 -3.874884 1.294442 4.000000
6.380948 -3.731713 1.291446 16.000000
7.025044 -3.732138 1.246839 96.000000
6.350735 -3.620940 1.237621 24.799999
6.779857 -3.629236 1.205339 6.000000
6.976149 -3.608355 1.231044 9.000000
8.463432 -3.676493 1.281239 2.000000
6.252327 -3.423049 1.245323 26.000000
6.348178 -3.458426 1.262992 16.333334
6.419793 -3.436495 1.272171 3.000000
6.454852 -3.249275 1.262533 30.000000
7.492531 -3.282755 1.282144 11.000000
6.232372 -3.112779 1.217098 46.000000
6.326854 -3.135175 1.233620 39.000000
6.201426 -3.000525 1.203606 35.200001
7.520072 -3.044415 1.271615 6.000000
9.500483 -3.000947 1.206563 4.000000
7.300358 -2.902214 1.231354 6.000000
7.148383 -2.802873 1.203481 2.000000
7.273516 -2.786217 1.220824 9.000000
7.340175 -2.772114 1.229805 31.500000
7.362992 -2.378182 1.212772 13.000000
5.604195 -2.235826 1.273488 26.666666
5.470875 -2.096786 1.236591 89.000000
7.450042 -2.175722 1.216488 48.000000
7.164579 -1.754487 1.288693 19.000000
10.185956 -1.757589 1.251767 29.000000
11.678399 -1.751600 1.221177 0.000000
5.596471 -1.645281 1.231222 13.500000
5.676620 -1.600973 1.244852 4.000000
6.824058 -1.603081 1.224671 27.000000
6.935882 -1.683087 1.246929 11.333333
10.288837 -1.659067 1.262106 3.500000
10.368012 -1.655119 1.271484 14.000000
11.744312 -1.686105 1.226938 2.000000
6.781200 -1.525723 1.214345 8.000000
10.217275 -1.565288 1.251767 6.000000
5.554987 -1.482202 1.213462 31.000000
6.089267 -1.472024 1.207632 9.000000
8.107492 -1.400407 1.289577 8.000000
5.622145 -1.344124 1.220070 53.400002
5.784189 -1.321620 1.252286 34.000000
5.844480 -1.335289 1.228798 33.000000
7.877319 -1.386149 1.253652 0.000000
5.878726 -1.275316 1.269633 5.500000
6.537597 -1.222308 1.282083 28.333334
5.278312 -1.127746 1.239751 48.500000
8.104056 -1.113000 1.282144 1.000000
5.518636 -1.007882 1.288553 19.000000
6.607480 -1.014628 1.288645 0.000000
7.843907 -1.060709 1.240645 12.333333
7.922111 -1.012035 1.251794 17.000000
5.420250 -0.937282 1.263480 51.750000
7.300161 -0.909283 1.285251 32.000000
5.274678 -0.795768 1.225274 27.666666
5.324420 -0.872554 1.239303 34.400002
5.506390 -0.845547 1.279598 94.000000
6.530802 -0.793771 1.268203 27.500000
6.572474 -0.715150 1.274449 26.750000
8.223853 -0.762903 1.294532 56.000000
8.771770 -0.647237 1.221275 2.000000
8.860456 -0.430248 1.231728 9.000000
9.214018 -0.418407 1.280689 4.000000
10.260987 -0.286616 1.243111 9.500000
6.439115 -0.171988 1.241703 0.000000
6.383650 -0.043434 1.230598 35.000000
6.350558 0.149618 1.224541 68.333336
7.259109 0.115349 1.268385 58.000000
7.712647 0.134625 1.209056 3.000000
7.770290 0.208901 1.218347 5.000000
8.966823 0.142400 1.245206 6.000000
5.768359 0.272032 1.218831 29.500000
5.892757 0.250071 1.244852 76.000000
8.918270 0.380024 1.239429 0.000000
5.321856 0.494643 1.227662 13.000000
5.751621 0.470789 1.218005 38.500000
5.833773 0.449908 1.234939 23.000000
5.148794 0.552020 1.253298 47.333332
5.290678 0.555699 1.221931 31.400000
5.741901 0.515482 1.216766 40.000000
5.422550 0.701685 1.218521 35.272728
5.343615 0.717737 1.238407 0.000000
5.713733 0.724668 1.215665 58.000000
6.633987 0.721853 1.286374 50.000000
7.240242 0.812123 1.272859 23.000000
9.094241 0.789246 1.267486 0.000000
7.031763 0.904068 1.238636 22.857143
7.250473 0.882882 1.209987 16.000000
9.087771 0.817458 1.266936 2.000000
6.249165 0.934491 1.218042 24.250000
6.362089 1.007719 1.241703 41.000000
7.081026 1.002222 1.249454 28.000000
6.047071 1.045597 1.295241 4.000000
6.796011 1.044792 1.201265 6.000000
6.893905 1.082022 1.219164 11.000000
7.297519 1.075001 1.288693 7.000000
7.335961 1.057128 1.294888 25.000000
7.682524 1.045439 1.215250 6.500000
6.521906 1.169951 1.277288 2.000000
6.811951 1.190296 1.208149 49.500000
6.864377 1.188151 1.217098 93.500000
6.934026 1.301209 1.232588 89.500000
7.674443 1.278848 1.219482 31.666666
7.028940 1.319221 1.249454 61.500000
5.730806 1.490675 1.249808 35.000000
5.851028 1.459880 1.211273 28.444445
8.028014 1.441575 1.278428 10.000000
7.151967 1.564612 1.279055 29.000000
7.239335 1.607574 1.295577 4.000000
8.067472 1.553551 1.287719 12.000000
7.705466 1.685699 1.236309 4.000000
6.878382 1.761728 1.240504 26.750000
7.797102 1.782910 1.253652 7.000000
7.105217 2.150605 1.296953 36.000000
7.388596 2.160576 1.206578 52.000000
7.764501 2.297002 1.269137 18.000000
7.697164 2.356198 1.261704 22.000000
7.787534 2.330447 1.274092 9.000000
6.786777 2.416586 1.258632 65.000000
7.267406 2.502369 1.204720 13.000000
4.398181 2.591761 1.267431 7.000000
4.509331 2.544036 1.285423 19.000000
6.484510 2.556931 1.217787 13.000000
6.803398 2.757042 1.282497 18.000000
7.494421 3.258667 1.280905 5.000000
7.492655 3.427133 1.291435 2.500000
7.876961 3.814659 1.215224 26.000000
8.121037 3.901411 1.250982 20.000000
6.655681 4.210799 1.234451 29.000000
6.779235 4.229559 1.252413 25.000000
6.829492 4.290779 1.264182 49.000000
6.930212 4.263494 1.275331 26.000000
7.755262 4.249402 1.227877 7.000000
6.384747 4.384835 1.214011 29.000000
6.434758 4.374669 1.219585 44.500000
6.635055 4.330399 1.241884 46.000000
6.379048 4.454951 1.219541 62.142857
6.585187 4.416699 1.242813 55.500000
7.337487 4.788809 1.216599 90.500000
7.399233 4.878895 1.230627 33.000000
-11.514528 4.999494 1.298118 10.000000
-9.242592 4.964132 1.270522 8.500000
7.791214 4.929209 1.280138 45.000000
-11.498767 5.035641 1.298118 26.000000
-9.229571 5.013335 1.271964 3.000000
-8.771618 5.090864 1.228203 15.000000
7.086081 5.082479 1.210823 5.000000
7.184252 5.101809 1.223476 4.000000
-17.760296 5.153159 1.264605 8.500000
-8.960776 5.144412 1.251286 26.500000
-8.812177 5.176261 1.237661 37.666668
-10.642675 5.271430 1.228172 11.000000
-9.366837 5.241383 1.299856 58.000000
-8.731839 5.290274 1.236378 50.000000
-18.007591 5.317000 1.283980 72.000000
-17.788918 5.333537 1.269972 27.666666
-17.026712 5.319532 1.219849 10.000000
-10.578865 5.336827 1.225292 22.666666
-8.857306 5.328317 1.251767 77.000000
-8.742296 5.334225 1.240225 32.000000
-13.338049 5.445873 1.237140 1.000000
-13.151370 5.417916 1.221398 17.000000
-12.955357 5.432631 1.206340 52.000000
-9.122868 5.449116 1.286872 80.000000
-16.955938 5.532224 1.219668 17.333334
-16.730335 5.575176 1.205932 46.000000
-13.050658 5.545000 1.217634 8.000000
-17.669630 5.642496 1.268425 16.000000
-16.727867 5.632799 1.207023 2.000000
-16.676086 5.673751 1.204567 1.000000
-13.149271 5.709282 1.230980 17.000000
-18.073914 5.896994 1.300081 37.000000
-16.975191 5.835088 1.227491 72.000000
-16.706345 5.830853 1.210025 7.500000
-13.606415 5.857030 1.272047 6.000000
-12.821456 5.905349 1.212158 14.000000
10.513032 5.892403 1.246276 1.000000
10.639153 5.853755 1.255739 26.500000
5.729319 5.951568 1.294842 6.000000
6.741831 5.964668 1.249882 77.000000
6.702971 6.043861 1.253182 85.000000
6.936689 6.079088 1.280689 56.000000
-12.917788 6.122783 1.227558 5.000000
-9.935730 6.169986 1.209451 20.500000
-8.671936 6.130999 1.286151 49.500000
6.607211 6.148401 1.253182 69.000000
8.429220 6.169299 1.264991 3.500000
8.524113 6.116177 1.270522 15.500000
-17.154602 6.260721 1.248777 2.000000
8.123215 6.312250 1.245836 22.333334
-17.128632 6.342866 1.249049 14.000000
-10.735971 6.412628 1.293181 1.000000
-8.229548 6.368520 1.260182 58.000000
5.868629 6.391035 1.204772 78.000000
8.084002 6.377491 1.246958 14.000000
8.322037 6.355776 1.268117 8.000000
8.433702 6.399208 1.282063 0.000000
-13.161366 6.416381 1.257332 9.000000
-12.957681 6.468938 1.243643 6.000000
-12.724844 6.452887 1.225163 5.000000
7.706744 6.597270 1.228564 32.000000
-17.673878 6.639649 1.291076 18.000000
-12.600762 6.640815 1.223109 8.000000
7.554566 6.622870 1.216662 49.000000
-8.222284 6.797148 1.291921 11.500000
6.455607 6.769585 1.298843 41.000000
7.513877 6.734590 1.221951 50.666668
-17.504280 6.891586 1.286436 16.000000
-12.864761 6.849053 1.251514 3.666667
-8.191553 6.858919 1.293845 4.500000
-7.505876 6.911730 1.235657 33.000000
7.469243 6.909430 1.232211 12.000000
-17.445456 6.931814 1.283707 25.000000
-7.810814 7.057654 1.274850 54.500000
-7.596862 7.061913 1.256095 81.000000
-7.505042 7.020637 1.244553 7.000000
-12.967313 7.202699 1.273758 44.000000
-7.905130 7.142653 1.290238 43.000000
7.230831 7.168004 1.233012 27.000000
-9.281546 7.454560 1.231052 5.000000
7.714330 7.457452 1.299375 0.000000
6.975732 7.793715 1.266675 1.000000
7.210458 7.805694 1.286872 1.000000
-12.007237 7.827378 1.230809 6.000000
-9.012026 7.814722 1.233521 3.000000
-12.020120 7.971036 1.238509 9.000000
6.128667 7.958231 1.216421 23.000000
-8.799514 8.205689 1.244219 4.500000
6.195240 8.163477 1.241067 7.000000
7.795212 8.636168 1.203074 36.666668
7.703162 8.771413 1.207188 22.000000
7.708642 8.974794 1.223440 27.500000
7.812009 8.989776 1.231601 13.000000
7.365283 9.111574 1.211577 12.666667
7.760380 9.121641 1.238458 42.000000
7.212611 9.335394 1.219943 29.000000
7.246484 9.548692 1.239590 27.750000
6.876443 9.629748 1.223646 63.000000
7.175370 9.658079 1.244218 6.750000
7.384330 9.619969 1.254093 26.000000
6.744714 9.713708 1.222906 29.799999
6.863930 9.741065 1.232286 64.000000
6.274614 9.883324 1.210617 33.500000
6.446752 9.889297 1.220766 6.500000
6.698874 9.831237 1.230229 9.000000
6.963558 9.816810 1.244630 66.000000
6.748239 9.970856 1.245041 0.000000
6.855769 9.993879 1.253270 23.000000
7.331003 10.131104 1.293181 64.000000
6.446239 10.272202 1.254093 54.000000
6.879879 10.304252 1.281249 46.000000
6.343223 10.359380 1.256150 39.000000
6.712864 10.404358 1.280426 4.000000
5.855133 10.489614 1.242298 7.000000
6.024218 10.493131 1.251213 4.500000
6.186062 10.430952 1.254093 11.000000
6.498108 10.427473 1.270551 55.000000
5.757029 10.519786 1.240104 0.000000
6.337396 10.572320 1.274666 5.500000
5.984359 10.655317 1.263762 20.500000
8.919270 11.105236 1.223109 0.000000
-8.014805 -26.248003 1.398437 3.000000
-8.407705 -26.061846 1.395384 1.000000
-7.457688 -25.871649 1.371975 11.000000
-7.334784 -25.748955 1.364239 2.000000
-7.147675 -25.548534 1.351822 22.000000
-7.019825 -25.554996 1.350398 15.000000
-8.505764 -25.362305 1.363086 19.333334
-7.479901 -25.349174 1.346733 53.000000
-10.472710 -25.097275 1.385715 8.000000
-10.356604 -25.151926 1.386020 5.000000
-8.828693 -25.182606 1.359761 7.000000
-7.634108 -25.142437 1.338897 14.000000
-7.320810 -25.100262 1.332281 7.000000
-5.362872 -25.165506 1.311111 3.500000
8.059433 -25.162529 1.346326 6.000000
-8.703691 -25.078129 1.352637 29.000000
-7.470378 -25.026974 1.330856 13.000000
-9.176210 -24.913370 1.352840 37.000000
7.858531 -24.939201 1.332383 42.500000
7.612663 -24.837860 1.323732 7.000000
7.691834 -24.817638 1.323935 37.000000
-7.748702 -24.725960 1.320339 28.000000
-7.630482 -24.711172 1.317828 25.000000
7.995708 -24.696217 1.322714 9.000000
8.098098 -24.746914 1.326785 20.000000
9.845917 -24.716585 1.355690 6.000000
-10.589353 -24.611853 1.365257 1.000000
8.164515 -24.687214 1.324953 11.000000
8.270620 -24.618122 1.323324 14.500000
9.724217 -24.635921 1.349583 0.000000
-10.895763 -24.576061 1.369837 11.500000
-10.636405 -24.508837 1.361390 3.000000
-7.824174 -24.516375 1.311315 7.000000
8.889115 -24.529158 1.329431 6.000000
9.234667 -24.516459 1.334927 3.000000
9.883289 -24.585455 1.350194 0.000000
7.820599 -24.416861 1.306429 6.000000
9.001148 -24.477592 1.328922 14.500000
9.907921 -24.424719 1.343069 4.000000
-12.430574 -24.333349 1.392330 26.000000
-11.216204 -24.363367 1.366682 31.000000
-9.099102 -24.349682 1.324546 21.000000
10.032213 -24.291832 1.339202 10.000000
9.229289 -24.270756 1.323121 2.000000
10.235759 -24.137358 1.335945 6.000000
-12.672061 -24.055056 1.385409 18.000000
-12.429248 -24.019566 1.378081 5.333333
-10.884947 -24.040333 1.344698 17.000000
-9.094837 -23.992777 1.307447 9.000000
-10.766824 -23.979658 1.339405 13.000000
-9.154465 -23.923046 1.305208 14.000000
-12.481678 -23.875256 1.372789 16.000000
-9.242990 -23.854683 1.303579 16.333334
-10.794502 -23.642618 1.324342 14.000000
7.317516 -19.072731 1.396960 26.000000
7.542228 -19.030043 1.399825 3.000000
9.831035 -17.934454 1.398597 2.000000
7.212317 -17.629246 1.302537 15.000000
9.945746 -17.614899 1.383315 6.000000
9.767202 -16.801962 1.329008 2.000000
6.615196 -14.823143 1.393879 38.000000
6.651915 -14.780483 1.391826 25.000000
6.700954 -14.403040 1.364106 9.000000
6.760624 -14.334700 1.360969 28.166666
6.891772 -14.339252 1.366159 13.000000
7.215122 -13.913447 1.345854 22.000000
6.686160 -13.690464 1.308323 18.000000
7.567883 -13.703542 1.344257 37.000000
7.665421 -13.726851 1.350074 15.500000
6.779665 -13.663627 1.309806 39.000000
6.859460 -13.608924 1.308665 12.000000
7.153751 -13.654831 1.323723 38.000000
6.908596 -13.564650 1.307182 35.333332
7.286902 -13.493722 1.316879 36.000000
7.368646 -13.492392 1.320130 30.000000
7.071957 -13.396154 1.300794 44.000000
7.167834 -13.424194 1.306783 36.000000
7.537981 -13.350510 1.316536 47.000000
7.536549 -13.218422 1.306612 20.333334
8.474206 -13.205000 1.347337 26.000000
8.565395 -13.255301 1.355208 4.000000
7.569845 -13.116641 1.300452 37.000000
9.546081 -13.172868 1.396959 45.000000
8.472240 -13.021217 1.333990 18.000000
9.498167 -13.020463 1.383955 41.000000
9.183212 -12.883965 1.358630 27.500000
9.439657 -12.687365 1.357946 44.000000
9.462748 -12.635317 1.355550 52.000000
8.549852 -12.528915 1.302505 13.000000
9.947283 -12.487595 1.370950 13.500000
11.001326 -11.968045 1.395932 1.000000
10.086056 -11.541516 1.316194 8.000000
7.693952 -10.830441 1.373825 81.000000
7.089503 -10.747713 1.331445 6.000000
7.524539 -10.662761 1.349549 12.000000
7.546483 -10.517718 1.338646 10.500000
8.029745 -10.513877 1.368064 22.000000
7.068384 -10.445961 1.304290 4.250000
7.614279 -10.035077 1.302644 113.000000
8.498862 -9.602837 1.326097 65.000000
-5.487360 -9.420708 1.320294 13.000000
8.339901 -9.483091 1.305936 38.000000
-5.524667 -9.382768 1.318611 31.000000
6.581145 -9.243614 1.374154 37.000000
8.686568 -9.128166 1.303056 17.500000
6.800556 -9.021364 1.368143 1.000000
7.044014 -8.928879 1.377280 59.000000
7.179771 -8.955346 1.390024 39.000000
6.906037 -8.810635 1.355709 36.000000
7.229488 -8.885052 1.387187 31.799999
7.236125 -8.768764 1.376799 13.000000
9.660487 -8.756524 1.348315 18.000000
9.230186 -8.607282 1.305113 25.000000
6.958314 -8.219493 1.304184 50.000000
7.075485 -8.231135 1.314475 45.000000
7.085119 -8.141850 1.307070 41.000000
7.277538 -8.042958 1.313562 34.000000
7.489874 -8.062878 1.332717 25.333334
7.519967 -8.027582 1.332076 25.000000
8.120490 -8.013397 1.381608 58.000000
7.919435 -7.889082 1.353716 56.000000
7.908246 -7.730818 1.339290 32.000000
7.975219 -7.747439 1.346503 13.000000
8.700575 -7.608632 1.399722 38.000000
10.696267 -7.587400 1.356132 9.000000
7.868598 -7.572052 1.322458 27.500000
7.945570 -7.558619 1.328069 41.000000
8.739154 -7.546017 1.398279 29.666666
10.588190 -7.560850 1.345435 8.000000
4.813425 -7.325009 1.373814 1.500000
5.014594 -7.375915 1.397971 15.000000
4.825266 -7.218777 1.360962 23.000000
5.022901 -7.264822 1.384344 7.000000
6.162762 -6.350604 1.387028 21.000000
9.250373 -6.176231 1.346984 1.000000
6.457718 -5.992482 1.380834 14.666667
9.434755 -6.024575 1.355640 4.000000
6.359467 -5.951085 1.365143 18.000000
9.317011 -5.846817 1.332076 3.000000
9.247375 -5.642407 1.311879 14.000000
6.451152 -5.525344 1.331342 27.428572
6.621037 -5.492987 1.348419 3.000000
9.233053 -5.574138 1.306108 16.000000
11.795888 -5.545681 1.347903 9.500000
5.842657 -5.439909 1.394707 21.600000
6.502654 -5.446748 1.329528 16.000000
6.626063 -5.462106 1.345942 3.000000
8.522868 -5.276170 1.391814 39.000000
6.608644 -5.069174 1.330248 21.166666
6.649896 -5.023782 1.306301 23.500000
6.735701 -4.908157 1.306301 22.000000
8.353485 -4.920579 1.346153 28.000000
8.481871 -4.889119 1.359356 7.000000
8.631300 -4.939192 1.380811 59.000000
6.229761 -4.877736 1.382316 25.000000
6.319520 -4.884281 1.395395 27.000000
7.423509 -4.857809 1.390538 11.000000
7.162329 -4.751435 1.347180 29.000000
6.541044 -4.610781 1.398149 16.000000
7.163716 -4.655727 1.339128 25.000000
6.512295 -4.514343 1.384381 31.500000
6.239956 -4.442751 1.338258 35.500000
6.358606 -4.452344 1.356156 38.000000
7.144819 -4.438631 1.318379 24.500000
6.343742 -4.338785 1.342732 36.000000
6.596543 -4.376096 1.383004 40.000000
6.325865 -4.253966 1.331833 31.333334
6.438988 -4.148915 1.338258 3.083333
6.729885 -4.107939 1.377497 137.000000
6.367374 -3.997344 1.313475 9.000000
7.452469 -4.080108 1.331696 3.000000
7.517334 -4.084977 1.340987 4.000000
7.630994 -4.023366 1.352136 47.000000
7.804662 -4.083647 1.380628 26.000000
6.578648 -3.921774 1.338086 26.666668
6.092046 -3.589960 1.363097 37.333332
6.173786 -3.578514 1.375608 39.857143
6.277810 -3.541635 1.389470 35.000000
6.698498 -3.558656 1.325178 76.000000
9.072106 -3.540715 1.352205 7.000000
6.202216 -3.409719 1.364359 34.000000
6.649164 -3.472436 1.310549 21.250000
6.721684 -3.454610 1.320359 51.333332
6.184958 -3.353906 1.356283 25.333334
6.389742 -3.319222 1.388019 13.000000
9.261829 -3.316216 1.365958 9.000000
6.416060 -3.231152 1.384802 4.000000
9.203978 -3.230402 1.354405 54.000000
9.268139 -3.244737 1.363482 17.500000
7.044323 -3.165844 1.349272 5.000000
11.079999 -2.896451 1.386898 8.000000
6.476970 -2.754649 1.356787 12.500000
6.425910 -2.439691 1.324988 12.000000
6.630058 -2.469561 1.363854 13.666667
7.218084 -2.406735 1.329308 5.000000
10.608010 -2.419818 1.317649 2.000000
5.465684 -2.284067 1.360636 43.000000
6.172312 -2.113486 1.377019 11.000000
7.267468 -2.172052 1.325178 33.000000
6.269705 -2.069866 1.393540 89.000000
7.627868 -1.995430 1.377497 5.666667
11.180754 -2.037936 1.376318 6.000000
5.893362 -1.939531 1.391971 19.428572
6.014450 -1.943774 1.334065 94.000000
8.358020 -1.935748 1.344703 3.000000
11.019021 -1.972709 1.355640 7.000000
5.744496 -1.836617 1.385261 12.000000
7.015425 -1.719259 1.392373 0.000000
5.968153 -1.662970 1.307631 9.000000
5.830522 -1.572078 1.387052 30.333334
6.738689 -1.450802 1.328773 5.000000
6.858483 -1.454062 1.351488 43.000000
5.546849 -1.353180 1.382263 68.000000
5.709270 -1.338439 1.346936 27.799999
5.925827 -1.314809 1.394216 10.000000
6.198894 -1.293888 1.336543 31.000000
5.499261 -1.211100 1.398030 46.500000
5.689668 -1.281179 1.339593 44.000000
6.137756 -1.261017 1.322500 41.000000
7.381324 -1.251108 1.307968 37.000000
7.902491 -1.212075 1.396772 3.000000
5.734760 -1.103303 1.341384 6.000000
5.952761 -1.135671 1.391977 36.500000
5.332359 -0.999854 1.346947 43.500000
5.436405 -1.051835 1.374737 29.000000
7.585139 -1.053840 1.337914 43.000000
7.830204 -1.050337 1.380250 40.000000
8.380139 -1.043801 1.323644 8.000000
5.380937 -0.982734 1.358031 22.000000
6.726641 -0.903501 1.308331 8.000000
6.879412 -0.946032 1.338616 43.000000
7.393653 -0.953217 1.392229 36.666668
7.493559 -0.981224 1.320359 50.000000
8.285051 -0.807980 1.304752 39.500000
6.021722 -0.731908 1.393320 1.000000
6.571252 -0.600356 1.392714 57.500000
6.486069 -0.541231 1.373715 3.000000
8.442117 -0.529669 1.325811 6.000000
6.509048 -0.478817 1.377536 33.875000
7.075256 -0.300252 1.365116 30.000000
7.937609 -0.310482 1.387823 10.000000
6.433199 -0.252761 1.358846 45.000000
11.304725 -0.244687 1.369345 22.000000
6.283916 -0.108673 1.385291 8.000000
6.466813 -0.179177 1.365455 27.000000
6.800870 -0.160272 1.311359 60.000000
8.348832 -0.142814 1.308778 20.000000
11.359914 -0.156642 1.375837 1.000000
6.527785 -0.071779 1.377845 39.000000
7.023798 0.110317 1.354137 20.500000
7.797637 0.062604 1.362352 8.000000
7.614487 0.180775 1.330685 30.000000
7.889604 0.212108 1.378873 24.000000
7.964940 0.280788 1.392412 9.666667
7.670690 0.368950 1.341700 18.500000
7.829091 0.325145 1.369006 75.333336
5.279466 0.499063 1.316586 119.500000
7.179843 0.531035 1.387830 19.000000
5.506591 0.704434 1.378271 90.000000
8.802119 0.624767 1.383105 27.000000
8.865000 0.685237 1.393635 9.000000
5.239539 0.779318 1.315140 25.000000
6.994983 0.768569 1.356535 33.666668
7.023412 0.808910 1.362845 37.000000
7.063565 0.911307 1.372940 36.333332
5.646171 0.958019 1.315416 7.000000
5.718374 0.951798 1.331534 71.000000
6.721714 0.967417 1.309088 106.000000
7.091100 0.982641 1.380006 20.333334
8.425329 0.965181 1.329218 13.500000
6.090543 1.097510 1.306186 27.000000
6.295325 1.221391 1.353477 11.500000
6.081086 1.339239 1.314240 37.500000
6.168622 1.333636 1.332059 31.571428
5.994636 1.469096 1.302675 38.000000
6.174257 1.451608 1.338691 33.200001
6.982903 1.434654 1.374202 12.000000
6.803249 1.531937 1.344295 26.750000
6.891078 1.597266 1.363602 2.000000
6.017580 1.615783 1.315066 32.000000
6.819179 1.868466 1.362996 28.575001
6.822342 2.040313 1.372687 14.000000
7.084378 2.054563 1.377109 32.666668
7.214299 2.072036 1.379217 44.500000
7.128567 2.182143 1.302461 5.000000
7.577213 2.151279 1.376120 41.500000
7.356425 2.285612 1.345830 29.333334
8.410733 2.231637 1.363904 9.000000
6.661012 2.409957 1.365494 30.500000
6.774245 2.378945 1.384044 11.000000
7.336893 2.330259 1.344912 27.333334
4.590861 2.552093 1.304057 0.000000
4.702142 2.575414 1.331044 1.000000
4.782667 2.541898 1.344698 14.500000
6.312813 2.591436 1.377506 13.500000
7.054383 2.553651 1.310722 1.000000
7.044772 2.625527 1.313475 42.000000
7.190222 2.641174 1.338258 56.000000
8.426655 2.652054 1.384654 2.500000
4.749542 2.728923 1.359958 6.500000
6.920800 2.906394 1.311410 9.000000
5.074997 2.990595 1.353025 0.000000
4.992056 3.031050 1.384601 41.099998
4.855499 3.193071 1.334818 27.666666
4.997144 3.144572 1.356223 21.000000
5.084228 3.178202 1.377202 21.666666
7.867162 3.195301 1.330921 18.000000
7.947470 3.119327 1.338199 10.750000
4.840578 3.256370 1.340041 14.500000
5.090581 3.219376 1.383470 5.000000
7.829952 3.252090 1.328908 11.750000
7.726616 3.504949 1.329838 12.000000
12.688633 3.497414 1.361070 8.000000
12.645168 3.549680 1.358190 8.500000
12.683743 3.689808 1.366007 8.500000
7.630683 3.769667 1.334018 60.500000
7.895731 3.823749 1.375053 50.000000
7.957573 3.822881 1.383725 39.000000
7.664770 3.922155 1.349534 38.799999
7.551122 4.030314 1.341606 45.000000
7.599879 4.204758 1.361365 20.100000
7.086249 4.339025 1.302378 48.333332
7.223974 4.350905 1.321785 50.000000
7.412793 4.354239 1.347490 48.500000
7.584579 4.343821 1.369974 46.000000
11.846570 4.375128 1.305936 1.000000
5.279797 4.478556 1.334641 33.166668
7.400403 4.425542 1.351516 42.000000
7.570574 4.495078 1.380008 41.000000
5.281263 4.612155 1.351639 31.600000
11.783808 4.563540 1.306759 8.000000
-8.731209 4.789132 1.382737 26.250000
5.398432 4.804760 1.393130 33.000000
-11.774334 4.828995 1.316016 11.000000
-8.808518 4.822477 1.394381 40.666668
6.288341 4.879479 1.390576 13.500000
6.331388 4.849456 1.393330 13.000000
-19.562283 4.950049 1.379904 11.500000
-11.717663 4.913592 1.313959 23.500000
-8.740452 4.936309 1.393794 25.299999
7.944209 4.991124 1.302694 19.000000
-19.633442 5.066588 1.386590 16.000000
-8.565100 5.172906 1.389338 30.000000
9.483034 5.178902 1.308512 4.000000
-9.542157 5.261039 1.319573 40.000000
-9.376293 5.259611 1.301940 42.666668
-8.012964 5.243536 1.329650 1.000000
-7.969983 5.251246 1.325249 18.000000
5.743843 5.244849 1.358910 4.000000
5.843991 5.269345 1.374743 4.000000
-9.437312 5.358959 1.314283 50.000000
-8.055949 5.399163 1.346566 6.250000
5.652779 5.394368 1.365105 33.000000
5.724921 5.385275 1.373170 31.857143
5.820709 5.382493 1.385069 17.000000
-10.032392 5.490296 1.384974 3.000000
5.471411 5.456153 1.349961 38.000000
5.688149 5.505372 1.383004 24.750000
6.389585 5.424517 1.313733 0.500000
-12.085178 5.596919 1.377253 33.666668
5.576866 5.526508 1.371714 29.400000
8.384008 5.566104 1.397315 8.000000
-12.056829 5.645263 1.376705 29.000000
5.468053 5.680240 1.377497 13.166667
5.558666 5.625032 1.381627 23.000000
-18.937523 5.786163 1.354115 2.000000
-9.870646 5.728717 1.382089 5.000000
-18.965004 5.859771 1.357390 29.000000
-11.575479 5.870033 1.342143 2.000000
-9.829876 5.829596 1.384013 11.000000
8.084379 5.875797 1.387688 10.000000
-9.434735 5.920694 1.348907 15.000000
-18.354134 6.180415 1.324369 31.000000
7.156067 6.192163 1.313971 40.000000
-18.440414 6.274033 1.332010 41.000000
-11.544269 6.412268 1.365596 56.000000
-8.799029 6.346014 1.313802 48.000000
-8.733707 6.361730 1.308512 58.000000
-17.983749 6.467470 1.306904 36.500000
-11.863556 6.492414 1.398511 61.000000
-9.298595 6.465100 1.371509 2.000000
-8.708416 6.427501 1.310756 38.666668
-5.646869 6.463967 1.345322 33.599998
7.180492 6.413398 1.336801 42.000000
-11.307798 6.562810 1.352018 4.000000
-11.228625 6.611524 1.347492 63.000000
-11.012730 6.531086 1.324039 62.000000
-8.765182 6.576299 1.327027 30.500000
-8.718954 6.627629 1.326305 37.500000
7.135442 6.703047 1.359356 43.000000
-11.524133 6.736859 1.380408 15.000000
-8.683806 6.796745 1.335442 51.000000
6.995628 6.717948 1.346704 108.000000
7.164195 6.793817 1.370909 79.000000
-8.721680 6.870681 1.344579 57.000000
6.502439 6.861729 1.312596 43.000000
6.653803 6.890136 1.329980 33.200001
6.774930 6.873817 1.340102 30.250000
6.973691 6.910545 1.363207 47.250000
7.073179 6.899859 1.372009 87.000000
7.180079 6.851848 1.378061 83.000000
-8.746724 6.935056 1.351793 1.000000
7.033286 7.013672 1.379161 20.000000
-18.413103 7.182676 1.351568 12.666667
-8.200703 7.201969 1.321737 49.000000
-8.035163 7.146501 1.302261 56.000000
6.642661 7.135800 1.353672 28.000000
-8.502349 7.372759 1.362853 6.000000
6.707569 7.491476 1.396215 11.000000
7.882408 7.454023 1.313802 10.000000
-7.900072 7.602341 1.327748 13.500000
7.709886 7.547443 1.306589 3.000000
-18.323761 7.683789 1.358754 4.000000
-7.728270 7.638302 1.315906 7.125000
7.734229 7.619002 1.314764 17.000000
-18.350985 7.763089 1.362575 0.000000
-18.157667 7.748647 1.350021 4.000000
-13.322154 7.731900 1.322696 3.000000
-8.227612 7.794031 1.372471 23.000000
-7.731952 7.750864 1.325824 32.000000
-18.202881 7.835629 1.355206 16.000000
-18.130972 7.906175 1.352614 19.500000
-8.383723 7.842605 1.390264 2.000000
-7.769457 7.886943 1.340732 5.000000
-18.157423 8.019742 1.357390 0.000000
7.482266 10.272042 1.314165 36.000000
7.429190 10.335005 1.316222 29.000000
7.678974 10.404099 1.337206 26.000000
7.669778 10.460258 1.341320 36.000000
6.979410 10.524772 1.305936 31.000000
7.096455 10.556658 1.315399 46.000000
7.066679 10.729401 1.328565 43.000000
7.399864 10.896645 1.362098 25.000000
7.174510 10.967978 1.355309 4.000000
5.789298 15.192479 1.396104 7.500000
5.725352 15.240129 1.397986 2.000000
6.894212 -28.068211 1.472735 10.000000
6.667715 -27.519009 1.442812 43.000000
8.924726 -27.565660 1.476399 5.000000
6.548736 -27.403828 1.435688 19.000000
6.232200 -27.211222 1.422457 10.000000
8.905671 -27.214769 1.459097 5.000000
6.340795 -27.097887 1.418080 23.500000
-8.669108 -26.586016 1.424899 3.000000
-8.361640 -26.487492 1.415332 2.000000
-7.872577 -26.374403 1.402508 12.000000
-8.367081 -26.217525 1.402305 15.000000
-11.121671 -26.074385 1.444441 2.000000
-13.107231 -25.858135 1.477214 10.000000
-11.205757 -25.820763 1.434263 31.000000
-11.859373 -25.760431 1.445052 7.000000
-11.257987 -25.719559 1.430599 37.000000
-12.613946 -25.680166 1.457876 15.000000
-13.634987 -25.493208 1.473142 27.000000
-12.625435 -25.500788 1.449937 2.000000
-13.656261 -25.341230 1.466832 6.000000
-14.421628 -25.222397 1.480471 19.000000
-11.706452 -25.219387 1.416757 41.000000
-13.318833 -25.091326 1.447494 4.000000
-11.972786 -25.169264 1.420218 29.000000
-11.817543 -25.147621 1.415841 45.500000
-14.021653 -24.884432 1.455433 1.000000
-15.454792 -24.465969 1.474567 3.000000
-15.942120 -24.380686 1.484338 4.000000
-15.586666 -24.334740 1.472532 26.000000
-14.758648 -24.197540 1.444237 12.000000
-15.362198 -24.151011 1.458486 39.000000
-14.906193 -24.097534 1.443830 14.000000
-14.523977 -24.152849 1.436095 10.000000
-13.192127 -24.115898 1.400676 1.000000
-14.977601 -24.043804 1.443423 5.000000
-14.692418 -23.919584 1.430395 14.000000
-13.685973 -23.935789 1.404951 11.000000
-14.096920 -23.779720 1.408615 15.000000
-14.093737 -23.604977 1.400880 5.000000
7.496655 -20.596920 1.498887 18.000000
6.872625 -20.575905 1.483468 1.000000
7.375952 -20.566305 1.494111 1.000000
6.969566 -20.437891 1.476646 20.000000
7.084747 -20.459467 1.480603 17.000000
7.510008 -20.334904 1.482376 31.000000
7.187117 -20.239639 1.468732 31.000000
7.928278 -20.282660 1.489199 28.000000
8.133959 -20.244066 1.491928 17.000000
7.071876 -20.115290 1.458089 7.000000
7.969938 -20.017403 1.473371 22.000000
7.405008 -19.483580 1.425341 9.000000
7.702699 -18.997986 1.401872 0.000000
7.400369 -15.648576 1.486451 1.500000
7.117591 -15.467607 1.462096 29.333334
6.691409 -15.381845 1.440422 10.000000
6.747707 -15.313667 1.436999 10.000000
9.121326 -14.512495 1.471906 1.000000
8.245798 -14.392150 1.424337 0.000000
9.197339 -14.431372 1.469511 32.000000
8.263960 -14.216018 1.412017 6.000000
8.413799 -14.266737 1.422284 8.000000
8.517650 -14.237592 1.424679 4.000000
9.695863 -13.117568 1.400724 1.000000
6.964280 -12.425439 1.472983 0.000000
7.114700 -12.417940 1.479978 10.000000
7.210598 -12.403858 1.483681 4.500000
6.983717 -12.368854 1.468869 0.000000
7.241023 -12.307664 1.476687 7.666667
7.300515 -12.203102 1.470515 10.000000
7.493668 -12.197610 1.480390 24.000000
7.359993 -12.171951 1.470926 19.000000
11.057162 -12.181526 1.412701 9.000000
7.551333 -12.056528 1.471132 8.500000
7.661830 -12.022034 1.474218 13.000000
8.052215 -11.879667 1.484093 3.000000
8.185290 -11.676788 1.474629 0.000000
8.395708 -11.585441 1.479567 10.000000
7.552616 -11.333351 1.408386 37.500000
7.837899 -11.332038 1.424844 3.000000
10.530880 -9.913392 1.495613 4.000000
6.933511 -9.303782 1.405172 25.000000
10.302326 -9.221053 1.429781 5.000000
10.460522 -9.186561 1.439656 5.000000
8.459779 -9.002594 1.496061 9.500000
8.346412 -8.798360 1.468650 19.000000
8.500618 -8.738323 1.476344 18.000000
8.417653 -8.491433 1.447972 24.000000
8.734412 -8.378928 1.465765 2.000000
8.862068 -8.359943 1.475383 32.333332
8.869104 -8.218685 1.464322 2.000000
4.819541 -8.087900 1.475705 8.750000
8.940629 -8.121148 1.462719 24.666666
8.978538 -8.087151 1.463360 26.000000
4.488305 -7.894429 1.423366 15.000000
7.509185 -7.492504 1.472902 45.200001
7.658557 -7.536560 1.491936 15.000000
8.860354 -7.442629 1.401325 14.000000
5.062695 -7.371777 1.401687 7.000000
7.515476 -7.280425 1.452878 20.500000
7.469650 -7.168144 1.437474 26.000000
7.489719 -7.075228 1.430597 5.500000
6.350639 -6.448751 1.418617 4.333333
9.786789 -6.358044 1.413347 12.000000
6.546185 -6.242568 1.417791 7.000000
6.851875 -6.121285 1.440120 15.750000
6.879270 -6.024508 1.433276 6.500000
7.054060 -6.003477 1.451858 39.000000
5.992127 -5.859735 1.464236 8.000000
6.190436 -5.829493 1.485576 12.000000
7.414644 -5.805468 1.476014 14.000000
5.928558 -5.761245 1.444272 0.000000
6.309153 -5.769126 1.493608 24.333334
6.254967 -5.626984 1.469915 4.500000
7.026883 -5.645722 1.412836 3.000000
9.194202 -5.651889 1.498538 44.000000
5.786319 -5.564438 1.402509 32.333332
5.860132 -5.570862 1.412605 24.500000
6.496741 -5.543227 1.492047 19.000000
6.632739 -5.398112 1.494066 13.000000
7.819932 -5.366455 1.486544 2.000000
9.263416 -5.262353 1.479283 11.000000
8.079545 -5.114776 1.498808 23.600000
9.280749 -5.138062 1.472957 0.500000
6.832100 -5.077682 1.487182 7.666667
7.541704 -5.037302 1.421508 55.000000
8.130186 -4.997813 1.495835 24.000000
10.969664 -5.010729 1.460475 8.000000
6.301488 -4.976595 1.402853 25.500000
8.051403 -4.914598 1.478492 13.000000
9.518691 -4.829107 1.482034 8.000000
9.557289 -4.698627 1.478733 12.000000
11.394829 -4.694290 1.492454 10.000000
6.142647 -4.627137 1.482472 4.000000
6.182084 -4.551147 1.479822 23.000000
6.296769 -4.489884 1.490800 36.000000
7.187724 -4.465314 1.478348 28.500000
8.121290 -4.479496 1.453716 1.000000
8.462062 -4.326530 1.489641 8.000000
6.109776 -4.208898 1.430230 31.500000
7.999256 -4.281977 1.422127 9.000000
6.072053 -4.182630 1.421333 34.000000
6.136355 -4.100132 1.422658 33.000000
6.366406 -4.167623 1.466825 24.000000
9.196064 -4.150212 1.400891 32.500000
6.351582 -4.087087 1.455972 16.500000
9.632315 -3.794269 1.437474 6.000000
6.710243 -3.593479 1.467329 10.000000
6.123160 -3.530935 1.491840 29.000000
6.485890 -3.434001 1.414708 12.000000
8.384960 -3.456031 1.421508 18.000000
6.042648 -3.256428 1.448794 18.277777
6.234283 -3.238450 1.482753 31.000000
6.292937 -3.172638 1.487473 21.714285
6.779756 -3.099722 1.437044 47.000000
6.925946 -3.157723 1.467329 22.666666
7.070540 -3.152445 1.492315 3.000000
6.942721 -3.043307 1.461272 14.000000
6.338542 -2.985804 1.478830 25.250000
9.822015 -2.901956 1.422071 1.000000
6.244851 -2.878917 1.451363 42.000000
6.147953 -2.722688 1.402490 34.066666
6.465735 -2.666303 1.476145 10.000000
10.478452 -2.600920 1.499088 11.000000
6.208095 -2.577037 1.418735 8.250000
10.399666 -2.564191 1.487260 14.500000
5.700762 -2.413960 1.421975 60.000000
10.398438 -2.477257 1.484235 14.000000
6.431888 -2.311848 1.442552 44.000000
5.791953 -2.240737 1.426452 2.000000
5.885035 -2.220226 1.405807 60.333332
6.082157 -2.222143 1.487343 35.000000
6.231005 -2.276525 1.400149 45.000000
5.711156 -2.168324 1.403170 24.000000
5.851130 -2.093144 1.410667 34.857143
6.056249 -2.148139 1.476000 27.666666
5.618460 -2.082775 1.487665 20.500000
5.340672 -1.903832 1.407668 21.500000
5.459973 -1.898159 1.435137 39.000000
5.616324 -1.913021 1.473047 13.333333
5.790841 -1.965754 1.404663 40.666668
5.707630 -1.805087 1.486220 16.000000
5.896705 -1.837733 1.418692 21.500000
6.187375 -1.801087 1.480179 25.000000
8.315042 -1.870827 1.489018 34.000000
11.736323 -1.798007 1.437873 7.000000
5.565068 -1.740787 1.447667 32.000000
6.006884 -1.786104 1.439436 9.500000
9.078555 -1.715411 1.448142 3.000000
6.265642 -1.587715 1.484656 6.000000
11.609686 -1.592394 1.419118 6.000000
5.976483 -1.584636 1.420184 107.000000
8.055238 -1.574535 1.433946 3.000000
8.179818 -1.465886 1.451844 1.000000
10.668544 -1.465203 1.495237 2.000000
11.668745 -1.414140 1.423446 5.000000
5.687106 -1.355909 1.451522 100.000000
5.804711 -1.364689 1.480437 82.000000
6.594354 -1.333249 1.419974 33.000000
10.127408 -1.342319 1.418495 23.500000
10.351755 -1.322418 1.449027 11.000000
11.831520 -1.320845 1.441720 3.000000
5.625561 -1.211326 1.428711 34.333332
7.504593 -1.200663 1.465058 35.000000
10.143552 -1.263446 1.419320 35.000000
11.703863 -1.219923 1.425049 6.333333
7.933341 -1.165835 1.400902 3.000000
5.608756 -0.987966 1.413933 16.000000
7.284791 -1.025107 1.418115 34.000000
7.360754 -1.067273 1.433763 37.333332
8.308268 -1.008354 1.462170 6.000000
10.303468 -1.086575 1.438574 8.000000
11.684289 -1.081861 1.421041 5.000000
5.605613 -0.944998 1.411363 36.000000
5.686749 -0.946534 1.431282 39.000000
8.107447 -0.945188 1.426029 14.500000
10.284749 -0.954087 1.434173 9.000000
5.460706 -0.878139 1.478168 21.000000
6.325412 -0.856298 1.466150 63.666668
8.264303 -0.792850 1.450468 9.000000
8.419873 -0.861199 1.478692 10.000000
6.216687 -0.775431 1.438988 31.000000
10.532466 -0.743891 1.466080 4.000000
5.621899 -0.656516 1.405258 7.000000
5.862404 -0.600650 1.463088 30.000000
6.318889 -0.607335 1.458091 16.000000
5.457481 -0.524475 1.465310 36.266666
5.678831 -0.563820 1.416824 54.000000
9.083278 -0.498293 1.425843 2.000000
5.535977 -0.435673 1.484106 8.000000
6.290778 -0.405704 1.447943 22.000000
6.437277 -0.435464 1.481970 49.000000
6.689111 -0.420816 1.414604 35.500000
9.198106 -0.417684 1.443187 2.000000
6.317669 -0.307819 1.452868 23.000000
6.745649 -0.318126 1.425343 21.000000
6.457476 -0.282175 1.484656 62.799999
6.696013 -0.242021 1.414191 77.000000
7.673623 -0.277356 1.480201 1.000000
6.473513 -0.181280 1.487522 37.400002
6.640841 -0.177209 1.402131 33.400002
6.894160 -0.162470 1.455494 40.000000
9.542553 -0.133248 1.495835 10.000000
6.526052 -0.010251 1.498984 14.000000
6.633647 -0.017245 1.400149 17.666666
9.049420 -0.041065 1.418411 2.000000
9.128410 -0.041411 1.430799 46.500000
6.652739 0.094094 1.404279 27.750000
7.479981 0.064564 1.441965 11.750000
8.025926 0.089654 1.402279 20.000000
6.477223 0.162855 1.488238 16.000000
6.804477 0.177629 1.436660 27.799999
9.075251 0.186930 1.422747 11.000000
6.465905 0.267394 1.486447 10.000000
6.852462 0.247676 1.447233 31.000000
6.959973 0.273322 1.470156 30.250000
9.316425 0.265135 1.460839 8.000000
10.313294 0.277268 1.432523 1.000000
6.969702 0.400088 1.473460 21.750000
8.983245 0.354523 1.409120 3.000000
9.458730 0.328610 1.483447 3.500000
6.343118 0.459593 1.499767 32.166668
6.513652 0.461191 1.499879 26.000000
5.967624 0.601936 1.489111 43.000000
6.298654 0.535571 1.451972 40.500000
6.432065 0.597817 1.483761 5.000000
7.053616 0.610909 1.494318 0.000000
9.543308 0.617138 1.498932 2.000000
6.224120 0.895801 1.444361 27.000000
6.332062 0.884246 1.468538 40.000000
8.308606 1.037837 1.462859 9.000000
6.980029 1.297452 1.498448 79.000000
6.176166 1.365276 1.452868 24.000000
7.406868 1.352734 1.451429 54.000000
8.052198 1.348233 1.426373 29.250000
8.314476 1.331764 1.471120 16.000000
6.205602 1.438382 1.463166 1.000000
10.165894 1.562865 1.428122 3.000000
10.391871 1.681255 1.461679 3.500000
6.829918 1.879990 1.495144 8.000000
5.316073 1.999239 1.410077 31.000000
5.355069 1.994725 1.418752 31.000000
5.350502 2.064405 1.423860 23.500000
5.552064 2.038424 1.468389 11.500000
5.476505 2.128560 1.458750 4.000000
6.918824 2.308294 1.406001 26.000000
10.379896 2.236629 1.474332 4.000000
5.375663 2.376556 1.459232 0.000000
4.884897 2.431257 1.458287 26.000000
6.642019 2.474105 1.495970 33.000000
4.983178 2.520393 1.492483 21.333334
7.873302 2.683358 1.453221 12.000000
7.913229 2.808440 1.466989 42.000000
5.259336 2.859153 1.486220 43.000000
7.821325 2.831280 1.453221 31.000000
7.858889 2.957093 1.466989 22.000000
11.170716 3.003635 1.400844 1.000000
7.650367 3.383788 1.461482 0.000000
5.090942 3.711018 1.447047 20.000000
7.618825 3.704420 1.480069 61.500000
4.819046 3.750165 1.402573 19.666666
7.597156 3.753109 1.480413 54.500000
5.215297 3.877460 1.492715 75.000000
11.335520 3.865551 1.450376 7.000000
11.475532 3.873095 1.466726 0.000000
4.710822 3.947260 1.411677 19.000000
4.581048 4.070776 1.407648 26.000000
4.648195 4.016361 1.411030 21.333334
4.865879 4.038296 1.452420 41.000000
5.104990 4.045447 1.496118 33.000000
7.347873 4.199334 1.478594 41.285713
7.286317 4.244143 1.473185 34.333332
6.062283 4.340304 1.437260 31.571428
6.157438 4.488435 1.468844 32.000000
11.298839 4.416596 1.469131 15.000000
11.412638 4.419796 1.482115 21.000000
5.708896 4.642824 1.418494 29.166666
5.886614 4.700905 1.452187 0.000000
5.757505 4.747809 1.438558 23.000000
-9.466848 4.915574 1.481117 9.666667
5.446565 4.930065 1.416223 20.000000
5.544225 4.965823 1.434772 23.000000
-9.550310 5.035306 1.499088 0.000000
5.575276 5.025290 1.446887 28.000000
-13.110756 5.114306 1.455291 0.000000
-8.839087 5.132028 1.419182 9.000000
-8.766552 5.163892 1.412718 2.000000
-13.174500 5.234783 1.465989 23.000000
-11.009318 5.281874 1.478749 23.000000
-10.960499 5.300872 1.474421 1.000000
-13.298323 5.332415 1.481624 36.000000
7.476083 5.403899 1.445871 1.000000
7.578104 5.381497 1.456813 81.000000
-13.361519 5.504490 1.494379 9.000000
-13.179897 5.526616 1.477921 12.500000
-11.040000 5.540603 1.495901 18.333334
7.386436 5.602546 1.453097 39.000000
-13.214674 5.663879 1.486767 0.500000
-7.657988 5.703832 1.496661 9.333333
5.713342 5.626259 1.400902 37.000000
7.370899 5.645728 1.455265 42.000000
7.463964 5.624501 1.464865 49.000000
8.455698 5.709942 1.416707 10.500000
-7.531516 5.715953 1.481961 37.000000
-19.935804 5.818309 1.420156 10.000000
-12.837173 5.815098 1.457348 11.000000
-10.195984 5.832210 1.422484 0.000000
-7.461576 5.846975 1.485847 18.125000
8.401979 5.828755 1.419870 18.000000
-8.684025 5.988131 1.464666 44.571430
-7.378072 5.927886 1.483447 1.000000
8.423532 5.982000 1.434540 15.000000
-12.441567 6.211276 1.438010 1.000000
-8.106714 6.306330 1.426105 37.000000
-9.983690 6.397118 1.435949 4.000000
-12.047704 6.495163 1.415381 21.000000
-11.925848 6.477903 1.403449 33.000000
-8.051381 6.443875 1.431918 46.200001
-11.870974 6.545024 1.401803 34.000000
6.799023 6.591015 1.484221 42.250000
6.950921 6.570917 1.499242 66.750000
7.693364 6.573011 1.405017 12.000000
6.761927 6.672811 1.489022 26.000000
7.821011 6.618631 1.422621 21.000000
-7.575989 7.067265 1.438574 1.500000
7.279338 7.034487 1.405567 89.000000
-11.938346 7.130810 1.438010 45.000000
-7.564592 7.145977 1.444901 16.000000
-7.586753 7.234872 1.455628 1.000000
-12.196168 7.389172 1.474629 25.000000
-7.596427 7.326631 1.465420 33.599998
-12.328424 7.416449 1.487796 32.000000
-9.133863 7.454732 1.427774 15.500000
-7.553200 7.479738 1.475983 6.000000
-12.074372 7.683342 1.479978 22.000000
-11.969775 7.669716 1.470103 2.000000
-9.219041 7.694655 1.454223 2.000000
-12.206085 7.713383 1.493145 9.000000
-9.191749 7.753931 1.456307 0.333333
-11.126888 7.875406 1.409689 21.166666
-9.206603 7.832663 1.463841 0.000000
-9.178265 7.908500 1.467207 1.000000
-11.926622 8.209173 1.497259 32.000000
-11.834015 8.255497 1.492116 17.000000
-11.734810 8.268803 1.484504 2.000000
7.707645 8.721106 1.409500 3.000000
7.774590 8.741356 1.416713 20.000000
7.168018 9.099120 1.402768 3.000000
7.109045 9.141868 1.402447 15.666667
7.159502 9.327074 1.423927 0.000000
6.824770 9.589329 1.425370 55.500000
6.382227 9.723555 1.408538 32.500000
6.441220 9.713196 1.411424 10.000000
6.777343 9.780336 1.440999 29.500000
7.284230 9.762142 1.475062 32.000000
6.412127 9.870039 1.425370 31.000000
6.737644 9.843841 1.444605 13.000000
7.084718 9.823193 1.466726 40.000000
7.348515 9.826537 1.485962 43.000000
7.054446 10.078537 1.489809 44.000000
7.131820 10.121246 1.499427 33.000000
6.587790 10.281260 1.478749 0.000000
6.617904 10.257177 1.478268 20.000000
6.930882 10.240719 1.497504 11.000000
9.359731 10.239458 1.434582 7.333333
6.312158 10.477751 1.481346 30.600000
8.231174 10.935274 1.415381 1.500000
8.702268 11.336919 1.477921 1.000000
8.051650 11.503222 1.452000 15.000000
7.508506 11.557670 1.425256 15.000000
7.510988 11.641380 1.432662 19.000000
7.464646 15.496529 1.477040 21.000000
7.405242 15.560344 1.479777 0.000000
-10.433354 27.437159 1.495737 2.000000
-10.325990 27.413721 1.492684 2.000000
-10.183496 27.426455 1.490750 2.000000
-10.097372 27.592354 1.497162 1.000000
