# This PCD file was generated using the MATLAB® pcwrite function
# from Computer Vision Toolbox®.
# .PCD v.7 - Point Cloud Data file format
VERSION .7
FIELDS x y z intensity
SIZE 4 4 4 4
TYPE F F F F
COUNT 1 1 1 1
WIDTH 1235
HEIGHT 1
VIEWPOINT 0 0 0 1 0 0 0
POINTS 1235
DATA ascii
-9.877878 -10.178953 -0.755015 3.000000
-8.900890 -10.145947 -0.718445 66.000000
-9.701674 -10.060422 -0.743959 2.000000
-9.584346 -10.001450 -0.737368 3.000000
-8.962947 -10.056304 -0.717063 64.250000
-9.442273 -9.946499 -0.730032 7.000000
-9.275767 -9.894908 -0.721953 15.500000
-9.112420 -9.906144 -0.716478 50.750000
-9.026987 -9.969356 -0.715893 65.000000
-1.134686 -9.927763 -0.705924 0.666667
-5.235572 -9.834344 -0.787083 2.000000
-1.049785 -9.871584 -0.701320 0.000000
-3.940563 -9.622467 -0.734582 0.500000
-2.714877 -9.600646 -0.704844 0.500000
-2.752939 -9.562828 -0.703012 0.000000
-4.024527 -9.444593 -0.725280 7.400000
-6.463703 -9.275875 -0.798710 0.000000
11.691931 -9.260267 -0.793925 41.000000
-6.517825 -9.137655 -0.792932 0.000000
-6.481590 -9.178033 -0.793777 0.000000
11.308906 -9.131656 -0.773726 2.000000
-6.580079 -9.013807 -0.788422 0.333333
11.501236 -9.050580 -0.779041 36.000000
11.573631 -9.019652 -0.781061 55.500000
-6.896600 -8.936043 -0.797442 0.000000
-6.844722 -8.955744 -0.796314 0.000000
-6.732613 -8.953917 -0.791428 0.333333
-1.482901 -8.872025 -0.792511 1.500000
-1.549966 -8.724028 -0.780663 2.000000
-1.628458 -8.577917 -0.769254 0.750000
-1.719083 -8.404733 -0.755826 0.666667
-1.784101 -8.321908 -0.749858 0.000000
-3.213240 -8.250040 -0.780049 3.000000
-3.162194 -8.233458 -0.777065 23.500000
-3.080184 -8.173000 -0.769517 0.000000
-2.963373 -8.093084 -0.759336 1.750000
-2.840759 -8.030640 -0.750501 2.000000
-1.884281 -8.046302 -0.728092 0.000000
-2.668260 -7.937395 -0.737782 4.600000
-2.525920 -7.967354 -0.736401 0.333333
-2.370764 -7.952305 -0.731111 1.600000
-2.244476 -7.984728 -0.730760 1.600000
-1.923364 -7.932486 -0.719140 2.000000
-2.077428 -7.862601 -0.716507 15.200000
-1.983991 -7.858005 -0.714050 3.000000
10.969748 -7.669694 -0.712491 37.000000
10.866399 -7.496323 -0.702711 43.333332
-8.626459 -6.790758 -0.775596 0.000000
-8.379426 -6.768603 -0.760985 0.166667
-7.740150 -6.622453 -0.719643 1.500000
-7.376992 -6.660949 -0.702166 0.000000
-7.884213 -6.513120 -0.722461 2.000000
-7.748017 -6.503548 -0.714639 2.250000
-9.504317 -6.148621 -0.799697 0.000000
-9.344537 -6.086980 -0.787858 0.000000
-9.139112 -6.014645 -0.772918 0.000000
-8.840610 -5.898082 -0.750791 0.500000
12.769884 -5.897827 -0.748743 5.000000
-8.691916 -5.858357 -0.740502 0.000000
-8.577720 -5.820660 -0.732327 0.000000
-8.457257 -5.777807 -0.723589 0.000000
12.875895 -5.775855 -0.751188 9.000000
9.911331 -4.980546 -0.783630 8.000000
10.222753 -4.624345 -0.792650 1.000000
9.661262 -4.498970 -0.752905 25.000000
9.730974 -4.512849 -0.757791 27.666666
9.967109 -4.521355 -0.773200 112.333336
9.943659 -4.398111 -0.768126 41.666668
10.137104 -4.414044 -0.781093 36.500000
-14.186047 -4.353362 -0.789885 0.000000
10.383515 -4.386169 -0.796314 63.000000
-13.962675 -4.236860 -0.776703 0.000000
10.369548 -4.208544 -0.790606 4.000000
-13.842011 -4.152803 -0.769261 0.000000
10.455201 -4.147954 -0.794623 118.000000
10.492904 -4.067873 -0.795046 20.000000
-13.754216 -3.915428 -0.761234 5.750000
10.550206 -3.957158 -0.796032 11.000000
10.062016 -3.882609 -0.761925 99.000000
10.409792 -3.737530 -0.781375 45.500000
12.608953 -3.758940 -0.700372 8.666667
9.398989 -3.458182 -0.707522 17.000000
9.406534 -3.460931 -0.708086 36.000000
9.454395 -3.299783 -0.707428 27.333334
9.558370 -3.381042 -0.716260 116.000000
10.430556 -3.288742 -0.772636 34.000000
10.209734 -3.272137 -0.757415 13.000000
10.315135 -3.216758 -0.763334 125.000000
10.149799 -3.130244 -0.750368 14.000000
10.234210 -3.085993 -0.755160 11.000000
9.541306 -2.909788 -0.704703 35.000000
9.676371 -2.703518 -0.709777 59.000000
9.887643 -2.348276 -0.717951 11.000000
9.929936 -2.325389 -0.720488 25.000000
-7.184124 -2.229355 -0.795248 1.000000
-7.099825 -2.178768 -0.785155 2.000000
-7.004179 -2.089540 -0.772749 4.000000
-6.906317 -1.954405 -0.758829 8.200000
-6.878781 -1.807229 -0.751932 10.571428
-6.905263 -1.652709 -0.750671 12.285714
8.264211 -1.010316 -0.733534 38.500000
8.245472 -0.925831 -0.731032 32.250000
8.445007 -0.844362 -0.747752 46.500000
8.671029 -0.825762 -0.767411 38.000000
-5.607374 -0.763494 -0.734526 9.636364
-5.563906 -0.764055 -0.755224 1.125000
8.272024 -0.748462 -0.731778 32.500000
8.552887 -0.715275 -0.756177 32.666668
8.552900 -0.665574 -0.755826 43.000000
8.739403 -0.629565 -0.771974 56.666668
8.451242 -0.550964 -0.746172 45.000000
8.611656 -0.507077 -0.760038 97.000000
-4.443327 -0.451615 -0.742055 0.800000
-4.363650 -0.444851 -0.776042 28.000000
8.176296 -0.404157 -0.721247 36.500000
8.243937 -0.446476 -0.727390 24.000000
-4.414593 -0.310236 -0.703332 29.700001
-4.356344 -0.313228 -0.772756 29.090910
8.294945 -0.353384 -0.731486 57.000000
8.378315 -0.295505 -0.738624 16.000000
8.802274 -0.365847 -0.776187 71.000000
-4.922177 -0.198555 -0.782875 0.000000
-4.450886 -0.214514 -0.708166 0.750000
-4.266356 -0.212398 -0.755746 0.000000
8.003967 -0.219374 -0.705449 6.500000
8.534520 -0.274172 -0.752315 11.000000
-4.721557 -0.131069 -0.750647 0.000000
-4.202377 -0.136483 -0.743900 7.625000
8.167639 -0.108346 -0.719667 9.000000
8.840061 -0.172825 -0.778996 0.000000
-4.335924 -0.079468 -0.767244 0.000000
8.156713 -0.028435 -0.718653 32.888889
-5.942794 0.041443 -0.733073 3.333333
8.052238 0.095570 -0.709486 1.000000
8.686021 0.075802 -0.765304 17.000000
8.742000 0.048825 -0.770219 22.000000
-5.923688 0.125082 -0.730869 12.333333
8.785804 0.269966 -0.774432 34.000000
8.912346 0.301881 -0.785666 41.000000
-5.636689 0.315448 -0.736456 0.600000
-5.549275 0.355275 -0.743179 0.250000
8.063992 0.374621 -0.711242 39.000000
8.354590 0.388147 -0.736869 60.000000
-4.741931 0.495827 -0.715253 5.166667
8.017748 0.422999 -0.707380 33.000000
-4.740651 0.584704 -0.717643 26.600000
-4.875793 0.688748 -0.782561 0.000000
7.505519 0.616979 -0.752032 28.666666
-4.802613 0.760780 -0.772777 1.333333
-4.824526 0.883857 -0.779500 10.000000
8.391838 0.893866 -0.743539 31.000000
-6.245327 0.920971 -0.709970 8.538462
-6.159886 0.950274 -0.768821 3.000000
-6.090832 0.988635 -0.761149 1.000000
-4.848030 0.959057 -0.785386 18.000000
7.894687 0.979141 -0.700885 36.000000
7.947297 0.913881 -0.704806 25.666666
8.777146 0.962805 -0.777942 120.000000
-5.976587 1.037597 -0.748253 0.750000
-5.836016 1.079413 -0.732094 5.000000
-5.692883 1.099301 -0.715199 1.000000
-4.868127 1.034891 -0.790958 21.125000
7.271501 1.064695 -0.776955 47.000000
7.341086 1.027750 -0.783683 40.000000
7.911731 1.019130 -0.702816 34.000000
-5.610127 1.162216 -0.706727 0.400000
-5.535995 1.181783 -0.723286 0.750000
-5.202292 1.174254 -0.752472 0.000000
-5.088815 1.199003 -0.737663 1.000000
-4.960351 1.184536 -0.745175 7.714286
7.335833 1.132979 -0.741209 4.333333
8.544487 1.127938 -0.759336 47.000000
8.746324 1.196558 -0.777767 49.500000
-5.342687 1.215447 -0.700122 0.750000
-4.992404 1.276266 -0.727045 13.500000
8.261685 1.249462 -0.736167 33.000000
8.565132 1.267844 -0.762847 80.000000
8.860888 1.283188 -0.788825 51.000000
-5.036980 1.359913 -0.712726 12.500000
8.296639 1.329649 -0.740309 28.000000
8.390993 1.363538 -0.748980 36.000000
-5.085673 1.485680 -0.703531 16.400000
8.346646 1.423720 -0.745996 29.000000
8.648338 1.503155 -0.773379 48.000000
-5.121486 1.596373 -0.737828 13.600000
7.887799 1.601924 -0.709135 100.000000
8.453915 1.592851 -0.757932 38.500000
8.722044 1.544211 -0.780400 47.000000
8.702973 1.625803 -0.780049 58.000000
-5.271131 1.734078 -0.782929 1.000000
8.347853 1.804908 -0.752491 33.500000
8.604660 1.775675 -0.774081 35.000000
8.061493 1.889271 -0.729497 40.000000
8.418207 1.847783 -0.759336 56.000000
7.202767 1.951146 -0.788940 37.000000
8.254420 1.920992 -0.746698 55.000000
7.261636 2.058963 -0.797982 29.500000
8.375540 2.032447 -0.759336 75.000000
8.427824 2.200048 -0.767411 36.000000
8.457651 2.364601 -0.773730 93.000000
6.756896 2.463316 -0.760343 46.000000
7.061402 2.499026 -0.725658 64.500000
8.316324 2.466565 -0.764251 81.000000
-8.209140 2.531615 -0.756879 0.800000
-8.116343 2.601165 -0.750911 2.500000
6.962030 2.556783 -0.751564 51.500000
8.392496 2.517870 -0.771974 67.000000
-8.036538 2.673316 -0.746207 2.400000
-6.466653 2.689425 -0.740448 24.153847
6.902256 2.664670 -0.782211 27.500000
7.036016 2.665698 -0.795459 35.500000
7.768263 2.626390 -0.722475 64.000000
7.954073 2.661396 -0.738975 80.000000
-7.968659 2.748487 -0.742661 0.500000
6.817780 2.718612 -0.775987 45.400002
8.428557 2.732144 -0.780634 55.666668
-7.915273 2.841834 -0.740964 0.000000
-7.832601 2.909806 -0.736167 0.000000
6.796099 2.816689 -0.777766 30.428572
7.554582 2.867977 -0.711944 25.714285
8.503309 2.815494 -0.789176 44.000000
-7.826258 2.949467 -0.736869 0.000000
7.588618 2.957160 -0.717561 31.500000
-7.857344 3.031910 -0.742018 0.000000
7.648726 3.022170 -0.724582 35.000000
-7.863256 3.133945 -0.745786 0.000000
7.732377 3.147582 -0.735543 39.944443
6.659251 3.308551 -0.786137 4.333333
7.517004 3.308404 -0.723599 31.400000
7.815773 3.303177 -0.747576 100.000000
6.559340 3.375411 -0.779899 9.000000
7.428850 3.348013 -0.717912 34.000000
7.612801 3.316461 -0.731603 12.000000
-7.987773 3.463264 -0.767060 0.000000
-6.650476 3.480304 -0.793566 1.000000
6.440259 3.420720 -0.770972 35.636364
7.436643 3.422112 -0.721247 27.250000
7.815647 3.419242 -0.751613 98.500000
-8.047382 3.594826 -0.776538 0.000000
-6.519430 3.523544 -0.783473 1.000000
-6.403071 3.552048 -0.774137 1.600000
6.401756 3.539793 -0.773380 43.000000
6.435937 3.574692 -0.778342 36.799999
7.434977 3.573916 -0.726811 30.900000
-6.282262 3.628397 -0.767002 1.000000
7.743211 3.637078 -0.753720 125.000000
-8.084784 3.734071 -0.784613 0.000000
-6.129224 3.722057 -0.758135 1.250000
-6.018939 3.799108 -0.752493 2.666667
6.371670 3.748830 -0.781581 40.500000
7.568583 3.760371 -0.744592 1.000000
7.667229 3.749501 -0.751964 115.000000
-8.155546 3.860345 -0.794969 0.000000
-5.932892 3.863160 -0.748498 2.500000
6.440909 3.885404 -0.795248 34.000000
7.670743 3.841221 -0.755826 26.000000
-7.164624 3.960134 -0.721247 1.000000
-5.884496 3.937846 -0.748568 2.000000
-6.941157 4.074624 -0.709135 1.750000
-5.872632 4.037837 -0.753474 1.500000
6.342406 4.103086 -0.798613 45.000000
6.949986 4.059529 -0.709135 37.000000
-6.851402 4.160881 -0.706239 1.250000
-5.867211 4.185232 -0.761941 0.000000
7.252583 4.145261 -0.735991 17.000000
7.828519 4.169511 -0.781453 3.000000
5.954489 4.262995 -0.774221 0.000000
7.045620 4.265248 -0.725635 11.000000
-5.920566 4.347865 -0.750475 0.000000
6.741222 4.361093 -0.707380 62.000000
7.001213 4.405486 -0.728794 27.000000
7.936188 4.355743 -0.797602 6.000000
-5.963095 4.480144 -0.739145 0.625000
6.977240 4.421061 -0.727741 44.000000
7.079417 4.501558 -0.739151 30.250000
7.880826 4.455127 -0.797602 10.000000
-5.972777 4.624633 -0.798613 0.000000
-7.170293 4.781989 -0.759336 2.000000
-6.274908 4.906024 -0.701763 1.000000
6.881595 4.937715 -0.746230 33.000000
7.407863 4.992906 -0.787070 4.000000
-6.565617 5.034180 -0.728935 4.200000
6.311457 5.075294 -0.713559 17.400000
6.410335 5.062577 -0.719667 25.000000
6.835211 5.057790 -0.749156 36.500000
7.040514 5.107928 -0.766358 63.000000
-6.474814 5.144795 -0.728619 2.500000
6.554731 5.143261 -0.734060 73.000000
6.687722 5.180055 -0.745294 31.000000
6.947072 5.174495 -0.763198 56.000000
-6.328861 5.276741 -0.725986 0.333333
6.804282 5.270258 -0.758283 42.000000
-6.299912 5.371307 -0.729409 0.750000
-6.327682 5.481209 -0.737571 0.000000
7.106316 5.433189 -0.788123 78.000000
6.295555 5.811408 -0.754860 42.250000
6.615816 5.751041 -0.772326 47.000000
6.863824 5.779876 -0.790581 86.000000
-6.569802 5.911327 -0.778645 0.000000
6.469324 5.841222 -0.767937 11.500000
6.632899 5.876554 -0.780751 19.000000
8.858134 5.889788 -0.751495 15.000000
6.330067 5.998597 -0.768347 36.166668
6.559475 5.922783 -0.778645 13.000000
6.765658 5.918716 -0.791985 25.000000
9.138527 5.993762 -0.772073 2.000000
-6.527215 6.023139 -0.782506 0.000000
-6.338696 6.112661 -0.775836 2.000000
6.231739 6.064919 -0.766147 22.000000
-6.678259 6.123788 -0.798304 0.000000
-6.544394 6.134765 -0.790317 1.000000
-6.359385 6.119843 -0.777591 0.000000
8.788978 6.167835 -0.758542 1.000000
5.897166 6.310650 -0.760975 36.000000
6.047297 6.303786 -0.769634 18.166666
5.910337 6.425248 -0.769166 35.500000
5.900112 6.599013 -0.779908 38.799999
5.955173 6.535478 -0.778996 28.000000
5.857620 6.740880 -0.786807 34.750000
5.464056 6.898820 -0.775368 37.333332
5.559695 6.885260 -0.779698 38.000000
5.446836 7.011920 -0.782272 51.333332
7.057102 6.959248 -0.700193 46.000000
7.019345 7.053732 -0.703012 61.000000
7.581934 7.109956 -0.734300 4.000000
8.158802 7.047462 -0.761643 63.000000
5.490801 7.207706 -0.798304 31.000000
5.503719 7.177773 -0.796899 43.000000
7.380902 7.210340 -0.728945 17.500000
7.645101 7.124185 -0.738247 2.000000
6.135270 8.001421 -0.712314 30.000000
7.467679 7.941153 -0.770099 8.000000
6.147136 8.034160 -0.714663 28.333334
5.566610 8.206361 -0.700545 37.500000
6.139307 8.218536 -0.724717 55.000000
5.543823 8.398044 -0.710904 32.000000
6.343843 8.409233 -0.744166 59.000000
5.313703 8.418452 -0.703294 62.000000
5.278549 8.599894 -0.712878 59.000000
5.430017 8.543149 -0.715133 61.000000
5.527668 8.518371 -0.717388 20.000000
5.157706 8.686894 -0.713723 37.000000
5.276334 8.657608 -0.716260 51.000000
5.117182 8.806408 -0.719549 41.666668
5.203728 8.785021 -0.721334 43.000000
5.626244 8.730222 -0.733737 34.000000
5.469084 8.848292 -0.734864 51.000000
5.159733 9.064320 -0.736837 36.000000
5.708980 9.013395 -0.753750 16.500000
5.685459 9.263304 -0.767844 28.000000
5.287261 9.391039 -0.761361 97.000000
4.252117 9.723434 -0.749733 25.750000
4.336237 9.748505 -0.753750 7.000000
4.905301 9.761592 -0.771791 28.000000
4.815426 9.890587 -0.777146 32.333332
4.907119 9.881094 -0.779401 33.000000
5.368896 9.871745 -0.793871 38.500000
4.773884 9.963864 -0.780529 29.000000
5.109913 10.011236 -0.794059 15.500000
9.656201 10.076432 -0.742896 9.000000
9.759899 10.120802 -0.748424 17.000000
9.834644 11.069242 -0.788184 1.000000
4.432014 12.405418 -0.701222 21.000000
4.507137 12.369821 -0.700797 41.000000
4.975115 12.426094 -0.712491 18.000000
5.208649 12.891857 -0.740132 59.000000
2.842586 12.961147 -0.706325 36.500000
2.937718 13.099629 -0.714617 38.000000
2.688843 13.187990 -0.716446 30.400000
2.583007 13.263700 -0.719295 10.000000
2.616905 13.216337 -0.717169 19.000000
3.986467 13.220492 -0.735029 5.000000
1.950710 13.339032 -0.717594 36.000000
2.844621 13.371397 -0.727694 10.500000
3.049761 13.401917 -0.731627 65.000000
1.971912 13.485228 -0.725461 38.000000
2.082533 13.498951 -0.727056 37.500000
1.897836 13.572555 -0.729501 24.000000
4.401549 13.660057 -0.763945 4.000000
4.455575 13.680343 -0.765859 1.000000
1.752847 13.797344 -0.740344 10.500000
2.232309 13.752276 -0.741620 21.000000
2.211061 13.897286 -0.749062 24.000000
2.606755 13.848852 -0.750125 4.000000
1.690005 14.006438 -0.750975 1.000000
1.867462 13.995974 -0.751613 14.000000
1.651586 14.059283 -0.753527 0.000000
1.924940 14.088977 -0.756929 8.000000
2.358335 14.107977 -0.761394 12.500000
2.437659 14.171518 -0.765434 11.000000
3.361450 14.153715 -0.774364 1.000000
3.301669 14.233377 -0.777766 64.333336
2.576484 14.435109 -0.780530 36.000000
2.646817 14.564493 -0.787971 24.000000
2.732519 14.772129 -0.799666 6.000000
-14.957290 16.466686 -0.797053 28.000000
-14.792084 16.491852 -0.793759 54.333332
-14.746534 16.650351 -0.796910 9.000000
-11.723035 17.637899 -0.758811 0.000000
-10.653026 18.049208 -0.750934 22.000000
-10.443256 18.617277 -0.764827 0.000000
-10.394444 18.667456 -0.765543 17.000000
-18.858150 37.381435 -0.773221 24.000000
-18.737047 37.433338 -0.773073 30.000000
-18.612246 37.477684 -0.772778 39.000000
-18.489101 37.525215 -0.772556 42.000000
-18.343027 37.525627 -0.771374 14.000000
-18.240742 37.615456 -0.772039 40.000000
-18.101683 37.629330 -0.771153 51.000000
-17.978216 37.675175 -0.770931 51.000000
-12.153760 38.336727 -0.742717 2.000000
-11.658301 38.444324 -0.741905 8.000000
-11.525971 38.442455 -0.741166 10.000000
-18.249872 38.555656 -0.787771 9.000000
-11.952918 38.542210 -0.745229 8.000000
-11.175394 38.591629 -0.741979 17.000000
-11.048606 38.607323 -0.741610 14.000000
-11.844681 38.621632 -0.746041 13.000000
-11.329180 38.667633 -0.744121 19.000000
-10.847778 38.826199 -0.744490 4.000000
-10.752339 38.956470 -0.746336 5.000000
-10.229476 38.964722 -0.743973 29.000000
-10.640429 39.028641 -0.747075 11.000000
-10.506333 39.019394 -0.746263 17.000000
-10.388826 39.071537 -0.746632 27.000000
-10.180249 39.279282 -0.749365 23.000000
0.031992 -13.053438 -0.694844 1.666667
-1.241564 -12.617112 -0.674857 0.000000
-0.593457 -12.400231 -0.660824 0.000000
-0.331835 -12.464888 -0.663748 0.000000
-1.607548 -12.048019 -0.647004 0.000000
-1.307546 -12.013596 -0.643268 26.857143
-1.223877 -12.048856 -0.644665 7.000000
-0.116908 -11.544359 -0.614544 7.000000
-6.149409 -10.270858 -0.637224 1.000000
-5.080998 -10.071917 -0.600493 0.750000
13.699064 -9.905543 -0.605703 22.000000
-0.997566 -9.820863 -0.697374 1.000000
-6.390802 -9.615516 -0.614579 0.000000
-6.429356 -9.510414 -0.611071 0.000000
-7.848895 -9.353950 -0.649981 0.000000
-7.768311 -9.317204 -0.645728 0.000000
-1.418092 -9.288958 -0.663830 0.000000
-7.654912 -9.240056 -0.638712 0.000000
-7.559843 -9.183877 -0.633184 0.000000
-1.457914 -9.164266 -0.655562 1.333333
-6.995793 -9.005932 -0.607031 0.000000
-6.868488 -8.986697 -0.602088 0.000000
-2.968484 -8.739938 -0.652085 0.000000
-2.914462 -8.406973 -0.628595 0.000000
-3.085524 -8.345695 -0.628595 2.000000
-2.972758 -8.320705 -0.624226 0.000000
-1.804707 -8.375690 -0.605293 0.666667
10.825792 -7.343496 -0.696332 36.500000
10.651420 -7.152061 -0.682937 39.000000
10.803108 -7.180236 -0.690485 39.500000
10.378188 -6.767639 -0.659518 43.857143
10.462955 -6.696486 -0.661250 34.000000
10.481123 -6.615704 -0.659761 46.333332
10.794975 -6.625542 -0.674219 83.000000
-7.329929 -6.494068 -0.691830 0.333333
10.642523 -6.543469 -0.665024 21.000000
10.210480 -6.156829 -0.634672 2.000000
10.581395 -6.133819 -0.651044 9.000000
11.114271 -6.165812 -0.676558 25.000000
10.206023 -6.067076 -0.632014 10.000000
10.385549 -6.049310 -0.639775 5.666667
-7.624641 -5.944176 -0.682998 3.000000
-7.652320 -5.850713 -0.680518 4.000000
10.427917 -5.871034 -0.637011 2.000000
-7.703402 -5.775470 -0.680179 1.000000
10.084217 -5.740308 -0.617662 3.500000
10.413055 -5.712745 -0.632227 10.500000
-8.051563 -5.631411 -0.694132 2.000000
-7.900447 -5.599995 -0.684126 3.500000
-7.831780 -5.607007 -0.680461 0.000000
-7.647207 -5.677287 -0.672850 0.500000
9.954678 -5.563480 -0.607031 2.000000
10.174773 -5.519854 -0.616174 4.000000
10.061638 -5.397231 -0.607776 27.000000
10.127205 -5.128938 -0.604267 6.000000
10.205699 -5.088299 -0.607031 1.000000
10.349421 -5.058900 -0.613197 1.000000
11.373435 -4.804327 -0.657210 0.000000
10.611429 -4.132957 -0.606181 15.000000
11.252921 -3.743348 -0.631270 6.000000
11.869924 -3.783611 -0.663163 2.000000
12.617037 -3.675142 -0.699521 35.000000
11.366362 -3.466370 -0.632546 21.000000
9.308665 -3.168271 -0.694668 33.599998
11.101448 -3.120476 -0.613835 68.000000
9.272772 -3.073857 -0.690139 27.333334
10.889643 -2.987307 -0.601078 52.500000
9.402626 -2.803044 -0.693146 34.000000
9.444922 -2.751097 -0.694978 7.000000
9.137760 -2.599511 -0.671159 16.000000
9.342977 -2.531432 -0.683844 34.666668
9.333633 -2.450423 -0.681730 27.000000
11.162502 -2.448128 -0.608307 26.500000
9.115192 -2.347168 -0.664958 64.000000
9.557381 -2.333446 -0.695025 21.333334
11.211666 -2.293269 -0.609158 1.000000
-7.522832 -2.282742 -0.692636 1.000000
-7.392572 -2.217878 -0.679998 0.000000
8.990434 -2.254905 -0.654810 94.000000
9.520778 -2.072384 -0.688354 196.000000
9.253334 -1.968545 -0.668340 25.000000
8.554691 -1.745103 -0.616803 25.166668
8.759679 -1.734464 -0.630850 50.000000
9.643186 -1.721186 -0.692018 0.000000
8.984523 -1.538232 -0.643958 22.000000
9.176718 -1.489591 -0.656783 141.000000
9.459355 -1.565987 -0.677360 39.000000
8.875613 -1.393022 -0.634702 30.333334
8.496142 -1.297057 -0.607172 60.000000
9.452004 -1.351953 -0.674542 37.000000
9.341175 -1.156883 -0.664958 37.000000
8.924239 -1.048357 -0.634796 32.000000
9.003936 -1.036146 -0.640293 24.500000
8.962945 -0.810982 -0.635783 42.000000
9.011744 -0.867749 -0.639588 25.000000
-5.650089 -0.691741 -0.601798 1.000000
8.672944 -0.697823 -0.614689 25.000000
-5.605525 -0.659500 -0.696223 1.750000
8.694159 -0.623701 -0.615790 34.714287
8.676105 -0.497223 -0.613937 86.000000
8.893553 -0.537721 -0.629441 50.000000
-5.135368 -0.307736 -0.634600 6.181818
-4.473514 -0.282978 -0.632449 13.000000
8.897486 0.077647 -0.628595 26.000000
9.081224 0.050719 -0.641562 7.000000
-5.927172 0.126583 -0.626791 2.000000
7.898811 0.155804 -0.696058 43.000000
-5.747705 0.220805 -0.608106 1.000000
7.938219 0.218961 -0.699657 40.000000
-5.607701 0.392129 -0.693408 0.000000
7.569225 0.482844 -0.668237 41.000000
7.621147 0.450110 -0.672625 33.000000
7.688752 0.582176 -0.679359 39.727272
7.452452 0.675603 -0.659285 32.000000
-4.994922 0.714441 -0.622402 0.000000
7.512573 0.721939 -0.683904 31.714285
7.792159 0.805241 -0.690178 74.000000
9.348900 0.817923 -0.662985 6.000000
-6.231762 0.991500 -0.667123 16.333334
7.865593 0.937915 -0.697901 56.000000
8.465934 0.982537 -0.602098 45.000000
-5.976043 1.037543 -0.641259 1.000000
8.534842 1.044923 -0.607454 17.000000
8.732221 1.041254 -0.621266 34.000000
-6.252469 1.209609 -0.673291 4.800000
-6.028272 1.154317 -0.648899 8.000000
-6.289780 1.307177 -0.679178 3.333333
-5.310588 1.296545 -0.674310 1.000000
9.011307 1.304971 -0.643253 4.000000
-5.233954 1.336472 -0.666352 3.000000
8.471222 1.362947 -0.606157 76.599998
8.862995 1.326108 -0.633105 39.000000
-6.060019 1.459358 -0.658992 0.000000
-5.994088 1.483340 -0.652824 1.000000
8.740520 1.505093 -0.626575 39.166668
9.021787 1.422454 -0.645226 15.000000
-5.928951 1.516753 -0.647007 1.500000
7.764159 1.542982 -0.697433 28.000000
8.555421 1.570213 -0.614501 38.000000
-5.182106 1.646526 -0.698235 6.571429
8.724581 1.636741 -0.627115 39.750000
8.756435 1.785555 -0.631343 39.250000
8.819242 1.762258 -0.635360 48.000000
8.772985 1.867956 -0.633669 7.000000
8.466413 1.942178 -0.613655 34.333332
8.527854 2.012757 -0.619011 8.000000
8.900121 1.959435 -0.643817 42.200001
8.436119 2.019105 -0.612810 15.000000
7.223668 2.279019 -0.667359 3.000000
8.219016 2.270069 -0.602380 18.000000
6.796608 2.489853 -0.637730 34.599998
6.832483 2.442341 -0.639275 45.000000
6.915331 2.435273 -0.645945 37.000000
7.109471 2.441066 -0.662269 60.500000
8.676811 2.425874 -0.636488 63.000000
8.841916 2.502010 -0.649172 32.000000
-8.981544 2.692949 -0.662421 0.000000
-6.515129 2.648143 -0.619616 5.333333
-6.464162 2.706740 -0.617439 31.200001
8.315671 2.681000 -0.617249 11.500000
8.471384 2.628814 -0.626622 1.000000
8.716100 2.674763 -0.644099 12.000000
-8.210923 2.760091 -0.611964 0.000000
8.113064 2.799888 -0.606326 99.000000
-8.200412 2.900697 -0.614501 0.000000
-8.039401 2.900705 -0.603790 0.000000
-7.985262 2.909554 -0.600407 0.000000
8.475855 2.835982 -0.631414 29.000000
-9.355726 2.982195 -0.693710 0.000000
-8.021572 2.999194 -0.605011 0.333333
-9.319419 3.066542 -0.693116 1.214286
-7.988155 3.075188 -0.604706 0.000000
-8.006107 3.176314 -0.608487 0.000000
-8.050143 3.252471 -0.613373 0.000000
7.917200 3.287526 -0.605622 10.000000
6.492438 3.328070 -0.642785 0.000000
8.057940 3.390556 -0.617602 61.000000
7.873724 3.430089 -0.606749 79.000000
8.014638 3.461603 -0.616756 113.000000
-8.372581 3.598874 -0.643817 0.000000
-8.152263 3.572704 -0.628806 0.250000
-6.955501 3.577711 -0.689125 0.000000
-6.851270 3.592432 -0.681577 0.250000
6.434731 3.574602 -0.616295 15.750000
7.830162 3.588216 -0.608487 31.333334
8.007341 3.518312 -0.617884 107.000000
-8.169397 3.664618 -0.632541 1.000000
-6.856389 3.691818 -0.686083 0.666667
7.870172 3.666577 -0.613373 15.000000
8.420737 3.668433 -0.648890 65.000000
8.708364 3.696481 -0.668340 41.000000
7.916398 3.718426 -0.617884 20.000000
-8.252922 3.874765 -0.644099 0.500000
8.058514 3.847167 -0.630850 38.000000
6.312164 3.944278 -0.655775 1.000000
6.472514 3.988149 -0.669817 28.000000
6.681621 3.973568 -0.684912 37.000000
6.800094 3.992214 -0.694742 29.400000
8.018313 3.921192 -0.630568 53.000000
8.192080 4.006260 -0.644239 83.500000
8.207886 3.918527 -0.642548 65.500000
-5.963348 4.058807 -0.603695 0.000000
6.207726 4.099462 -0.655424 33.000000
7.550062 4.051851 -0.605340 6.000000
7.674582 4.025829 -0.612246 120.000000
7.862794 4.061768 -0.625212 115.000000
-6.687963 4.177486 -0.694742 1.000000
-6.573829 4.207263 -0.687651 1.800000
6.166975 4.172491 -0.656025 26.714285
6.288037 4.158193 -0.690635 31.600000
6.457054 4.206089 -0.678944 17.000000
7.931397 4.128824 -0.631696 100.000000
8.132364 4.152593 -0.645085 62.000000
11.388606 4.212774 -0.646366 0.000000
-8.545015 4.260385 -0.674542 0.000000
-6.534501 4.284222 -0.688423 1.500000
-6.364617 4.273622 -0.675434 2.000000
6.053590 4.228974 -0.693572 29.666666
7.506634 4.274765 -0.610273 7.000000
8.370922 4.224791 -0.662421 54.000000
-8.638545 4.340959 -0.682998 0.000000
7.792641 4.389132 -0.631837 2.000000
-8.504429 4.442228 -0.677830 0.000000
-7.258439 4.786025 -0.614219 1.000000
-6.115426 4.812364 -0.685614 3.000000
-7.473325 4.832804 -0.628736 1.000000
5.977757 4.969882 -0.684912 1.000000
7.559737 5.060803 -0.642689 81.000000
7.887716 5.208895 -0.667777 30.000000
6.745829 5.293209 -0.605763 46.000000
7.416895 5.274810 -0.642971 0.000000
8.027491 5.265057 -0.678206 17.000000
6.772567 5.360258 -0.610179 37.666668
6.856828 5.345588 -0.614219 44.000000
7.097555 5.497496 -0.634233 62.000000
6.541534 5.543700 -0.605763 2.000000
7.303123 5.583660 -0.649454 0.000000
7.352403 5.584823 -0.652273 5.000000
7.310843 5.626042 -0.651709 6.000000
6.215799 5.810614 -0.601112 32.000000
6.475962 5.744746 -0.611569 34.799999
6.612887 5.748496 -0.619011 15.000000
6.992124 5.776170 -0.640716 0.000000
-6.623645 5.866287 -0.625072 0.000000
6.320579 5.825266 -0.607243 25.750000
6.472035 5.836518 -0.615685 33.599998
6.684888 5.848057 -0.627468 1.000000
-6.611112 5.998822 -0.630662 0.666667
6.284281 5.986512 -0.613162 34.250000
7.162507 6.069951 -0.663266 54.000000
6.294330 6.119953 -0.620209 25.000000
7.222745 6.238908 -0.674260 1.000000
7.318003 6.281154 -0.681307 113.000000
5.597444 6.482418 -0.605058 28.000000
6.183945 6.453011 -0.631414 15.750000
6.254922 6.445569 -0.634515 34.000000
5.591481 6.537536 -0.607736 41.000000
5.713151 6.553724 -0.614219 56.000000
6.403376 6.557201 -0.647481 82.000000
5.388970 6.905342 -0.618810 26.857143
5.837059 6.868229 -0.636770 28.000000
6.311270 6.878259 -0.659489 34.599998
6.187301 7.008245 -0.660448 15.000000
6.207387 6.931612 -0.657347 29.250000
6.899184 6.998636 -0.694273 39.000000
6.962005 6.930493 -0.693991 40.000000
5.582554 7.025740 -0.633951 38.500000
6.691772 7.071404 -0.687790 7.000000
6.252088 7.126630 -0.669750 4.000000
-6.212841 7.544828 -0.690468 15.000000
5.496918 7.655409 -0.665803 35.000000
5.552727 7.631443 -0.666743 36.666668
5.808150 7.877984 -0.691455 97.000000
5.602241 7.933013 -0.686099 37.250000
5.587496 8.072395 -0.693569 37.000000
5.136771 8.195068 -0.683280 5.000000
4.741886 8.484606 -0.686663 4.000000
8.917193 9.045691 -0.676133 7.000000
8.750537 9.160110 -0.674326 7.500000
6.686332 9.311873 -0.610221 2.000000
8.727874 9.223016 -0.675920 7.000000
4.436046 10.410231 -0.602354 52.000000
4.516049 10.506334 -0.608732 13.000000
4.467045 10.574976 -0.611071 40.000000
5.374376 10.611829 -0.633184 1.000000
4.384166 10.619912 -0.611582 27.200001
3.401580 10.788432 -0.602141 29.000000
3.559506 10.770919 -0.603842 29.750000
4.345279 10.754942 -0.617450 1.000000
5.531168 10.836818 -0.647642 62.000000
5.662644 10.840855 -0.651044 21.000000
3.362674 10.938537 -0.609158 37.428570
4.332568 10.970763 -0.627868 34.000000
5.002928 10.967776 -0.641689 4.000000
4.207694 11.091043 -0.631440 35.799999
4.145210 11.158054 -0.633609 0.000000
4.459936 11.139357 -0.638712 8.000000
4.326796 11.213155 -0.639775 59.000000
3.338900 11.373878 -0.630987 37.000000
4.414189 11.333497 -0.647429 38.000000
3.341381 11.561715 -0.640625 19.333334
3.276122 11.655174 -0.644453 26.000000
3.235478 11.722456 -0.647323 37.500000
4.248638 11.775244 -0.666353 40.000000
4.928758 11.875618 -0.684425 3.000000
3.230895 11.924563 -0.657635 51.000000
5.123342 11.919167 -0.690591 6.000000
4.450809 12.096943 -0.686126 16.000000
5.037007 12.029557 -0.694206 10.000000
2.961224 12.145247 -0.665438 38.700001
3.220802 12.159630 -0.669584 40.599998
2.901497 12.302568 -0.672837 15.000000
3.143637 12.261492 -0.673794 30.000000
4.325087 12.227230 -0.690379 13.000000
4.558340 12.270116 -0.696757 33.000000
3.941312 12.364662 -0.690804 12.000000
-10.723085 13.408558 -0.615156 2.000000
-10.596493 13.379004 -0.611503 0.000000
-10.500015 13.386360 -0.609570 0.000000
-10.268582 13.348482 -0.603411 0.000000
-10.168249 13.435071 -0.603698 0.000000
-9.818527 13.628763 -0.601836 0.000000
-9.714153 13.664066 -0.600690 0.000000
-9.651087 13.757609 -0.602122 0.000000
-9.589479 13.854134 -0.603698 3.000000
-9.620648 13.992891 -0.608424 3.000000
-9.836780 14.600115 -0.630767 0.000000
-9.866454 14.743897 -0.635637 2.000000
-10.165415 15.504829 -0.664282 3.000000
2.847666 16.537851 -0.601263 9.000000
2.570085 16.639866 -0.603268 24.500000
2.654088 16.663126 -0.604557 18.000000
2.037388 17.317375 -0.624752 0.000000
-12.654707 30.089645 -0.602830 29.000000
-12.844452 30.274328 -0.607335 22.000000
-13.043363 30.476488 -0.612210 24.000000
-17.041691 30.605291 -0.646923 6.000000
-13.243655 30.677700 -0.617085 24.000000
-13.451726 30.892620 -0.622255 24.000000
-16.015062 31.015318 -0.644634 44.000000
-15.966778 31.161585 -0.646628 2.000000
-13.667724 31.121172 -0.627720 21.000000
-13.882035 31.341362 -0.633038 23.000000
-14.107651 31.582424 -0.638799 22.000000
-14.325074 31.800482 -0.644117 22.000000
-14.558881 32.050270 -0.650099 21.000000
-14.796076 32.302521 -0.656156 20.000000
-15.026599 32.535454 -0.661843 9.000000
3.309627 -31.123188 -0.578014 2.000000
2.115696 -30.954493 -0.572991 2.000000
2.206936 -30.863922 -0.571440 3.000000
3.179000 -30.815174 -0.572105 1.000000
2.298528 -30.785048 -0.570111 2.000000
2.390267 -30.713879 -0.568929 2.000000
2.482551 -30.654396 -0.567969 2.000000
2.575825 -30.610580 -0.567304 2.000000
2.669190 -30.570463 -0.566713 3.000000
2.762695 -30.534046 -0.566196 3.000000
2.904848 -30.502733 -0.565864 4.000000
3.057512 -30.578281 -0.567526 1.000000
15.017783 -26.190720 -0.557555 27.000000
18.620466 -21.564402 -0.526165 1.000000
18.633028 -21.442406 -0.524614 2.000000
18.789812 -21.486120 -0.527125 4.000000
0.485198 -14.398583 -0.516187 0.000000
0.437153 -14.308138 -0.512892 1.000000
0.389243 -14.201550 -0.509025 0.000000
-3.899020 -10.495265 -0.595975 0.000000
-3.696372 -10.449819 -0.590022 0.000000
-3.737006 -10.357502 -0.586124 0.000000
13.112212 -10.123309 -0.593529 1.000000
-5.154099 -10.020186 -0.599802 6.000000
-1.230424 -10.021108 -0.537434 0.666667
-4.518881 -9.906613 -0.579603 0.000000
-1.273991 -9.904249 -0.531551 1.500000
11.788121 -9.831953 -0.549988 4.000000
-3.970841 -9.740088 -0.559901 6.666667
11.643889 -9.773848 -0.544689 9.000000
11.906514 -9.757558 -0.551563 29.000000
-4.032923 -9.674194 -0.557916 5.500000
11.892141 -9.667782 -0.549129 35.500000
-6.582179 -9.106300 -0.598101 0.000000
11.472184 -9.148326 -0.525735 40.333332
11.833898 -9.136384 -0.535665 26.000000
-6.719646 -8.995324 -0.597676 0.000000
-6.622678 -9.042209 -0.596613 0.000000
11.558946 -9.069836 -0.526427 50.500000
11.669412 -9.068043 -0.529507 41.000000
11.808622 -9.057801 -0.533230 30.000000
11.851936 -8.914867 -0.531368 2.000000
12.727513 -8.961647 -0.557722 82.000000
13.398972 -8.878677 -0.575912 4.000000
11.761704 -8.674645 -0.523634 5.000000
11.879060 -8.665568 -0.526833 29.333334
12.355967 -8.642104 -0.540249 66.000000
12.638350 -8.634271 -0.548412 32.500000
11.868852 -8.582150 -0.524780 1.000000
12.264872 -8.521133 -0.535092 52.000000
12.732555 -8.494769 -0.548412 49.000000
11.808373 -8.453996 -0.520340 25.000000
12.156691 -8.389470 -0.529220 34.000000
12.503410 -8.427340 -0.540249 56.500000
-1.868086 -8.209147 -0.594769 1.000000
-1.924893 -8.105733 -0.588568 2.200000
-2.033822 -8.002319 -0.583306 8.666667
-1.987019 -8.029170 -0.584340 2.000000
12.031863 -7.945693 -0.516616 28.500000
11.994505 -7.813147 -0.512892 12.500000
12.063209 -7.617208 -0.511174 27.000000
12.064965 -7.512693 -0.509240 26.000000
12.178699 -7.583521 -0.514038 11.000000
12.092627 -7.372684 -0.507450 3.000000
12.351610 -7.345510 -0.514898 7.500000
11.951588 -7.235288 -0.500575 8.000000
12.388900 -6.977937 -0.509455 4.000000
-7.496438 -6.578865 -0.530913 2.500000
-7.445551 -6.451859 -0.524428 1.000000
-7.427597 -6.314784 -0.518953 1.250000
-9.312778 -6.149979 -0.594062 0.000000
-9.180322 -6.104010 -0.586832 1.000000
-7.463296 -6.165486 -0.515307 2.000000
-9.064840 -6.068384 -0.580666 2.000000
-8.946365 -6.029857 -0.574288 1.000000
-7.521409 -6.036613 -0.513372 2.000000
-8.818306 -5.983917 -0.567271 0.000000
-8.680729 -5.930478 -0.559617 1.000000
-7.565477 -5.955570 -0.512522 2.000000
-8.511360 -5.873688 -0.550474 2.000000
-8.349203 -5.820153 -0.541757 2.000000
-8.252408 -5.791284 -0.536654 2.000000
-7.752166 -5.811975 -0.515746 4.000000
-7.639637 -5.879014 -0.513138 2.000000
12.881183 -5.829615 -0.506590 36.000000
-8.165663 -5.768784 -0.532189 2.000000
-8.055489 -5.747996 -0.526767 5.000000
-7.945988 -5.764513 -0.522550 2.333333
-7.824354 -5.770712 -0.517518 8.000000
12.844728 -5.764567 -0.504442 24.000000
12.983295 -5.777820 -0.509168 9.000000
12.888586 -5.494791 -0.502007 5.000000
9.965239 -4.793820 -0.588640 15.500000
9.802038 -4.620870 -0.576839 46.333332
9.950498 -4.614646 -0.583856 18.000000
9.832302 -4.503672 -0.575670 16.500000
9.833110 -4.429459 -0.574075 21.000000
10.067863 -4.402727 -0.584919 35.000000
10.121870 -4.483258 -0.589278 23.500000
-14.398971 -4.022970 -0.535665 0.000000
9.382976 -4.026205 -0.543500 30.000000
9.496874 -4.011637 -0.548773 51.000000
9.487942 -3.897770 -0.546009 31.000000
9.581924 -3.836376 -0.549411 38.000000
9.456732 -3.740430 -0.541332 31.666666
10.472009 -3.741276 -0.591935 3.000000
14.799115 -3.665151 -0.546264 5.000000
9.296742 -3.579009 -0.530275 36.000000
9.347018 -3.479920 -0.530913 37.333332
9.279128 -3.302102 -0.524280 35.000000
9.646333 -3.344113 -0.543458 36.000000
9.746512 -3.310507 -0.547923 54.000000
9.252327 -3.272787 -0.522408 40.000000
9.693570 -3.184101 -0.543118 30.000000
9.759356 -3.144663 -0.545797 55.000000
9.971594 -3.109625 -0.556002 53.000000
10.079870 -3.178171 -0.562594 13.000000
9.415259 -3.001172 -0.526023 31.000000
9.408772 -2.901708 -0.524109 53.000000
10.211792 -2.905052 -0.565145 86.000000
10.708667 -2.937597 -0.591085 59.000000
10.824231 -2.871986 -0.596117 47.000000
9.561594 -2.752582 -0.529638 79.000000
10.587926 -2.690959 -0.581517 6.000000
15.047898 -2.688569 -0.547696 15.000000
9.447959 -2.655701 -0.522408 4.000000
9.217781 -2.544206 -0.509013 0.500000
10.702642 -2.400170 -0.583856 2.000000
9.254687 -2.259473 -0.507100 10.000000
9.629481 -2.255028 -0.526448 75.000000
-7.590302 -2.147840 -0.557279 0.000000
9.360189 -2.160969 -0.511352 64.000000
9.585039 -2.181186 -0.523259 99.000000
-7.401034 -2.069193 -0.542903 0.000000
-7.338271 -2.026809 -0.537829 0.000000
-7.182569 -1.935455 -0.525521 0.000000
10.675525 -1.974737 -0.577902 13.000000
-6.990801 -1.797499 -0.579660 9.777778
10.052880 -1.826918 -0.543883 82.000000
-7.006069 -1.665179 -0.571301 20.928572
-7.027526 -1.542527 -0.586513 16.125000
-7.146605 -1.300038 -0.513165 1.000000
-7.142326 -1.247191 -0.543865 0.750000
9.668550 -1.259157 -0.519007 3.000000
8.136368 -1.137700 -0.580393 32.000000
8.149817 -1.083019 -0.580816 35.666668
8.204712 -1.016135 -0.584058 0.000000
-7.333436 -0.688049 -0.520353 2.000000
-7.360341 -0.608930 -0.521762 1.166667
-5.639911 -0.595277 -0.584096 12.538462
-5.520888 -0.596754 -0.587079 1.000000
-5.655322 -0.512680 -0.550118 12.166667
8.437871 -0.536780 -0.597306 21.000000
7.902007 -0.403063 -0.558970 23.000000
8.167645 -0.442344 -0.577856 63.000000
7.828956 -0.341702 -0.553615 31.333334
7.942890 -0.288551 -0.561507 52.000000
-4.509451 -0.172692 -0.592077 23.111111
7.853395 -0.172047 -0.554954 39.750000
7.942642 -0.155355 -0.561225 38.500000
-4.543974 -0.071764 -0.560578 20.750000
7.793693 -0.054432 -0.550608 43.333332
7.985422 0.002723 -0.564138 42.333332
7.887673 0.101870 -0.557279 34.000000
7.911979 0.069047 -0.558970 6.000000
7.634242 0.179670 -0.539480 33.142857
-5.658115 0.281198 -0.598939 1.000000
7.641819 0.287598 -0.540253 39.000000
-5.583594 0.320017 -0.591285 0.666667
7.582563 0.358164 -0.536279 42.000000
-4.775443 0.493730 -0.555752 2.142857
7.672864 0.428980 -0.542903 59.000000
7.881083 0.490312 -0.557843 18.000000
8.117588 0.479430 -0.574474 26.000000
-4.791160 0.574626 -0.555116 19.705883
7.535028 0.611503 -0.534071 38.000000
7.824211 0.548364 -0.554108 41.500000
-5.021589 0.691449 -0.595438 0.666667
-4.948325 0.660248 -0.527782 1.000000
8.029243 0.702468 -0.569400 15.000000
8.133177 0.784478 -0.577246 31.833334
8.116440 0.838752 -0.576447 43.000000
-6.218028 0.919269 -0.553792 3.000000
7.360353 0.940241 -0.524205 28.333334
7.405675 1.011639 -0.528044 40.857143
8.429984 0.918146 -0.599068 54.000000
-6.216522 1.019135 -0.555021 5.666667
-6.185656 1.094028 -0.553441 2.500000
7.474613 1.058472 -0.533319 53.000000
-6.184035 1.143945 -0.554085 2.000000
-5.019090 1.158743 -0.590009 1.500000
7.568650 1.132550 -0.540648 8.000000
-6.236226 1.224687 -0.559936 1.500000
7.001323 1.216890 -0.502030 1.000000
-5.102321 1.373861 -0.574115 4.000000
-5.127203 1.449924 -0.563318 31.500000
7.012512 1.504635 -0.506681 9.500000
-5.200595 1.594962 -0.575094 9.000000
-5.160059 1.529518 -0.568996 13.750000
7.063037 1.696271 -0.513165 20.500000
6.920915 1.783417 -0.504920 42.625000
6.891669 1.897656 -0.504990 24.500000
6.833960 1.933816 -0.501749 2.000000
6.957341 2.255287 -0.516688 14.000000
7.073503 2.219374 -0.523735 28.000000
7.200651 2.384176 -0.535856 42.000000
7.352048 2.459961 -0.547695 12.000000
7.766175 2.776093 -0.582648 35.000000
7.872781 2.753883 -0.589226 29.000000
7.985890 2.727954 -0.596179 5.000000
7.715454 2.854006 -0.581169 32.750000
7.714222 2.984271 -0.584340 35.142857
7.933525 2.934700 -0.597588 60.000000
7.802854 3.111539 -0.593454 35.000000
9.061966 3.127362 -0.510289 1.000000
6.372693 3.445698 -0.511802 14.000000
7.741020 3.474072 -0.599420 34.000000
9.225723 3.462243 -0.524535 12.750000
6.352796 3.602796 -0.515963 27.857143
9.250514 3.554645 -0.527511 3.000000
-6.979439 3.701665 -0.558125 0.000000
6.307206 3.697452 -0.516500 34.333332
6.494192 3.698215 -0.527963 14.000000
7.443226 3.698089 -0.587159 4.000000
9.295069 3.622097 -0.531020 7.500000
-6.859414 3.735120 -0.551782 0.166667
7.526706 3.798716 -0.595615 1.000000
8.700165 3.741409 -0.504123 25.500000
9.321485 3.734315 -0.534528 2.500000
-6.831134 3.831864 -0.553333 0.000000
6.307026 3.899943 -0.588233 18.250000
6.440921 3.857919 -0.530406 29.000000
8.612367 3.848886 -0.502139 26.333334
-6.253377 3.919611 -0.521386 0.000000
-6.179219 3.927507 -0.517252 0.000000
8.676527 3.943153 -0.507312 4.000000
-7.058289 4.017879 -0.573769 0.000000
-6.113261 4.033068 -0.517416 0.000000
6.245293 4.068150 -0.526554 27.000000
6.334933 4.014117 -0.529824 37.799999
6.610639 4.051978 -0.547766 31.250000
-6.056290 4.149934 -0.518661 0.000000
-5.973779 4.189412 -0.596302 0.090909
6.378647 4.126532 -0.536702 73.000000
8.618686 4.114596 -0.508376 30.000000
8.713695 4.193617 -0.514754 30.000000
8.603074 4.274347 -0.511352 4.000000
-8.561869 4.387013 -0.512096 0.500000
-6.031517 4.362264 -0.547273 0.000000
6.155827 4.397396 -0.534447 29.000000
8.678892 4.346066 -0.516668 17.000000
9.016726 4.374399 -0.533465 5.000000
-8.555390 4.451795 -0.513372 0.000000
-6.082646 4.484617 -0.533883 0.333333
6.057825 4.467881 -0.531769 36.000000
6.153584 4.464223 -0.537078 34.666668
-8.620942 4.537617 -0.518581 0.000000
6.440019 4.519365 -0.555813 44.200001
6.706541 4.612725 -0.575038 34.000000
-6.178596 4.676228 -0.547413 0.000000
5.840941 4.702807 -0.529767 30.400000
6.159020 4.626381 -0.544192 33.571430
6.672335 4.620143 -0.573346 39.000000
6.882832 4.670572 -0.587628 34.666668
8.764361 4.667945 -0.528574 3.000000
-6.153203 4.748878 -0.549105 5.000000
5.791735 4.738796 -0.528668 34.000000
5.910486 4.728421 -0.534729 40.000000
6.213454 4.781755 -0.553897 10.500000
-8.792803 4.841883 -0.534315 0.000000
5.946228 4.912159 -0.544876 20.000000
6.264178 4.820584 -0.558407 23.000000
8.554513 4.907150 -0.524960 26.000000
-8.807479 4.922400 -0.537079 1.000000
-8.849398 5.018988 -0.541544 0.000000
-6.533044 5.080270 -0.584669 4.666667
6.127130 5.094070 -0.562917 32.000000
7.943454 5.068338 -0.501572 4.000000
8.206765 5.092376 -0.514116 0.000000
9.393736 5.041100 -0.567484 19.000000
-6.413751 5.212148 -0.583870 0.333333
7.887661 5.191136 -0.502635 28.500000
8.198895 5.195151 -0.516668 4.000000
-6.338204 5.267699 -0.582226 1.500000
6.282463 5.256681 -0.578702 39.000000
9.106250 5.261734 -0.559830 14.000000
9.627174 5.264239 -0.584068 5.500000
-6.353809 5.348546 -0.586736 0.500000
7.859742 5.702058 -0.516880 4.000000
8.570895 5.875235 -0.553132 12.500000
9.053925 6.019969 -0.578753 2.000000
7.939136 6.310550 -0.539843 28.000000
5.365227 6.373669 -0.588568 40.000000
5.289659 6.446707 -0.589132 38.333332
5.251036 6.544995 -0.592796 34.000000
8.262367 6.609938 -0.563232 4.000000
6.251291 7.058372 -0.501891 16.500000
6.306747 7.211760 -0.509970 12.000000
6.884611 7.139191 -0.527937 5.000000
6.469536 7.235783 -0.516668 13.000000
6.794356 7.225139 -0.527937 3.000000
7.012710 7.226454 -0.536016 28.000000
6.839803 7.319409 -0.533252 2.000000
7.462636 7.382325 -0.558767 10.500000
6.457079 7.454256 -0.524960 57.000000
6.703301 7.449998 -0.533465 104.000000
7.499363 7.512450 -0.565039 15.000000
-6.228665 7.523808 -0.519928 12.666667
-6.196253 7.548815 -0.519857 12.000000
5.629587 7.585864 -0.502847 34.500000
5.789443 7.550406 -0.506462 37.000000
6.911520 7.609052 -0.547179 69.000000
7.428869 7.607330 -0.565996 41.000000
5.794843 7.706795 -0.513266 8.000000
6.634273 7.707610 -0.541332 15.000000
5.905806 7.803212 -0.520920 146.000000
7.163445 7.775100 -0.562753 59.000000
5.720077 7.861463 -0.517518 32.000000
5.983543 7.854522 -0.525598 109.000000
6.229724 7.865595 -0.534103 3.000000
7.352571 7.818747 -0.571311 37.000000
5.759529 7.985770 -0.524109 33.000000
6.706350 7.992317 -0.555365 7.000000
7.495153 7.920362 -0.580454 9.000000
6.740040 8.083908 -0.560255 1.000000
7.018535 8.051169 -0.568547 39.000000
7.507966 8.034424 -0.585344 54.000000
6.356247 8.182622 -0.551538 41.000000
4.602782 8.235708 -0.502210 30.000000
4.609827 8.309506 -0.505824 34.000000
5.201693 8.298642 -0.521345 22.000000
5.236267 8.295771 -0.522196 0.000000
4.496897 8.404335 -0.507383 33.666668
5.153490 8.384899 -0.523897 24.799999
5.863343 8.330288 -0.542253 12.333333
4.746210 8.430044 -0.514967 90.000000
4.468341 8.521963 -0.512203 10.000000
5.924444 8.587971 -0.555365 19.000000
4.448771 8.649109 -0.517731 8.000000
6.001521 8.641492 -0.560042 56.000000
4.342675 8.792966 -0.522026 26.600000
5.774756 8.718091 -0.556640 41.000000
6.625422 8.811415 -0.586832 32.000000
4.286819 8.851984 -0.523542 28.333334
5.190216 8.889112 -0.547923 35.000000
5.227980 8.857664 -0.547498 37.500000
5.765404 8.864368 -0.562877 29.666666
5.806613 8.826290 -0.562381 38.000000
6.073545 8.863550 -0.571949 34.000000
4.940145 8.971249 -0.545159 33.000000
5.165225 8.942872 -0.549730 30.000000
5.783603 9.005588 -0.569717 11.500000
4.959830 9.074349 -0.550474 42.000000
5.161328 9.067122 -0.555365 34.500000
6.101073 9.086205 -0.582580 60.000000
6.121362 9.024307 -0.580454 51.500000
5.437479 9.114223 -0.564933 36.000000
4.123366 9.269940 -0.540056 2.000000
4.333840 9.230810 -0.542820 38.000000
5.589660 9.269791 -0.576201 18.500000
5.116450 9.466559 -0.572800 8.000000
4.219351 9.607440 -0.558554 68.000000
4.365008 9.589247 -0.560840 34.125000
5.978128 9.537347 -0.599164 1.000000
4.194708 9.674862 -0.561318 21.000000
4.877348 9.668055 -0.576414 15.000000
5.139483 9.991772 -0.598101 18.000000
3.524944 10.378197 -0.583431 38.000000
3.615839 10.394770 -0.585840 35.333332
3.624098 10.453968 -0.588959 60.000000
3.405128 10.682550 -0.596826 13.000000
-9.856826 13.502228 -0.598971 0.000000
4.373715 13.638657 -0.513179 6.000000
4.245825 13.758535 -0.515900 36.000000
4.475035 13.731954 -0.517476 10.000000
2.079293 13.896283 -0.503439 17.000000
2.113276 13.826457 -0.501148 14.000000
3.152992 13.844388 -0.508739 0.000000
2.354166 13.933455 -0.506304 72.000000
2.202314 14.112023 -0.511747 4.000000
1.937559 14.162909 -0.512176 16.000000
2.248524 14.116878 -0.512176 2.000000
2.354171 14.205006 -0.515900 42.000000
1.881509 14.253107 -0.515112 9.000000
2.314662 14.243896 -0.517046 3.000000
1.825685 14.351054 -0.518335 3.000000
2.004214 14.315104 -0.517905 24.000000
2.528695 14.414489 -0.524350 22.000000
3.153191 14.695807 -0.538530 8.500000
3.491311 14.689103 -0.540965 5.000000
3.639571 14.695580 -0.542445 17.666666
3.256702 14.726518 -0.540392 6.000000
3.564602 14.790761 -0.545118 27.000000
2.792524 14.821547 -0.540392 2.000000
2.901314 14.884058 -0.543328 5.000000
3.033003 14.815018 -0.541824 14.000000
1.824928 14.971392 -0.540392 2.000000
2.588541 15.032978 -0.546550 18.000000
4.586435 15.029697 -0.563021 39.000000
1.982934 15.205408 -0.549415 9.000000
4.166053 15.176479 -0.563881 1.000000
2.032811 15.214953 -0.549988 6.000000
4.842139 15.347963 -0.576628 3.000000
1.966571 15.856260 -0.572474 10.000000
2.170001 15.861982 -0.573620 4.000000
3.306650 15.897330 -0.581784 3.000000
3.936146 15.893332 -0.586654 1.000000
2.335034 15.947617 -0.577487 1.000000
3.216962 15.968736 -0.583646 2.000000
2.625635 16.157551 -0.586511 24.000000
-10.647619 28.387629 -0.559919 45.000000
-10.504011 28.411274 -0.559402 39.000000
-10.813972 28.423155 -0.561617 45.000000
-10.414707 28.444132 -0.559402 37.000000
-10.954840 28.523441 -0.564276 38.000000
-10.290024 28.519199 -0.559919 33.500000
-10.163587 28.590010 -0.560362 32.000000
-11.119560 28.682791 -0.568117 15.000000
-10.041929 28.675304 -0.561100 31.000000
-9.883619 28.802145 -0.562356 29.000000
-11.283946 28.837654 -0.571884 24.000000
-11.446462 28.984333 -0.575503 16.000000
-9.727294 28.937603 -0.563796 29.500000
-9.578408 29.098820 -0.565753 28.500000
-11.629259 29.178570 -0.580082 3.000000
-9.469585 29.231161 -0.567452 28.000000
-11.828325 29.409040 -0.585400 15.000000
-9.413109 29.371212 -0.569594 22.000000
-12.085626 29.511787 -0.588945 29.000000
-11.998860 29.564438 -0.589240 88.000000
-12.269911 29.695452 -0.593376 31.000000
-12.458544 29.885626 -0.597955 31.000000
1.217522 -24.629721 -0.455409 0.000000
3.990656 -24.342857 -0.455557 0.000000
3.847533 -23.940666 -0.447802 2.000000
0.720341 -23.576977 -0.435615 1.000000
3.708839 -23.549673 -0.440268 2.000000
0.641665 -23.411217 -0.432513 1.000000
2.559242 -23.368269 -0.434138 4.000000
2.627717 -23.316397 -0.433326 4.000000
2.687145 -23.188843 -0.431110 3.000000
3.585444 -23.241051 -0.434286 1.000000
2.751939 -23.112776 -0.429854 2.000000
2.850724 -23.018162 -0.428340 3.500000
3.444579 -23.048019 -0.430371 2.500000
3.023308 -22.933559 -0.427195 3.000000
3.165734 -22.902296 -0.426974 3.000000
3.323312 -22.976948 -0.428746 2.000000
3.229268 -22.832840 -0.425866 18.000000
0.203402 -13.709693 -0.491265 0.000000
0.051389 -13.361311 -0.478733 0.000000
-0.011540 -13.223510 -0.473792 1.000000
-0.066193 -13.088752 -0.468970 1.333333
-1.227077 -12.861305 -0.462906 0.000000
-1.159457 -12.789293 -0.460114 4.500000
-0.173140 -12.882569 -0.461617 0.000000
-1.051338 -12.705688 -0.456796 9.000000
-0.251303 -12.746634 -0.456795 3.333333
-0.967690 -12.662929 -0.455029 12.000000
-0.864384 -12.613226 -0.452988 17.500000
-0.329187 -12.655595 -0.453597 3.000000
