# This PCD file was generated using the MATLAB® pcwrite function
# from Computer Vision Toolbox®.
# .PCD v.7 - Point Cloud Data file format
VERSION .7
FIELDS x y z intensity
SIZE 4 4 4 4
TYPE F F F F
COUNT 1 1 1 1
WIDTH 1262
HEIGHT 1
VIEWPOINT 0 0 0 1 0 0 0
POINTS 1262
DATA ascii
2.354902 12.705913 0.209768 86.000000
2.654106 12.748946 0.211391 6.000000
2.703247 12.783587 0.212105 36.000000
3.400446 12.852004 0.215805 26.000000
3.285088 12.906736 0.216195 3.000000
4.211899 12.916850 0.220545 99.000000
3.323173 13.142427 0.220058 18.000000
3.487225 13.097782 0.220025 22.500000
1.705117 13.218708 0.216357 0.500000
4.440834 13.334095 0.228141 5.000000
1.496596 13.427073 0.219311 2.000000
4.527350 13.452747 0.230413 11.000000
5.957094 13.379850 0.237749 3.000000
6.612319 13.461722 0.243463 15.000000
4.456505 13.522712 0.231127 16.000000
1.344655 13.615962 0.222103 0.000000
2.754190 13.659259 0.226193 0.000000
6.458098 13.576256 0.244047 2.000000
1.960980 13.675588 0.224267 13.000000
4.249211 13.760986 0.233789 5.000000
1.866458 13.786379 0.225836 12.500000
3.233936 13.787955 0.229894 1.000000
3.387487 13.853990 0.231517 36.000000
3.477543 13.843958 0.231712 31.500000
3.856339 13.867908 0.233659 10.000000
5.002781 13.850235 0.239048 2.000000
3.312405 13.925582 0.232361 8.000000
3.820169 13.906951 0.234114 10.000000
4.237495 13.877546 0.235542 1.000000
3.093263 13.975894 0.232361 3.000000
5.102460 13.988501 0.241710 20.000000
1.451502 14.240331 0.232361 0.000000
1.741477 14.203736 0.232296 2.500000
2.153761 14.223951 0.233529 24.000000
2.147573 14.649472 0.240346 17.000000
2.305917 14.758982 0.242489 24.000000
4.734921 14.677113 0.250345 29.000000
2.382428 14.791368 0.243203 11.500000
4.736211 14.840510 0.252877 16.000000
4.038278 14.883864 0.250345 22.000000
3.268308 14.989813 0.249046 3.000000
1.653752 15.272702 0.249371 1.000000
3.063285 15.192202 0.251578 66.000000
2.988449 15.317136 0.253331 6.000000
1.766079 15.405054 0.251708 0.000000
7.772195 15.453290 0.280794 0.000000
3.028259 15.521183 0.256707 3.000000
3.172013 15.480276 0.256512 3.000000
1.639627 15.600004 0.254630 1.000000
3.711408 16.050312 0.267419 6.000000
2.989727 16.131121 0.266316 5.000000
4.054194 16.140423 0.270146 15.000000
4.858316 16.276144 0.275730 5.000000
1.930065 16.380512 0.267744 1.000000
4.291043 16.426546 0.275600 1.000000
4.358995 16.474848 0.276639 3.000000
4.618316 16.408195 0.276704 12.000000
4.266381 16.544510 0.277353 20.000000
4.422117 16.503565 0.277353 0.000000
2.197379 16.826897 0.275470 2.000000
2.139023 17.003708 0.278197 2.500000
2.275157 17.006226 0.278521 1.000000
2.627962 17.173807 0.282027 1.000000
4.312392 17.168352 0.287351 0.000000
2.360597 17.232780 0.282352 0.000000
-16.839462 -16.387100 0.381425 45.000000
-16.912760 -16.321003 0.381533 38.000000
-14.168667 -15.636826 0.342536 35.000000
-14.230028 -15.556589 0.342244 46.000000
-14.331688 -15.520229 0.342925 31.000000
-14.509754 -15.273962 0.341984 37.000000
-14.328616 -15.274456 0.339971 28.500000
-14.483265 -15.103008 0.339679 9.000000
-14.760903 -14.916294 0.340653 10.000000
-14.992756 -14.774547 0.341692 9.000000
-14.809038 -14.778051 0.339614 2.000000
-14.706096 -14.767825 0.338316 24.000000
-14.395746 -14.731282 0.334356 49.000000
-15.030525 -14.718977 0.341497 11.000000
-14.205188 -14.673895 0.331531 18.000000
-14.332589 -14.574770 0.331823 24.000000
-0.975299 -11.913396 0.401334 5.333333
9.755327 -6.848544 0.400193 69.500000
9.666750 -6.696006 0.394824 71.000000
9.735021 -6.653203 0.395898 54.000000
9.784747 -6.604897 0.396368 23.000000
9.929129 -6.477673 0.398046 31.000000
18.136366 -6.486617 0.312671 11.000000
10.129234 -6.047822 0.396100 16.000000
8.911121 -5.373870 0.349389 39.000000
8.903289 -5.221514 0.346548 28.333334
8.845432 -5.039328 0.341805 35.000000
9.007013 -5.000894 0.345899 67.000000
8.907739 -4.921438 0.341693 33.333332
9.102078 -4.868228 0.346570 33.000000
9.791012 -4.866685 0.367107 22.000000
9.939435 -4.882193 0.371805 20.000000
8.885633 -4.806441 0.339188 42.000000
9.063054 -4.792584 0.344221 38.500000
9.161728 -4.789635 0.347107 44.000000
9.309833 -4.771643 0.351249 39.571430
10.523887 -4.738530 0.387509 41.333332
10.682462 -4.756139 0.392610 5.000000
9.863640 -4.701458 0.366872 20.000000
10.084003 -4.719400 0.373818 10.000000
10.848794 -4.427311 0.393415 1.000000
8.774605 -4.292971 0.327980 11.000000
8.900939 -4.302881 0.331940 53.000000
9.268396 -4.302246 0.343080 34.000000
9.911452 -4.264445 0.362275 1.000000
8.763015 -4.202294 0.326302 3.000000
10.042567 -4.190658 0.365362 55.500000
10.928589 -4.181968 0.392878 45.000000
8.855789 -4.054513 0.327018 25.500000
10.874386 -4.122107 0.390462 4.000000
11.137836 -4.102340 0.398516 3.000000
10.513021 -3.947397 0.377040 58.000000
10.932652 -3.852136 0.389187 10.500000
10.888378 -3.778955 0.386972 37.000000
10.973685 -3.731495 0.389165 16.666666
8.470793 -3.707861 0.310464 23.666666
8.541697 -3.675101 0.312209 15.000000
8.665610 -3.680146 0.316101 12.000000
8.568726 -3.544044 0.311336 6.500000
8.868831 -3.538328 0.320598 22.500000
9.199772 -3.620177 0.331940 31.000000
9.506210 -3.603478 0.341336 30.000000
10.834960 -3.570812 0.383035 5.666667
8.531497 -3.450413 0.308987 18.000000
9.021087 -3.506288 0.324960 19.333334
9.133926 -3.299195 0.326067 29.250000
9.059245 -3.160076 0.322141 9.000000
8.729038 -2.983396 0.309725 29.000000
11.088633 -3.008559 0.385764 11.000000
8.616046 -2.899620 0.305229 5.000000
8.612433 -2.772445 0.303779 23.400000
8.623422 -2.722264 0.303618 0.000000
9.232605 -2.536150 0.321470 9.000000
9.105488 -2.470494 0.316772 9.000000
8.967549 -2.377716 0.311493 35.666668
11.455496 -2.160397 0.391402 19.000000
9.820886 -1.788299 0.335161 0.000000
7.669628 -1.672249 0.399990 36.000000
7.485628 -1.563390 0.363207 41.400002
7.516395 -1.466438 0.340458 34.750000
7.661090 -1.403306 0.396868 27.333334
9.338865 -1.369052 0.316906 28.000000
7.401032 -1.275761 0.382687 39.799999
7.570526 -1.231582 0.390830 72.000000
10.340681 -1.267863 0.349792 32.000000
11.327381 -1.298603 0.382811 22.000000
11.728720 -1.307296 0.396234 8.000000
7.412343 -1.158091 0.382280 34.000000
7.536285 -1.159673 0.388540 37.000000
10.175833 -1.198987 0.344020 29.000000
11.401581 -1.089814 0.384556 1.000000
11.408929 -1.054357 0.384690 24.000000
7.546054 -0.996407 0.351995 30.727272
9.390951 -0.987029 0.317041 3.000000
9.415627 -1.019539 0.317980 25.000000
9.978645 -1.017113 0.336772 7.000000
7.531082 -0.892146 0.386433 32.400002
7.766452 -0.840932 0.398056 32.500000
9.528736 -0.850417 0.321202 30.000000
9.371288 -0.791911 0.315766 27.000000
7.376970 -0.670123 0.377446 6.500000
7.363901 -0.575716 0.376377 8.500000
7.278441 -0.503850 0.371763 31.333334
7.156215 -0.402578 0.365227 39.055557
7.121335 -0.276066 0.363146 44.400002
7.273750 -0.201857 0.370779 22.000000
7.612615 -0.151487 0.387980 102.000000
7.090739 -0.029702 0.361314 35.000000
7.381677 -0.094924 0.376173 29.250000
7.495400 -0.113844 0.381975 38.000000
7.091432 0.037159 0.361355 40.599998
7.189898 0.105417 0.366403 37.000000
7.285170 0.141186 0.371288 32.000000
9.877779 0.113789 0.331671 0.000000
7.362013 0.188927 0.375257 6.000000
7.051351 0.325133 0.359685 0.000000
7.212450 0.298546 0.367828 5.000000
7.527223 0.430699 0.384183 24.950001
7.147661 0.539947 0.365249 29.333334
7.169864 0.607885 0.366657 32.875000
6.809266 0.679642 0.348693 38.333332
6.951064 0.759987 0.356306 30.600000
6.813931 0.813624 0.349677 33.166668
6.826973 0.876978 0.350729 40.000000
6.930795 0.963009 0.356558 34.545456
9.684790 1.058946 0.327108 13.000000
6.961581 1.117417 0.359278 23.333334
7.030285 1.105987 0.362637 22.500000
9.752923 1.097413 0.329524 1.000000
6.916060 1.228102 0.357927 33.636364
9.072794 1.252499 0.307511 4.000000
10.809676 1.236911 0.365308 23.600000
6.785510 1.342378 0.352459 40.000000
6.813409 1.307118 0.353511 31.333334
8.914256 1.316343 0.302544 35.000000
9.134745 1.341475 0.309994 15.000000
6.633868 1.410127 0.345589 22.000000
6.956395 1.444428 0.362026 39.000000
6.620694 1.553662 0.346536 25.700001
6.560892 1.666267 0.344927 36.000000
6.750111 1.590683 0.353375 6.000000
7.015782 1.630042 0.367013 34.000000
6.498800 1.730436 0.342688 20.333334
6.853150 2.053423 0.364545 19.750000
6.932144 2.162930 0.370026 19.200001
6.913535 2.250346 0.370474 22.500000
9.136854 2.335750 0.316638 27.000000
9.298227 2.283864 0.321470 4.000000
6.900105 2.402871 0.372306 3.000000
6.338177 2.547931 0.348083 34.000000
8.686214 2.543318 0.303887 22.000000
-6.387479 2.630094 0.351991 42.400002
6.430518 2.620378 0.353833 22.750000
6.574462 2.666939 0.361517 24.000000
6.922396 2.576512 0.376377 2.750000
10.154459 2.663972 0.352476 0.000000
-6.374836 2.703327 0.352832 9.333333
6.937446 2.738329 0.380041 4.000000
6.448689 2.787820 0.357989 31.555555
6.647918 2.782241 0.367217 23.500000
6.677396 2.956226 0.372102 26.000000
6.672819 3.050014 0.373853 24.600000
6.711848 2.996733 0.374545 20.000000
9.734404 3.067352 0.342678 14.000000
6.251542 3.115552 0.355920 26.000000
8.926089 3.092640 0.317175 12.000000
8.781952 3.203485 0.313864 25.333334
8.840132 3.203573 0.315698 15.000000
6.453418 3.305224 0.369456 93.000000
8.832020 3.295131 0.316504 1.000000
10.734125 3.419525 0.378248 8.000000
10.502734 3.510090 0.371805 7.000000
8.133773 3.942533 0.303484 2.000000
10.323318 3.962751 0.371268 7.000000
10.441287 4.045715 0.375966 6.000000
8.770442 4.149516 0.325765 8.000000
10.520657 4.133707 0.379523 5.000000
10.742002 4.318257 0.388717 29.000000
10.837222 4.317037 0.391670 14.000000
10.692411 4.376545 0.387912 15.500000
10.825652 4.431098 0.392744 9.000000
6.288494 4.524528 0.394755 18.428572
9.184828 4.559387 0.344288 23.000000
6.215360 4.595799 0.393883 24.000000
7.933904 4.647351 0.308719 12.000000
8.141675 4.598837 0.313954 4.000000
10.747194 4.577445 0.392207 9.000000
9.837484 4.844909 0.368181 0.000000
6.052226 5.005743 0.400214 26.299999
8.927696 5.117080 0.345497 9.000000
9.034068 5.140411 0.348986 18.000000
7.467077 5.413211 0.309658 3.000000
9.299704 5.408212 0.361201 17.000000
7.860966 5.494044 0.322007 7.500000
7.445511 5.605488 0.312913 31.250000
7.795477 5.614006 0.322544 3.000000
7.468461 5.705940 0.315564 104.000000
7.674264 5.711890 0.321202 42.000000
7.971828 5.894536 0.332879 28.000000
7.500358 6.159978 0.325873 27.400000
7.562033 6.123613 0.326705 8.000000
7.951211 6.114419 0.336772 55.000000
7.986143 6.221633 0.339904 57.666668
9.638940 6.230938 0.385361 2.000000
6.697654 6.276330 0.308182 42.000000
6.794024 6.294844 0.310974 26.200001
6.888140 6.294147 0.313282 10.000000
7.539284 6.344239 0.330839 29.000000
8.000294 6.334174 0.342611 30.500000
9.618080 6.325121 0.386502 0.500000
7.468847 6.446936 0.331269 2.000000
7.242875 6.493939 0.326615 7.666667
7.809273 6.571361 0.342678 23.000000
8.103807 6.499356 0.348785 10.500000
9.086613 6.543833 0.375966 20.000000
8.099770 6.772458 0.354490 43.000000
6.951013 6.958338 0.330228 7.750000
8.206544 6.949812 0.361067 2.000000
7.155717 7.051570 0.337309 41.000000
7.220679 7.071011 0.339322 6.000000
8.081319 7.064701 0.360396 17.000000
8.282915 7.149621 0.367375 24.000000
-5.765341 7.270204 0.311537 15.000000
5.457373 7.205479 0.303484 2.000000
6.691628 7.269444 0.331738 35.500000
7.904173 7.268260 0.360530 1.000000
7.943765 7.213079 0.360261 5.000000
8.173142 7.190397 0.365496 17.000000
8.263431 7.178228 0.367510 0.000000
-5.745376 7.398904 0.314524 45.000000
6.728685 7.379190 0.335295 17.000000
-5.759334 7.538347 0.318517 11.000000
6.573947 7.512043 0.335161 10.000000
8.488747 7.515492 0.380664 27.000000
8.889915 7.528532 0.391133 12.000000
5.409420 7.578109 0.312611 7.666667
6.821446 7.624015 0.343483 82.000000
5.155407 7.724365 0.311806 8.000000
5.355065 7.724429 0.315581 22.000000
7.219742 7.769367 0.356100 53.000000
5.126793 7.840654 0.314535 21.666666
6.709338 7.838988 0.346436 22.000000
7.093059 7.852882 0.355295 46.000000
7.274150 7.778767 0.357577 49.000000
7.347867 7.808281 0.359993 41.000000
5.123882 7.971994 0.318182 31.500000
6.764967 7.954434 0.350597 7.000000
7.084340 7.968074 0.357980 21.000000
4.999045 8.053217 0.318249 38.000000
5.298987 7.993765 0.322007 28.000000
4.940903 8.133761 0.319533 25.571428
5.094305 8.121017 0.321873 31.000000
4.837868 8.177570 0.319016 38.714287
4.794416 8.354628 0.323416 35.500000
6.376750 8.364623 0.353147 2.000000
4.780376 8.463061 0.326347 24.666666
5.342263 8.427811 0.335027 26.500000
8.326434 8.601225 0.401938 27.500000
8.219001 8.679204 0.401334 2.000000
6.340618 8.941932 0.368046 20.000000
6.427003 8.944120 0.369791 40.000000
6.459261 9.048867 0.373281 30.000000
6.628455 9.163584 0.379724 10.000000
5.200901 9.298294 0.357711 3.000000
5.170595 9.452116 0.361738 0.000000
5.971681 9.519674 0.377308 1.000000
6.871917 9.756016 0.400663 15.000000
4.696802 9.873646 0.367107 1.000000
6.771698 9.786865 0.399589 18.666666
4.651060 9.937921 0.368404 11.333333
4.574342 10.018935 0.369791 31.000000
5.029058 10.038372 0.376972 5.000000
6.105549 10.010351 0.393683 7.000000
4.634695 10.236470 0.377281 41.599998
5.131569 10.364718 0.388314 69.000000
5.726116 10.428658 0.399455 28.500000
5.169484 10.524319 0.393683 89.000000
5.713143 10.522300 0.402005 40.000000
4.041772 10.662530 0.382856 31.333334
4.143075 10.609980 0.382431 14.166667
4.723619 10.609421 0.389925 22.000000
3.955799 10.740158 0.384288 33.500000
4.678196 10.687697 0.391715 35.666668
3.934730 10.813816 0.386368 22.000000
3.834203 10.881748 0.387375 34.000000
3.684782 11.063965 0.391536 18.000000
3.762287 10.999746 0.390328 33.714287
-16.802029 14.797305 0.363441 11.500000
-16.843267 15.213722 0.368440 8.500000
-17.828945 15.405759 0.382496 5.000000
-17.697363 15.438397 0.381230 11.000000
-16.477400 15.702183 0.369479 7.000000
-16.361589 15.690207 0.367986 21.000000
-16.352510 15.780409 0.368895 48.000000
-17.189051 15.973056 0.380906 36.000000
-17.144629 16.032438 0.381035 15.000000
-16.592648 16.113115 0.375452 77.000000
-16.624893 16.246231 0.377335 69.000000
-16.833277 16.553564 0.383243 28.000000
-16.592361 16.575018 0.380711 26.500000
-16.556343 16.695633 0.381685 31.000000
-16.513489 16.827759 0.382723 35.666668
-16.455280 16.962772 0.383632 33.000000
-13.757645 16.989285 0.354871 14.000000
-13.633629 16.999302 0.353735 65.500000
-16.419533 17.086281 0.384671 34.000000
-16.353308 17.160690 0.384801 37.666668
-13.574530 17.090004 0.354287 52.000000
-16.320883 17.307194 0.386164 10.000000
-15.955923 17.351942 0.382659 11.000000
-17.261770 17.516710 0.399214 6.000000
-16.392233 17.492622 0.389151 21.000000
-16.336807 17.598969 0.389800 21.000000
-10.724316 17.876474 0.338402 48.666668
-10.660911 17.940754 0.338770 4.000000
-9.670548 18.172356 0.334161 2.000000
-9.580143 18.208855 0.333998 255.000000
-9.419424 18.249716 0.333382 255.000000
-9.255026 18.282146 0.332635 255.000000
-9.136179 18.308311 0.332148 229.000000
5.582202 18.489147 0.313515 2.000000
-9.087602 18.848881 0.339679 11.000000
3.454906 18.973471 0.313061 4.000000
0.680788 -28.260077 0.458879 1.000000
0.769023 -28.237808 0.458554 50.000000
12.758159 -27.866236 0.497508 8.000000
16.086805 -25.407522 0.488159 20.000000
16.121393 -25.286037 0.486796 61.000000
16.216530 -25.172771 0.486081 64.500000
16.363352 -25.139681 0.486925 62.000000
16.492674 -25.165087 0.488419 3.000000
-19.776180 -18.146944 0.435701 15.000000
-19.805805 -17.984022 0.434273 34.000000
-19.810181 -17.650227 0.430702 1.000000
-19.409790 -16.229101 0.410705 13.000000
-5.483123 -13.598567 0.492295 8.000000
-5.471076 -13.406459 0.486165 41.000000
-5.486793 -13.266001 0.482004 47.500000
-5.677535 -13.195618 0.482317 44.666668
-5.556107 -13.198091 0.480796 54.000000
-2.354492 -12.484723 0.426569 8.666667
-1.250614 -12.269479 0.414086 8.000000
-1.205386 -12.205714 0.411804 7.000000
-1.133654 -12.059994 0.406703 12.000000
-1.075726 -12.053273 0.406301 22.000000
-1.031339 -11.980917 0.403750 9.000000
10.698478 -10.324183 0.499185 38.000000
10.528327 -9.991069 0.487328 59.000000
10.817693 -9.864069 0.491534 40.000000
10.288503 -9.804461 0.477172 10.000000
10.698282 -9.816917 0.487507 35.000000
10.783451 -9.770982 0.488581 36.000000
10.041852 -9.360876 0.460930 6.500000
10.074963 -9.283986 0.459991 23.000000
10.080281 -9.076327 0.455427 20.000000
10.178938 -9.049999 0.457306 36.000000
10.080918 -8.981651 0.453324 26.666666
10.235599 -8.985867 0.457306 3.000000
10.338935 -8.792904 0.455696 50.000000
11.443155 -8.780674 0.484286 8.000000
9.964063 -8.664722 0.443347 13.000000
11.360944 -8.661139 0.479655 24.500000
10.218753 -8.526036 0.446837 40.000000
10.396293 -8.618914 0.453414 35.000000
10.494007 -8.575613 0.455025 26.250000
9.798843 -8.440244 0.434220 29.000000
10.055055 -8.497182 0.442005 51.000000
11.311449 -8.511412 0.475293 29.000000
9.843535 -8.425015 0.435025 38.000000
9.962300 -8.365290 0.436770 33.000000
9.928526 -8.022760 0.428582 48.000000
9.885040 -7.910948 0.425092 33.000000
12.684881 -7.846579 0.500795 37.000000
9.398882 -7.742333 0.408851 4.000000
9.746790 -7.725211 0.417576 70.000000
11.679094 -7.741954 0.470461 1.000000
12.169532 -7.794696 0.485225 14.333333
12.308149 -7.747982 0.488312 37.500000
9.455391 -7.714365 0.409723 4.500000
12.600672 -7.712589 0.496030 13.000000
9.682440 -7.600200 0.413280 36.000000
11.332172 -7.563335 0.457441 30.000000
12.508642 -7.575503 0.490997 8.000000
9.671293 -7.501848 0.410954 31.333334
11.192219 -7.520859 0.452743 31.000000
9.771156 -7.424736 0.412039 9.750000
12.452243 -7.381849 0.486031 0.000000
9.789812 -7.286409 0.409746 27.666666
9.869810 -7.234195 0.410864 42.000000
10.081290 -7.292323 0.417755 40.333332
9.731225 -7.179722 0.406032 33.000000
10.076899 -7.169326 0.415227 40.000000
10.944191 -7.009871 0.436367 11.000000
10.125136 -6.757734 0.408717 0.000000
10.272938 -6.809827 0.413817 29.000000
10.199798 -6.578360 0.407509 60.000000
10.232916 -6.404305 0.405316 0.000000
10.376048 -6.373408 0.408851 8.000000
10.370413 -6.016355 0.402542 0.000000
11.766184 -6.010700 0.443615 7.000000
11.859622 -5.964796 0.445718 10.000000
11.833621 -5.858824 0.443347 20.000000
12.350498 -5.827509 0.458514 9.000000
12.477370 -5.839517 0.462541 12.000000
12.183806 -5.655534 0.450998 2.000000
13.454479 -5.688930 0.490460 3.000000
11.345510 -5.528674 0.423750 1.000000
11.454873 -5.448978 0.425898 14.000000
11.182408 -4.769702 0.408180 2.000000
11.524825 -4.535102 0.415831 6.000000
11.417159 -4.246004 0.408985 8.000000
8.962496 -3.981919 0.499733 11.500000
8.928351 -3.558808 0.489758 25.000000
11.600827 -3.622142 0.408046 3.000000
11.672759 -3.532251 0.409468 24.400000
8.547676 -3.270880 0.466349 76.000000
8.458332 -3.191070 0.460650 14.000000
8.761823 -3.211615 0.475509 9.000000
8.720266 -3.088011 0.471387 15.000000
9.348463 -3.102628 0.501904 33.000000
8.795372 -3.021623 0.473881 27.000000
8.849250 -2.993541 0.476018 54.000000
8.335622 -2.747063 0.447215 4.000000
9.198503 -2.745689 0.489148 33.000000
9.272797 -2.775839 0.493219 19.000000
8.296394 -2.647796 0.443754 31.000000
8.446382 -2.637225 0.450879 42.000000
9.304423 -2.688325 0.493504 29.000000
9.438826 -2.640738 0.499427 6.000000
9.316523 -2.543408 0.492099 6.000000
9.218427 -2.470070 0.486298 14.000000
9.318664 -2.403030 0.490369 5.000000
9.430694 -2.400348 0.495865 2.000000
7.953797 -2.211824 0.420671 19.799999
7.878330 -2.084486 0.415256 21.000000
7.973773 -2.050748 0.419531 24.400000
9.162099 -2.027834 0.478156 4.000000
7.910100 -1.960483 0.415256 23.000000
8.260122 -1.992230 0.432966 23.000000
8.404713 -1.971307 0.439887 53.000000
8.452887 -2.010644 0.442737 8.000000
8.681787 -1.978829 0.453729 23.000000
9.090364 -1.982019 0.474084 1.000000
8.185121 -1.892694 0.428080 33.000000
8.352759 -1.876249 0.436223 36.000000
7.851556 -1.737773 0.409760 25.000000
9.337296 -1.413882 0.481209 11.000000
8.087251 -1.237523 0.416885 20.000000
9.110872 -1.306405 0.468995 17.000000
9.280961 -1.311024 0.477613 11.333333
7.109948 -0.839001 0.489577 9.000000
7.862392 -0.802256 0.485226 13.800000
8.177560 -0.807581 0.418717 5.000000
7.250543 -0.545171 0.497218 25.000000
9.755381 -0.624013 0.498104 11.000000
7.137610 -0.283557 0.488486 43.500000
8.817534 -0.230895 0.449454 59.000000
7.162086 -0.224816 0.490014 32.799999
8.706391 -0.200616 0.443754 58.000000
7.196275 -0.099329 0.492170 38.000000
7.339469 -0.101187 0.501949 32.666668
8.756483 -0.050453 0.446197 4.000000
7.142447 0.020657 0.488434 31.937500
12.065037 0.063173 0.405093 0.000000
6.970848 0.199587 0.476887 7.500000
8.788539 0.266979 0.448029 40.000000
8.811653 0.226128 0.449149 14.000000
6.877606 0.365427 0.470981 28.571428
7.024171 0.322652 0.480844 46.000000
7.266015 0.303263 0.497309 22.000000
8.679614 0.340032 0.442614 24.299999
8.649584 0.439708 0.441312 17.500000
6.865589 0.534702 0.470918 29.125000
6.921255 0.623713 0.475223 39.599998
8.993452 0.641503 0.459428 0.000000
9.254485 0.630908 0.472659 14.000000
6.840978 0.692450 0.470201 39.500000
8.794086 0.682845 0.449454 1.000000
7.097600 0.782470 0.488304 39.000000
7.163479 0.827563 0.493125 37.000000
7.093876 0.955419 0.489486 43.000000
7.239849 0.905608 0.498947 36.333332
7.869223 0.910501 0.403654 37.000000
6.851135 1.054491 0.474022 43.000000
6.906835 0.996466 0.477206 43.333332
8.921515 1.060668 0.457800 2.000000
6.893020 1.100997 0.477351 42.200001
9.219507 1.125480 0.473270 3.000000
6.749427 1.235117 0.469219 38.000000
6.892855 1.183136 0.478252 43.000000
6.654837 1.358736 0.464471 29.500000
6.813801 1.357822 0.475114 30.000000
6.939165 1.369223 0.483683 34.599998
8.485586 1.403258 0.438258 2.500000
9.170801 1.383717 0.472592 12.333333
7.076943 1.566189 0.495659 32.000000
7.904739 1.602492 0.410982 2.000000
9.184126 1.742000 0.476324 1.000000
9.409472 1.754137 0.487723 2.000000
8.881465 1.946217 0.463296 4.000000
6.764039 2.048640 0.483301 5.000000
8.714955 2.039315 0.456070 10.000000
9.342883 1.985891 0.486705 2.000000
9.484983 2.047261 0.494440 1.000000
8.781037 2.098417 0.460039 6.000000
6.695290 2.212959 0.482209 23.000000
6.786271 2.178039 0.487394 13.750000
6.692824 2.282334 0.483573 28.750000
6.734777 2.320329 0.487121 32.333332
8.278704 2.314930 0.438029 23.250000
6.662103 2.460409 0.485666 10.666667
8.534295 2.469754 0.452711 63.000000
9.161829 2.465190 0.483448 2.000000
6.816985 2.517622 0.496945 9.000000
8.226927 2.535642 0.438665 27.500000
8.364954 2.535089 0.445383 18.000000
-6.391777 2.638384 0.472870 45.000000
6.625478 2.581960 0.486272 24.666666
7.662964 2.641562 0.413017 9.000000
8.142025 2.579675 0.435205 0.000000
8.736416 2.617727 0.464721 1.000000
8.825535 2.584111 0.468588 23.000000
-6.391420 2.703788 0.474568 11.000000
6.524572 2.685130 0.482482 17.666666
6.702353 2.692970 0.493944 4.000000
7.672437 2.735098 0.415053 16.333334
8.000154 2.729709 0.430727 94.000000
8.249173 2.756996 0.443195 22.000000
6.743073 2.783425 0.498856 43.000000
7.760767 2.784872 0.420142 78.000000
6.459446 2.887496 0.483846 32.200001
6.698508 2.939046 0.500220 4.000000
6.210440 3.105891 0.474841 28.000000
8.178804 3.115074 0.445960 25.166666
8.797128 3.125597 0.475713 2.000000
8.896900 3.082520 0.479784 26.500000
6.514612 3.190025 0.496036 22.000000
8.243353 3.194075 0.450472 10.000000
8.850409 3.207271 0.479682 22.000000
7.451272 3.532644 0.420193 35.000000
7.039824 3.644409 0.431673 28.799999
7.350875 3.591616 0.416885 26.000000
7.477156 3.624264 0.423399 20.000000
7.723370 3.674121 0.435816 51.666668
8.074451 3.696773 0.452507 3.000000
7.155703 3.841010 0.413832 26.714287
8.598791 3.806869 0.479173 3.000000
7.082347 3.941983 0.413017 45.000000
7.209283 3.968354 0.419328 77.500000
7.874046 4.001646 0.450065 1.000000
7.067064 4.169467 0.418106 26.000000
7.202080 4.128010 0.422992 43.000000
7.096188 4.247149 0.421414 31.000000
7.241614 4.211337 0.426859 15.000000
8.037996 4.180750 0.461667 5.000000
6.646374 4.295459 0.471819 11.500000
6.709943 4.277998 0.405486 21.000000
6.996738 4.429994 0.421974 18.000000
6.690619 4.475598 0.410167 18.000000
6.752045 4.516620 0.413933 1.000000
7.267536 4.544155 0.436752 26.400000
7.881000 4.550097 0.463703 23.000000
8.042087 4.509318 0.469810 13.000000
6.982018 4.607290 0.426248 43.000000
8.081546 4.581651 0.473372 10.000000
7.186905 4.710148 0.437851 26.000000
7.362374 4.792150 0.447622 4.000000
6.149127 4.968790 0.402839 25.666666
7.222699 4.947341 0.446095 51.000000
6.296120 4.984808 0.409201 13.250000
6.484823 5.002847 0.417343 11.500000
6.680579 5.054307 0.426859 6.500000
6.713919 5.029967 0.427470 12.000000
7.461805 5.025475 0.458411 34.000000
7.477755 5.234985 0.465128 31.000000
7.684040 5.210313 0.473067 10.000000
8.326558 5.271971 0.502175 5.000000
7.489738 5.287453 0.467163 18.000000
6.293962 5.533703 0.427042 25.700001
6.243097 5.597678 0.427266 0.000000
7.699503 5.618692 0.485687 6.000000
6.063031 5.753567 0.425909 37.666668
6.127502 5.723968 0.427266 37.000000
7.846489 5.688264 0.493829 18.000000
6.072778 5.854176 0.429811 30.500000
7.594259 5.783233 0.486400 52.500000
6.435881 5.955519 0.446808 55.000000
7.404492 5.957622 0.484262 5.000000
7.466825 5.950060 0.486501 12.500000
7.638628 5.912341 0.492201 11.000000
7.295156 6.022221 0.482023 2.000000
7.654737 6.041009 0.496883 20.000000
6.761978 6.172282 0.466519 23.166666
6.398703 6.226815 0.454950 24.000000
6.358856 6.368835 0.458597 31.583334
6.421922 6.288811 0.458003 11.000000
6.235064 6.440785 0.456782 12.500000
7.256867 6.465633 0.495254 3.000000
7.408939 6.395225 0.498715 0.000000
5.662479 6.546183 0.441040 41.166664
5.432896 6.595338 0.435409 10.000000
5.572437 6.609403 0.440516 31.636364
6.354568 6.647326 0.468588 9.500000
5.292468 6.964929 0.445739 37.750000
5.403126 6.961827 0.449047 18.250000
5.580955 6.884526 0.451591 13.000000
6.529388 6.938517 0.485484 23.000000
6.221793 6.997929 0.477138 13.000000
6.349427 7.051647 0.483516 55.000000
6.562128 7.017351 0.489555 65.000000
-5.739751 7.133710 0.466553 26.000000
5.259775 7.082370 0.449522 28.333334
6.578121 7.078901 0.492405 58.000000
-5.775723 7.248187 0.472252 9.000000
5.325434 7.265635 0.459021 45.000000
6.658834 7.211058 0.500140 33.000000
-5.801578 7.399157 0.479105 10.333333
-5.729529 7.426540 0.477952 20.500000
-5.849680 7.706809 0.493015 17.000000
4.937772 7.762704 0.468792 41.000000
5.438263 7.691314 0.479988 33.428570
4.966699 7.808167 0.471540 37.000000
5.073057 7.865812 0.476934 41.000000
5.657205 7.820862 0.491845 43.250000
5.485574 7.945858 0.491997 20.000000
5.524189 7.948266 0.493219 34.000000
4.946956 8.053755 0.481616 5.000000
5.297952 8.074541 0.492099 8.500000
4.927018 8.097147 0.482973 23.333334
5.115234 8.173456 0.491319 29.000000
5.256572 8.094411 0.491794 26.000000
4.869308 8.296952 0.490206 26.799999
11.397959 8.290266 0.473212 12.500000
4.821269 8.442311 0.495390 23.000000
9.418947 8.418594 0.424153 9.000000
9.906797 8.443278 0.437038 0.000000
9.554322 8.620884 0.432072 20.000000
10.688631 8.627719 0.461199 15.000000
8.328711 8.685100 0.404019 0.000000
10.939166 8.915410 0.473816 2.000000
8.865631 9.072269 0.425898 9.000000
9.896290 9.014446 0.449454 6.000000
7.325994 9.704348 0.408247 10.000000
9.653715 9.816835 0.462273 26.000000
9.709817 9.812035 0.463481 17.000000
6.646374 10.026361 0.403885 4.000000
9.635267 10.016000 0.466635 15.500000
9.614811 10.121279 0.468716 23.000000
7.244086 10.817042 0.437105 18.000000
5.275208 11.134643 0.413683 48.000000
7.535374 11.100386 0.450461 10.500000
4.806164 11.366715 0.414354 9.000000
5.507659 11.302385 0.422139 27.000000
4.809065 11.473933 0.417710 16.000000
6.140332 11.422913 0.435428 24.000000
6.649963 11.380049 0.442542 2.000000
4.664558 11.481523 0.416099 8.500000
6.563665 11.563538 0.446434 8.000000
4.805347 11.635627 0.422676 46.666668
4.983349 11.582335 0.423347 31.000000
3.540379 11.726300 0.411267 8.000000
4.686380 11.800328 0.426300 34.000000
5.044182 11.825920 0.431669 21.000000
6.059121 11.861111 0.447195 14.000000
6.187142 11.789600 0.447038 41.500000
3.572129 11.967209 0.419321 26.000000
5.933456 11.890276 0.446166 30.000000
6.172878 11.898521 0.450058 60.000000
6.689940 11.960432 0.460125 4.000000
2.321784 12.000559 0.410395 12.000000
3.552618 12.039721 0.421468 30.000000
5.813153 12.025084 0.448447 7.000000
6.395330 12.048150 0.457978 39.000000
6.965250 12.006026 0.466031 10.000000
2.444435 12.123013 0.415227 22.500000
2.724879 12.130721 0.417441 17.000000
3.358335 12.076618 0.420864 15.500000
3.505358 12.131781 0.423992 32.599998
6.755183 12.166634 0.467239 4.000000
1.787712 12.194715 0.413817 29.000000
2.568112 12.191387 0.418314 28.250000
2.913178 12.247202 0.422676 32.000000
3.386631 12.178773 0.424421 65.000000
4.030628 12.187546 0.430998 40.666668
2.248086 12.345920 0.421334 41.000000
2.728223 12.326580 0.423884 7.000000
2.875139 12.316392 0.424645 32.333332
3.814502 12.353188 0.434085 1.000000
5.226529 12.360888 0.450595 20.000000
1.861551 12.426256 0.421871 58.000000
3.244427 12.419995 0.430998 41.000000
3.895157 12.383868 0.435875 26.333334
3.972082 12.446177 0.438649 22.000000
5.012243 12.393278 0.448850 9.000000
5.109800 12.409596 0.450595 25.000000
6.869366 12.464394 0.477843 1.000000
3.190537 12.534975 0.434287 20.000000
4.078800 12.553193 0.443168 47.666668
1.943030 12.609303 0.428358 29.000000
2.121231 12.662302 0.431065 33.500000
3.089772 12.636408 0.436770 32.000000
3.214645 12.629972 0.437575 34.000000
3.330467 12.587520 0.437173 33.000000
1.824861 12.726587 0.431669 13.000000
2.158826 12.763290 0.434622 23.333334
2.274040 12.714970 0.433683 37.000000
2.358257 12.724015 0.434488 11.000000
3.078178 12.762642 0.440797 25.000000
1.711198 12.790771 0.433280 8.000000
2.931774 12.862679 0.442944 3.000000
3.179465 12.828416 0.443750 42.000000
1.603385 12.909479 0.436770 1.000000
1.807625 12.894579 0.437173 11.000000
2.067973 12.968758 0.440931 5.000000
2.267274 12.911051 0.440126 29.000000
6.579587 12.930023 0.487104 4.500000
4.471093 13.148791 0.466300 1.000000
6.595881 13.114450 0.492876 2.000000
6.733826 13.080138 0.493950 4.000000
2.881104 13.213936 0.454085 4.000000
5.584601 13.207706 0.481467 5.000000
3.580038 13.360885 0.464420 3.000000
4.173790 13.668915 0.479856 41.000000
1.885927 13.767600 0.466568 3.000000
2.506627 13.765759 0.469789 1.000000
4.385334 13.741068 0.484286 15.000000
2.744321 13.834486 0.473548 35.000000
4.267429 13.819985 0.485628 37.000000
2.573902 13.887533 0.474219 11.000000
2.630113 13.946162 0.476501 35.000000
2.709019 14.002296 0.478850 37.500000
4.242908 14.053190 0.492876 19.000000
5.075320 14.051058 0.501601 5.000000
3.941357 14.348125 0.499587 37.000000
2.548695 14.513611 0.494755 4.000000
1.255231 14.581827 0.491400 3.000000
1.348103 14.589521 0.491937 4.000000
1.403666 14.684681 0.495292 4.000000
2.341185 14.682134 0.499185 28.000000
1.507225 14.787008 0.499051 5.000000
-9.405435 -14.684269 0.585492 4.000000
-9.859303 -14.523777 0.589384 11.000000
-9.726056 -14.473900 0.585492 14.000000
-9.390821 -14.460597 0.578915 4.000000
-9.264214 -14.463660 0.576700 5.000000
-9.157127 -14.496344 0.575693 1.000000
-9.593984 -14.374703 0.580257 12.000000
-9.778384 -14.259602 0.580525 16.000000
-10.063593 -14.192300 0.584150 3.000000
-9.820417 -14.177198 0.579049 9.000000
-8.797172 -14.221617 0.561465 17.000000
-8.364260 -14.190663 0.553063 38.000000
-9.870558 -14.075658 0.577215 9.000000
-8.422584 -14.056512 0.550190 39.500000
-8.587152 -13.980073 0.550862 44.000000
-8.490042 -13.969111 0.548848 46.000000
-8.597806 -13.330958 0.532607 2.000000
10.914008 -11.720235 0.537708 13.000000
10.816829 -11.542951 0.531130 39.000000
11.459274 -11.483298 0.544687 11.000000
10.773499 -11.424565 0.527238 39.000000
10.672404 -11.175941 0.518849 47.000000
10.919789 -11.150924 0.524016 50.000000
12.009866 -11.160257 0.550459 16.000000
10.552404 -11.050182 0.513010 21.000000
10.663907 -10.992773 0.514218 28.000000
11.755751 -10.993139 0.540392 24.000000
10.679775 -10.837509 0.510862 36.000000
10.972780 -10.892609 0.519117 10.500000
10.682806 -10.772679 0.509386 30.000000
11.182777 -10.656662 0.518647 24.000000
10.821091 -10.608055 0.508782 33.500000
10.734822 -10.424585 0.502406 39.000000
11.483609 -10.145555 0.514486 21.000000
11.613402 -10.131018 0.517439 14.000000
11.155749 -10.044683 0.504017 1.000000
11.473364 -10.072505 0.512607 38.000000
11.642864 -10.060469 0.516634 19.500000
12.394776 -9.265733 0.519587 0.000000
13.686750 -9.011047 0.550190 5.000000
13.027161 -8.286438 0.518379 4.000000
12.761964 -7.949804 0.504822 39.000000
9.246626 -6.822301 0.585532 10.000000
9.309681 -6.712001 0.584819 4.000000
9.355845 -6.590016 0.583123 13.333333
9.418652 -6.502346 0.583191 2.000000
9.535764 -6.451344 0.586651 30.000000
9.625249 -6.497202 0.591740 27.333334
14.199457 -6.322007 0.521869 3.000000
9.449247 -6.221171 0.576474 11.000000
9.839955 -6.129599 0.590723 3.000000
9.927113 -6.140686 0.594794 11.000000
9.278168 -6.066839 0.564871 42.000000
9.644677 -6.050095 0.580138 91.000000
14.738476 -6.068743 0.535157 0.000000
15.670140 -6.052889 0.564016 1.000000
9.119091 -5.908449 0.553675 25.000000
9.317459 -5.906166 0.562123 43.500000
9.202337 -5.533748 0.547161 42.000000
10.100569 -5.525318 0.586651 24.000000
8.903593 -5.481688 0.532777 30.666666
8.969630 -5.470789 0.535355 46.000000
9.303472 -5.475742 0.550079 44.333332
10.285644 -5.459767 0.593369 29.000000
9.267443 -5.376471 0.545940 44.000000
10.260332 -5.405083 0.590926 39.000000
9.182360 -5.218340 0.538171 40.500000
9.339201 -5.185240 0.544312 51.000000
9.320374 -5.047849 0.540105 21.000000
9.454715 -5.056835 0.546347 39.000000
9.356805 -4.891619 0.538001 13.000000
9.479113 -4.898815 0.543701 64.500000
10.713705 -4.850937 0.599272 14.000000
9.436632 -4.753511 0.538408 33.000000
9.963811 -4.739694 0.562225 38.000000
10.270682 -4.767512 0.576982 3.000000
9.224616 -4.712352 0.527823 29.000000
9.566418 -4.698968 0.543090 66.000000
9.764988 -4.701663 0.552250 56.000000
10.011662 -4.647258 0.562428 42.000000
16.862324 -4.689017 0.587639 0.000000
9.351290 -4.593159 0.530877 13.000000
10.324286 -4.596669 0.575863 4.000000
10.214421 -4.509356 0.568942 33.000000
9.271490 -4.362823 0.522124 27.333334
10.110627 -4.387836 0.561614 9.000000
16.779177 -4.383160 0.582270 2.000000
10.069364 -4.276331 0.557441 7.500000
10.185679 -4.231549 0.562021 41.000000
9.164876 -4.184404 0.513371 10.000000
9.896013 -4.147711 0.546754 11.000000
10.058554 -4.141729 0.554286 4.000000
10.716102 -3.985283 0.582580 14.000000
9.387259 -3.830870 0.516628 42.000000
9.844522 -3.838219 0.538408 11.000000
10.928004 -3.869810 0.590723 10.000000
9.867710 -3.811590 0.539019 0.000000
10.899267 -3.782734 0.587873 5.000000
10.922433 -3.752368 0.588483 4.000000
10.585743 -3.711223 0.571588 44.000000
10.700786 -2.849252 0.564260 3.500000
8.275056 -2.786472 0.597099 41.000000
8.293749 -2.566172 0.593687 19.375000
7.899064 -2.233721 0.561349 23.333334
7.950976 -2.181063 0.563805 36.166668
8.455449 -2.097212 0.595734 15.000000
8.128633 -1.989064 0.572265 12.000000
7.803291 -1.878037 0.520783 38.799999
8.073202 -1.895039 0.567080 62.000000
8.349529 -1.890843 0.585432 39.750000
8.280247 -1.793246 0.579360 30.500000
8.366693 -1.770766 0.584818 13.000000
7.662758 -1.558938 0.534742 53.500000
7.642758 -1.492482 0.532513 32.333332
7.527821 -1.386366 0.523439 30.833334
7.420750 -1.270816 0.514847 25.000000
7.999764 -1.225565 0.553435 33.000000
11.390517 -1.305841 0.584209 1.000000
7.448246 -1.213024 0.516048 14.000000
8.000873 -1.191456 0.553162 38.333332
8.432800 -1.129670 0.581816 2.000000
8.356601 -1.066058 0.576086 2.000000
11.686329 -1.042978 0.597847 30.000000
11.746641 -1.085567 0.601104 18.000000
7.773324 -0.954441 0.535560 4.000000
9.961615 -0.952176 0.509910 2.000000
10.172492 -0.859556 0.520190 30.000000
10.126132 -0.770244 0.517476 48.000000
7.740735 -0.716723 0.531603 10.000000
7.849616 -0.693625 0.538881 26.500000
7.932117 -0.634023 0.544157 27.000000
7.483928 -0.527265 0.513046 16.000000
7.673845 -0.470181 0.525759 47.833332
7.820636 -0.452305 0.535697 28.000000
7.534340 -0.388372 0.515912 74.000000
9.898894 -0.290333 0.504618 1.000000
8.704818 0.345056 0.595734 21.000000
10.000297 0.366694 0.509910 5.000000
8.436769 0.573682 0.578269 16.000000
8.170338 0.607161 0.560257 6.000000
6.697477 1.073961 0.582466 39.000000
6.794000 1.023857 0.589994 40.000000
6.766255 1.085006 0.588454 36.500000
6.779871 1.284543 0.592561 38.000000
6.867208 1.368465 0.601288 88.000000
7.291960 1.548624 0.509772 0.000000
7.714099 1.765347 0.541155 1.000000
10.472161 1.681118 0.540444 18.000000
8.530273 1.797639 0.596143 39.000000
7.585532 2.065209 0.537607 0.000000
9.776095 2.174470 0.510318 4.000000
6.478779 2.346564 0.591706 2.000000
6.918557 2.530463 0.503768 28.000000
-6.398393 2.635880 0.594238 38.599998
-6.397539 2.706376 0.596497 12.000000
6.339893 2.769804 0.594101 31.500000
6.441391 2.766095 0.601972 41.500000
6.886191 2.716708 0.506224 11.000000
7.485543 2.711206 0.544429 3.000000
6.917243 2.988428 0.515284 27.000000
7.028852 2.979228 0.522052 12.000000
7.170625 3.012781 0.531876 6.000000
6.774287 3.087258 0.509089 14.500000
7.951602 3.137029 0.584545 0.000000
8.173475 3.077233 0.597235 8.500000
9.678481 3.099968 0.517849 20.000000
9.805516 3.174657 0.525177 0.000000
6.733813 3.262506 0.511682 38.000000
7.095066 3.348635 0.536515 35.250000
7.210815 3.327284 0.543065 16.000000
7.229673 3.446828 0.547704 45.000000
7.670915 3.394477 0.573629 2.000000
6.952421 3.513519 0.532695 27.666666
7.088846 3.517391 0.541155 14.000000
7.816647 3.547433 0.587001 0.000000
9.686392 3.613888 0.526806 15.000000
10.764043 3.635054 0.578916 1.000000
7.148219 3.845673 0.555072 8.500000
9.829766 3.826534 0.537492 5.500000
6.847497 3.894663 0.538699 14.000000
6.915599 3.962399 0.545043 18.000000
7.148411 3.903938 0.556983 18.000000
7.353527 4.061040 0.574448 109.000000
6.704758 4.097422 0.537334 33.000000
6.922989 4.109487 0.550557 30.181818
7.057649 4.192192 0.561349 79.000000
6.529901 4.314806 0.535219 20.000000
7.001126 4.308805 0.562168 24.000000
11.001266 4.302492 0.601918 4.000000
6.929814 4.406221 0.561576 16.500000
6.850338 4.580709 0.563532 51.000000
9.417835 4.675054 0.535762 4.000000
10.231336 4.762258 0.575049 1.000000
7.220396 4.795403 0.592732 33.000000
6.802079 4.929313 0.574448 17.000000
7.187151 4.944299 0.596553 35.400002
7.145952 4.975820 0.595461 0.000000
6.205828 5.088462 0.548796 10.000000
6.464685 5.133023 0.564487 30.250000
9.055223 5.152448 0.530877 23.000000
9.262131 5.212630 0.541564 8.000000
6.270211 5.295621 0.561247 29.500000
8.417215 5.459944 0.511234 15.000000
9.121409 5.459051 0.541665 9.000000
9.347875 5.396997 0.550011 3.000000
10.233473 5.404631 0.589705 8.000000
8.875854 5.658898 0.536373 3.000000
5.934509 5.765836 0.565825 29.799999
8.861393 5.688913 0.536576 3.000000
6.154210 5.874819 0.581816 33.666668
6.479890 5.817833 0.595516 23.966667
6.292600 5.931921 0.591368 17.000000
6.386929 5.983057 0.598463 40.000000
7.878764 6.098191 0.507671 42.000000
8.131830 6.112199 0.518358 28.000000
8.032056 6.297936 0.520088 8.000000
5.627122 6.489271 0.587365 33.000000
5.759622 6.485017 0.593126 29.666666
5.628233 6.594498 0.592869 30.500000
8.197057 7.120571 0.553268 20.000000
8.301037 7.165263 0.558764 23.000000
6.699529 7.347214 0.506654 67.000000
6.711773 7.314357 0.505839 92.000000
7.556643 7.376773 0.538103 13.000000
8.871881 7.561250 0.593979 11.000000
7.066486 8.008630 0.544230 30.600000
8.206926 8.345600 0.596422 48.000000
5.794951 8.450652 0.522124 0.000000
7.311046 8.380810 0.566703 0.000000
8.200212 8.391341 0.597847 37.000000
6.790050 8.539301 0.555914 2.500000
7.427026 8.958615 0.592962 6.000000
7.457264 9.052822 0.597644 14.000000
4.389327 9.171556 0.518104 25.750000
5.997104 9.108915 0.555711 23.000000
6.041760 9.155976 0.558968 25.666666
6.120670 9.139537 0.560494 14.000000
7.300400 9.092859 0.594183 20.000000
4.672511 9.217996 0.526602 1.000000
5.502742 9.216299 0.546958 3.000000
5.533727 9.202391 0.547161 18.000000
7.234151 9.186366 0.595811 18.000000
4.404931 9.335567 0.525991 17.000000
4.232740 9.506766 0.530266 23.250000
4.380027 9.540232 0.534914 29.666666
4.461941 9.533886 0.536373 26.000000
4.664914 9.497059 0.539155 17.333334
4.849947 9.643047 0.550011 16.000000
4.217666 9.718515 0.539833 1.000000
4.846385 9.711853 0.553065 9.000000
4.218172 9.947222 0.550554 29.000000
5.618467 9.971173 0.583191 43.000000
4.009594 10.004439 0.549197 8.000000
4.184445 10.027860 0.553675 27.500000
4.143260 10.107576 0.556627 59.500000
5.709112 10.156942 0.593708 21.000000
4.990346 10.406332 0.588076 1.000000
5.591044 10.375090 0.600544 40.250000
3.680568 10.604897 0.571995 32.000000
3.772043 10.651808 0.575795 38.333332
3.688768 10.737307 0.578509 41.000000
3.894200 10.728273 0.581563 15.500000
3.620221 10.870101 0.583802 39.333332
3.566720 10.938247 0.586244 42.000000
3.707747 10.903910 0.586855 32.000000
3.519329 11.027651 0.589840 40.333332
3.463798 11.155443 0.595201 38.500000
9.613014 12.527924 0.530191 1.000000
9.646319 12.653440 0.534218 14.000000
7.589154 13.081450 0.507775 1.000000
5.545157 13.962730 0.504420 9.000000
5.175207 14.469707 0.515963 6.000000
4.694828 14.552835 0.513413 5.000000
3.649607 14.627052 0.506164 2.500000
3.981054 14.672955 0.510460 30.000000
3.803347 14.748920 0.511399 6.000000
6.565911 14.747276 0.542003 2.000000
1.237825 14.928329 0.502943 2.000000
1.998102 14.934364 0.505896 5.500000
1.725704 15.052866 0.508715 14.000000
3.472033 15.015114 0.517439 4.000000
1.161407 15.163017 0.510594 0.000000
1.784212 15.142657 0.511936 12.000000
3.417050 15.212158 0.523480 0.000000
1.949581 15.303625 0.517976 17.000000
6.018014 15.293273 0.551801 30.000000
7.066676 15.349939 0.567371 13.000000
7.161288 15.301615 0.567237 3.000000
6.390976 15.660609 0.567908 10.000000
1.909580 15.779921 0.533681 6.000000
7.607692 15.864264 0.590727 12.000000
1.229853 16.055813 0.540660 0.000000
3.506209 16.080927 0.552607 6.000000
3.624399 16.134525 0.555224 12.000000
7.466652 16.085524 0.595424 4.000000
1.758479 16.239868 0.548446 6.000000
3.477495 16.193485 0.556096 10.000000
3.352810 16.362614 0.560794 3.000000
3.459688 16.360781 0.561465 1.000000
2.195719 16.412445 0.555962 0.000000
3.099088 16.432901 0.561465 7.000000
4.358137 16.471601 0.572069 7.000000
2.589411 16.573484 0.563210 1.000000
4.209607 16.539064 0.573009 2.000000
4.420209 16.496445 0.573411 34.000000
2.427002 17.312862 0.586968 2.000000
2.282362 17.477674 0.591800 3.000000
-9.842998 29.762466 0.508870 34.000000
-9.719304 29.859833 0.509746 38.500000
-9.992226 29.898300 0.511726 13.000000
-9.596222 29.960558 0.510687 36.000000
-9.515330 30.032499 0.511402 35.000000
-10.170568 30.116848 0.516011 14.000000
-9.430507 30.092775 0.511921 34.000000
-9.351305 30.171919 0.512765 34.000000
-9.268197 30.239384 0.513414 33.000000
-10.349078 30.330790 0.520231 15.000000
-9.143438 30.342051 0.514421 31.000000
-10.527727 30.540121 0.524386 14.000000
-8.978593 30.487144 0.515914 30.000000
-8.809536 30.621748 0.517245 29.500000
-10.703859 30.737288 0.528347 16.000000
-8.642916 30.768906 0.518803 29.500000
-10.891940 30.963840 0.532826 16.000000
-8.515945 30.874870 0.519907 30.000000
-8.389652 30.986042 0.521108 30.500000
-8.261559 31.092907 0.522244 10.000000
-11.078883 31.181965 0.537176 16.000000
-11.274043 31.418051 0.541851 16.000000
-11.472157 31.656971 0.546590 18.000000
-11.673274 31.898706 0.551394 18.000000
-11.878778 32.146996 0.556329 17.000000
-12.085970 32.394299 0.561263 17.000000
-12.306098 32.670567 0.566716 16.000000
-12.519547 32.923336 0.571780 13.000000
-11.442630 -15.924107 0.658376 2.000000
-10.806580 -15.653338 0.638645 12.000000
-10.557874 -15.448269 0.628243 11.000000
-9.513979 -15.272957 0.604149 2.000000
-14.306699 -15.203147 0.700926 41.000000
-14.260927 -15.059437 0.696362 3.000000
-14.344199 -14.957992 0.695825 4.000000
-10.996248 -14.904056 0.621867 44.000000
-10.796494 -14.827420 0.615827 35.000000
-10.761574 -14.877462 0.616498 4.000000
-14.478946 -14.816422 0.695557 5.000000
-11.365259 -14.811496 0.626833 0.000000
-11.153703 -14.726455 0.620256 43.000000
-10.919073 -14.799420 0.617505 40.000000
-14.560266 -14.652062 0.693543 21.000000
-14.407694 -14.651144 0.689919 7.000000
-14.188468 -14.702854 0.686027 4.000000
-11.516666 -14.719464 0.627504 5.000000
-11.390862 -14.700857 0.624417 30.500000
-11.214452 -14.710421 0.621062 0.000000
-11.023010 -14.697275 0.616833 41.500000
-14.698531 -14.575908 0.695020 2.000000
-14.564946 -14.534471 0.690859 23.000000
-2.373126 -12.475807 0.647108 14.500000
-1.249698 -12.260486 0.627974 8.000000
-1.203324 -12.184841 0.623902 8.000000
-1.133374 -12.057121 0.617083 14.500000
-1.074227 -12.036481 0.615760 14.000000
-1.009306 -11.943865 0.610773 10.000000
9.940509 -9.087071 0.686272 24.000000
10.040237 -9.040272 0.688430 4.000000
10.132121 -8.989399 0.690194 24.666666
10.265286 -8.954981 0.694130 41.000000
10.539472 -8.793629 0.699422 13.000000
10.079220 -8.654125 0.676929 34.000000
10.261354 -8.699147 0.685478 37.500000
9.940195 -8.616542 0.670313 24.000000
10.559260 -8.587399 0.693519 112.000000
10.344991 -8.225931 0.673469 45.000000
10.120109 -8.177569 0.662985 30.000000
10.014916 -8.040693 0.654436 34.000000
10.259892 -8.027447 0.663800 38.000000
10.316224 -8.123900 0.669092 39.000000
11.102725 -8.084382 0.699829 29.000000
10.271070 -7.907038 0.660492 34.500000
10.538560 -7.826626 0.668889 22.000000
10.633817 -7.845657 0.673367 5.000000
10.911204 -7.892593 0.686191 41.000000
11.102859 -7.899307 0.694333 11.500000
11.152225 -7.647528 0.689041 25.000000
10.119879 -7.614903 0.645344 37.000000
10.886538 -7.617175 0.677031 34.000000
10.921620 -7.573774 0.677234 29.333334
11.487856 -7.358094 0.695147 3.000000
10.929848 -7.146845 0.665428 6.000000
10.516960 -6.924129 0.641612 26.000000
10.102254 -6.696682 0.617592 56.000000
10.411395 -6.668610 0.630009 25.000000
9.924996 -6.624156 0.608025 36.000000
17.744009 -6.535557 0.634887 4.000000
10.091607 -6.508583 0.611893 18.000000
17.843323 -6.508550 0.637706 3.000000
18.136068 -6.486510 0.646699 9.000000
18.137514 -6.422831 0.646028 13.000000
11.728384 -6.190233 0.675759 9.500000
18.365402 -6.084509 0.649584 3.000000
10.367802 -5.971384 0.609653 9.000000
11.905146 -5.917559 0.677438 26.500000
18.203732 -5.746601 0.640927 8.000000
18.122477 -5.658405 0.637437 33.000000
11.369514 -5.540371 0.644462 20.000000
18.094326 -5.587290 0.635826 25.000000
11.300546 -5.462897 0.639576 4.000000
18.061905 -5.391352 0.632873 12.000000
11.488596 -5.289021 0.644462 24.000000
11.729032 -5.310655 0.656064 5.000000
11.065444 -5.052145 0.619831 21.000000
8.612423 -4.944377 0.679104 35.000000
8.716287 -4.931383 0.684835 37.000000
8.911801 -4.986762 0.698343 34.000000
11.521498 -5.000129 0.639983 10.000000
11.458933 -4.887642 0.634793 12.500000
11.520787 -4.828702 0.636523 13.000000
11.458428 -4.760301 0.632248 1.000000
11.632165 -4.789682 0.641001 17.000000
9.148703 -4.442402 0.695478 21.000000
10.973583 -4.458189 0.603547 0.000000
12.416621 -4.440904 0.671942 1.000000
11.291115 -4.392015 0.617338 20.000000
8.737859 -4.149961 0.661502 35.500000
8.892075 -4.197570 0.672418 25.000000
8.818876 -4.061824 0.663958 9.000000
8.737986 -3.892230 0.654134 1.000000
8.574948 -3.787367 0.641035 10.000000
8.446339 -3.683177 0.630119 17.000000
8.429327 -3.565662 0.625889 12.333333
8.545445 -3.583402 0.633667 41.000000
8.815457 -3.567046 0.650313 19.000000
8.989595 -3.604685 0.662321 4.000000
9.339417 -3.609400 0.684699 29.000000
11.714331 -3.617231 0.624717 17.000000
11.416162 -3.485915 0.608229 22.000000
11.316153 -3.416548 0.602325 26.000000
12.682205 -3.164393 0.666039 1.500000
8.292390 -3.026381 0.603648 23.000000
12.778485 -3.124512 0.670313 1.000000
8.316238 -2.975962 0.604012 41.333332
8.438131 -2.930267 0.610834 41.666668
12.552198 -3.006514 0.657693 12.000000
9.689411 -2.894063 0.691521 9.000000
9.859694 -2.852370 0.701891 7.750000
8.415555 -2.797014 0.606445 33.250000
8.544295 -2.738324 0.613563 38.333332
8.600092 -2.716550 0.616747 8.000000
9.942749 -2.432975 0.699981 12.000000
8.949809 -2.354650 0.632848 31.500000
8.750642 -2.248445 0.617839 48.333332
11.650222 -2.159240 0.603750 0.000000
13.168058 -1.888164 0.677845 2.000000
7.538716 -1.744672 0.664471 33.625000
7.542529 -1.662456 0.663230 12.666667
7.722258 -1.583748 0.676919 0.000000
