# This PCD file was generated using the MATLAB® pcwrite function
# from Computer Vision Toolbox®.
# .PCD v.7 - Point Cloud Data file format
VERSION .7
FIELDS x y z intensity
SIZE 4 4 4 4
TYPE F F F F
COUNT 1 1 1 1
WIDTH 1252
HEIGHT 1
VIEWPOINT 0 0 0 1 0 0 0
POINTS 1252
DATA ascii
-11.827941 -26.123014 -0.032031 36.000000
-11.732706 -26.130854 -0.031996 54.000000
-10.464914 -24.641893 -0.029905 9.000000
-9.973377 -24.006729 -0.029038 20.000000
-9.850983 -24.031239 -0.029011 31.000000
-8.653500 -22.402781 -0.026826 20.000000
-8.547337 -22.336458 -0.026714 4.000000
-8.501529 -21.805286 -0.026143 34.000000
-8.030956 -21.804008 -0.025955 21.000000
-7.951451 -21.799068 -0.025919 41.000000
-7.889721 -21.842751 -0.025941 33.000000
-8.527153 -21.603287 -0.025943 16.000000
-8.642670 -21.564543 -0.025950 1.000000
-3.820076 -17.389315 -0.019887 25.500000
-0.013639 -13.023986 -0.014548 31.000000
0.211344 -13.018261 -0.014543 18.000000
0.047526 -12.971889 -0.014490 41.500000
0.128950 -12.961334 -0.014479 48.000000
1.841804 -9.234106 -0.010518 0.000000
5.295634 -8.848360 -0.011519 0.000000
4.395412 -8.343712 -0.010534 17.666666
4.455364 -8.340584 -0.010562 5.000000
5.201989 -7.368827 -0.010075 9.000000
5.226828 -7.315832 -0.010043 10.000000
15.225854 -0.255135 -0.017010 0.000000
15.103584 -0.110716 -0.016871 35.000000
15.200869 -0.183142 -0.016981 24.000000
14.695984 -0.015389 -0.016416 21.000000
14.899860 -0.062413 -0.016643 38.000000
14.538797 0.064665 -0.016240 31.500000
-0.083800 0.203032 -0.011552 1.000000
14.392740 0.188377 -0.016078 39.000000
14.349718 0.255485 -0.016031 37.000000
14.452821 0.302744 -0.016148 39.000000
-0.169232 0.349384 -0.094533 2.000000
14.507783 0.349496 -0.016210 38.000000
14.722532 0.400951 -0.016451 39.000000
-0.066087 0.438835 -0.005538 75.576416
13.968104 0.468117 -0.015611 36.666668
-0.085219 0.598739 -0.016960 79.288002
13.709130 0.545822 -0.015325 38.000000
13.815248 0.593524 -0.015446 42.000000
-4.951244 0.629878 -0.092175 1.000000
-0.098730 0.687580 -0.042450 78.189186
0.071402 0.712459 -0.015588 41.514286
13.949172 0.643187 -0.015598 1.000000
14.772297 0.681141 -0.016518 22.000000
13.916892 0.729354 -0.015567 1.000000
14.962652 0.760609 -0.016735 37.000000
-0.098943 0.885444 -0.090272 95.396225
0.089496 0.831780 -0.026131 42.714287
0.107240 0.835718 -0.010656 2.000000
13.744626 0.882766 -0.015385 9.750000
13.920022 0.817250 -0.015576 7.000000
15.052776 0.836309 -0.016840 14.000000
-0.155140 0.947381 -0.001072 15.000000
0.046602 0.916699 -0.089169 84.166664
17.209450 0.956131 -0.019253 0.000000
13.539855 1.094148 -0.015173 20.000000
13.727251 1.022507 -0.015376 45.333332
15.496023 1.056413 -0.017349 22.000000
17.368431 1.047105 -0.019436 19.000000
13.344922 1.197949 -0.014966 42.333332
14.883474 1.202725 -0.016679 9.000000
17.722569 1.152279 -0.019838 3.000000
13.349796 1.290142 -0.014981 38.000000
14.756077 1.285799 -0.016545 0.000000
15.136777 1.510852 -0.016992 17.000000
17.988678 1.510552 -0.020164 1.000000
12.957256 1.602506 -0.014584 5.000000
14.277889 1.606569 -0.016049 15.000000
15.071298 1.600016 -0.016929 22.000000
15.342840 1.580115 -0.017229 34.000000
13.013064 1.671629 -0.014655 109.000000
14.143020 1.658870 -0.015906 54.000000
15.109937 1.652138 -0.016979 33.000000
12.904747 1.802164 -0.014555 58.000000
13.285353 1.749051 -0.014968 68.000000
13.962870 1.749067 -0.015719 61.000000
14.131085 1.725066 -0.015902 33.000000
15.549861 1.749693 -0.017479 23.000000
17.783623 1.775042 -0.019963 2.000000
12.140699 1.870802 -0.013721 7.000000
12.551358 1.863554 -0.014174 69.500000
13.525569 1.823921 -0.015245 73.000000
12.054130 1.946100 -0.013639 37.857143
-7.148448 2.156205 -0.008340 23.625000
11.957052 2.190216 -0.013578 18.000000
12.021470 2.116194 -0.013635 33.200001
13.812961 2.128486 -0.015611 49.000000
12.178851 2.310024 -0.013846 60.000000
11.752811 2.374900 -0.013393 37.000000
12.003164 2.354927 -0.013663 37.000000
12.191172 2.352064 -0.013869 54.000000
12.425916 2.316470 -0.014119 40.000000
13.608802 2.360433 -0.015428 5.000000
11.823849 2.474439 -0.013493 10.000000
13.947949 2.464421 -0.015821 3.000000
14.310166 2.435801 -0.016215 1.000000
14.546580 2.429043 -0.016474 5.000000
11.221107 2.607105 -0.012868 1.000000
12.136848 2.579766 -0.013860 4.000000
13.943994 2.554171 -0.015835 6.000000
11.177272 2.671049 -0.012837 3.000000
12.323346 2.710682 -0.014094 21.250000
11.374863 2.756073 -0.013073 74.000000
12.368797 2.791966 -0.014164 32.000000
11.724808 2.899383 -0.013491 49.500000
12.465239 2.854920 -0.014284 62.000000
13.482779 2.865853 -0.015397 22.000000
11.605191 2.986043 -0.013386 27.500000
12.825262 3.008118 -0.014715 18.333334
10.879877 3.037716 -0.012618 43.000000
10.945343 3.055904 -0.012694 41.500000
11.192059 3.049207 -0.012957 19.000000
11.663182 3.020649 -0.013458 12.000000
14.317284 3.113795 -0.016366 24.000000
14.419613 3.017668 -0.016456 51.000000
11.107456 3.195508 -0.012910 44.500000
11.054422 3.312280 -0.012890 10.000000
11.163697 3.281447 -0.012998 28.333334
12.757340 3.389698 -0.014745 18.000000
10.879202 3.416878 -0.012737 31.799999
13.235698 3.450118 -0.015278 22.000000
16.889360 3.479177 -0.019262 0.000000
10.989184 3.583315 -0.012911 33.666668
11.096689 3.554213 -0.013015 45.000000
10.180391 3.653129 -0.012082 30.000000
10.331277 3.670677 -0.012247 85.000000
13.569366 3.651134 -0.015696 58.000000
10.100723 3.777450 -0.012046 24.750000
10.868130 3.765535 -0.012848 39.000000
11.089622 3.721755 -0.013066 44.000000
12.203310 3.782223 -0.014271 10.000000
12.379779 3.773039 -0.014456 34.000000
14.001651 3.814663 -0.016210 6.000000
9.931487 3.884111 -0.011912 40.000000
10.044517 3.882834 -0.012029 38.750000
10.916307 3.839955 -0.012926 44.000000
10.019489 4.009572 -0.012055 41.500000
11.142879 4.038065 -0.013239 15.000000
11.998959 4.031053 -0.014139 22.500000
12.493509 4.044929 -0.014669 3.000000
13.841514 4.100043 -0.016125 3.000000
10.181483 4.142590 -0.012278 32.000000
11.351765 4.154156 -0.013502 33.000000
10.339581 4.308168 -0.012512 44.333332
14.384160 4.309983 -0.016773 19.000000
15.925561 4.285120 -0.018422 5.000000
10.282883 4.341617 -0.012468 35.500000
9.376050 4.472147 -0.011604 25.000000
10.367248 4.512194 -0.012630 43.333332
13.097319 4.423008 -0.015442 7.000000
9.661061 4.533799 -0.011921 38.000000
10.096055 4.584023 -0.012385 13.000000
9.671906 4.632030 -0.011979 11.500000
10.205188 4.633657 -0.012519 21.333334
10.419237 4.625912 -0.012734 39.000000
12.793817 4.636348 -0.015200 5.000000
12.858070 4.705386 -0.015294 21.000000
12.816987 4.758964 -0.015272 6.500000
10.039679 4.827455 -0.012443 49.000000
10.521673 4.817199 -0.012926 4.000000
10.028383 4.978132 -0.012506 55.000000
11.810904 4.964848 -0.014311 13.000000
8.359013 5.092297 -0.010933 33.500000
8.673290 5.190848 -0.011291 22.333334
8.763817 5.151960 -0.011356 2.000000
9.186029 5.160314 -0.011769 19.250000
8.405733 5.236224 -0.011062 28.500000
9.062520 5.251191 -0.011700 14.500000
9.612295 5.232092 -0.012225 30.000000
9.762416 5.274116 -0.012394 16.000000
10.306816 5.278805 -0.012935 23.000000
10.459849 5.233336 -0.013065 92.000000
10.755611 5.276049 -0.013382 43.000000
11.468886 5.294512 -0.014110 31.000000
8.266941 5.393036 -0.011026 12.333333
8.442154 5.344996 -0.011161 34.500000
9.283228 5.320859 -0.011952 50.000000
11.502967 5.354148 -0.014173 27.000000
12.784390 5.374063 -0.015491 5.000000
10.754086 5.422860 -0.013453 45.000000
11.331061 5.492296 -0.014065 17.000000
8.078637 5.561629 -0.010956 25.250000
10.206070 5.596924 -0.013002 10.000000
10.688745 5.580821 -0.013469 15.500000
10.786300 5.538771 -0.013544 47.666668
12.161934 5.568169 -0.014941 21.000000
7.655730 5.705567 -0.010665 34.799999
10.660574 5.630198 -0.013467 7.000000
7.670014 5.821874 -0.010756 16.666666
8.151027 5.855597 -0.011211 28.125000
8.254654 5.840336 -0.011295 33.666668
8.379463 5.836902 -0.011407 44.000000
10.584069 5.847542 -0.013507 54.000000
8.226911 6.043267 -0.011402 44.000000
10.890691 6.061680 -0.013922 27.000000
7.858028 6.181507 -0.011168 4.500000
10.867393 6.138588 -0.013942 19.000000
6.753348 6.268958 -0.010293 33.000000
7.096702 6.283127 -0.010588 31.666666
7.159833 6.219561 -0.010594 40.000000
10.910830 6.253750 -0.014048 9.000000
6.642090 6.362824 -0.010274 31.000000
6.734372 6.390680 -0.010370 32.000000
6.997646 6.353986 -0.010558 23.000000
7.342848 6.338176 -0.010835 19.000000
7.657917 6.362242 -0.011121 51.000000
9.621820 6.414530 -0.012917 17.000000
14.116995 6.409696 -0.017318 3.000000
-9.231735 6.502628 -0.012613 3.000000
6.588500 6.451961 -0.010301 34.000000
7.349474 6.506840 -0.010965 14.000000
7.604763 6.481321 -0.011161 22.000000
7.838272 6.470569 -0.011353 36.000000
8.080995 6.418707 -0.011528 21.000000
8.777163 6.490018 -0.012193 8.000000
14.441882 6.448071 -0.017667 4.000000
-9.201138 6.538928 -0.012609 18.333334
6.378260 6.581858 -0.010238 43.666668
6.487439 6.555506 -0.010302 40.500000
7.348587 6.568003 -0.011009 34.500000
7.979177 6.544847 -0.011528 46.000000
8.126477 6.566527 -0.011671 16.000000
8.488232 6.612668 -0.012019 11.000000
8.527944 6.600659 -0.012046 15.000000
6.572516 6.641706 -0.010437 25.000000
7.714920 6.617159 -0.011353 13.000000
7.868759 6.621417 -0.011487 41.000000
9.290443 6.668527 -0.012774 2.500000
8.008349 6.724662 -0.011681 26.333334
8.889268 6.747322 -0.012466 1.000000
11.305856 6.766415 -0.014718 7.000000
8.900603 6.844493 -0.012542 21.000000
5.834414 6.970467 -0.010154 18.500000
10.773068 6.964077 -0.014329 14.000000
5.782421 7.019681 -0.010159 17.000000
6.690761 7.021192 -0.010834 36.666668
6.699045 7.163766 -0.010956 40.000000
6.734400 7.201831 -0.011014 34.000000
10.706247 7.210585 -0.014418 7.000000
10.979100 7.146268 -0.014633 0.000000
11.382332 7.206738 -0.015048 5.000000
9.699265 7.314231 -0.013569 0.000000
5.612593 7.410419 -0.010384 9.000000
5.897674 7.322207 -0.010502 32.500000
5.257730 7.482975 -0.010216 34.375000
5.860099 7.441515 -0.010580 38.400002
6.870084 7.463397 -0.011331 68.500000
8.454591 7.485252 -0.012613 10.000000
10.446671 7.424063 -0.014316 14.000000
5.188169 7.515067 -0.010201 38.000000
5.676090 7.592911 -0.010589 39.000000
6.913047 7.581375 -0.011461 19.000000
12.624026 7.609291 -0.016465 3.000000
5.183895 7.636686 -0.010310 40.750000
5.941355 7.692763 -0.010857 35.000000
6.605062 7.619716 -0.011264 82.000000
5.141087 7.814591 -0.010449 33.666668
5.741845 7.748396 -0.010772 27.000000
5.810547 7.722067 -0.010795 68.000000
12.582406 7.746805 -0.016505 1.000000
5.030592 7.881327 -0.010444 29.500000
5.121783 7.886853 -0.010504 27.000000
6.068130 7.908141 -0.011134 11.000000
6.640464 7.857929 -0.011492 81.000000
6.802234 7.922411 -0.011664 39.000000
6.954407 7.931751 -0.011783 45.200001
4.659667 8.061083 -0.010400 40.000000
5.044782 8.051342 -0.010613 20.833332
9.374621 8.091956 -0.013833 7.000000
4.642172 8.178347 -0.010504 32.000000
4.795000 8.117563 -0.010531 43.500000
7.341076 8.127390 -0.012233 35.000000
10.654089 8.192910 -0.015013 10.000000
5.197075 8.284847 -0.010924 12.000000
6.803322 8.232666 -0.011930 11.500000
7.022734 8.257523 -0.012108 31.000000
9.726668 8.289760 -0.014275 5.000000
4.687146 8.318345 -0.010665 47.000000
6.858244 8.379136 -0.012095 7.000000
7.462969 8.367352 -0.012524 21.000000
9.825924 8.321203 -0.014383 16.000000
10.872832 8.361107 -0.015321 14.000000
6.436116 8.442495 -0.011858 17.000000
7.135334 8.497534 -0.012394 17.000000
8.152336 8.447890 -0.013114 5.000000
10.644602 8.455012 -0.015185 17.500000
5.146253 8.557755 -0.011154 47.500000
6.503749 8.587030 -0.012032 17.000000
6.925267 8.515463 -0.012260 14.000000
16.011513 8.585297 -0.020294 32.000000
4.225883 8.706621 -0.010810 38.500000
5.263222 8.690394 -0.011349 60.500000
6.213767 8.666580 -0.011912 78.333336
16.005577 8.646964 -0.020321 15.000000
4.425381 8.730454 -0.010933 48.000000
4.536913 8.784534 -0.011044 38.416668
4.908978 8.776386 -0.011233 18.000000
5.369989 8.742464 -0.011461 32.000000
6.408645 8.772419 -0.012135 51.000000
12.708018 8.733979 -0.017224 3.000000
4.226924 8.885865 -0.010991 42.000000
4.396777 8.880455 -0.011069 50.000000
6.253952 8.819711 -0.012077 24.000000
7.372549 8.836256 -0.012855 1.000000
4.282650 9.003262 -0.011137 44.500000
4.523741 8.994458 -0.011246 69.000000
6.475114 8.951596 -0.012341 87.000000
3.684812 9.111072 -0.010978 0.000000
3.901601 9.029068 -0.010987 19.500000
3.851096 9.187862 -0.011128 63.000000
4.269350 9.122375 -0.011251 38.000000
5.789588 9.133610 -0.012079 11.500000
7.003187 9.126731 -0.012850 28.000000
3.824227 9.287470 -0.011219 73.000000
4.319825 9.306266 -0.011461 33.000000
5.044520 9.290849 -0.011809 0.000000
5.129194 9.283985 -0.011848 70.333336
7.127181 9.228149 -0.013024 1.000000
6.943909 9.411610 -0.013065 6.000000
7.248512 9.508145 -0.013355 4.000000
7.742973 9.520934 -0.013708 5.000000
4.274501 9.682436 -0.011822 37.000000
4.362265 9.634432 -0.011814 90.000000
4.495981 9.806460 -0.012050 41.000000
6.108955 9.738508 -0.012841 6.000000
3.382940 9.847098 -0.011630 28.000000
3.910960 9.847816 -0.011836 35.000000
3.332964 10.007436 -0.011782 35.000000
3.923944 9.971720 -0.011970 39.000000
4.044187 9.984680 -0.012033 35.500000
4.260779 9.989256 -0.012131 8.000000
3.085086 10.103475 -0.011800 12.000000
3.577072 10.101340 -0.011970 20.000000
4.412477 10.080571 -0.012292 36.000000
4.512749 10.093056 -0.012350 13.000000
3.054122 10.173436 -0.011865 47.000000
3.180294 10.184958 -0.011919 46.500000
3.380987 10.151788 -0.011952 59.000000
3.522714 10.150068 -0.012001 63.000000
3.925535 10.162825 -0.012169 38.000000
3.206923 10.270984 -0.012019 62.000000
3.323230 10.301212 -0.012091 43.000000
3.693466 10.225387 -0.012144 15.000000
3.889154 10.292364 -0.012290 27.333334
3.832296 10.404668 -0.012385 5.000000
5.611248 10.386497 -0.013187 43.000000
5.778245 10.368620 -0.013259 22.500000
2.883636 10.461203 -0.012121 39.285713
5.599160 10.468698 -0.013261 7.000000
2.792128 10.552864 -0.012193 54.000000
3.934679 10.580032 -0.012609 81.000000
2.772802 10.659926 -0.012303 40.000000
2.867713 10.702452 -0.012376 17.000000
3.040840 10.632356 -0.012353 37.666668
3.397871 10.646937 -0.012484 32.000000
5.592930 10.616919 -0.013404 27.000000
3.775587 10.769333 -0.012747 8.000000
9.645278 10.882904 -0.016244 3.000000
9.713829 10.856698 -0.016273 8.000000
1.752940 10.993111 -0.012435 42.000000
3.206378 10.929354 -0.012723 29.500000
1.851317 11.050926 -0.012516 40.750000
1.944076 11.070592 -0.012555 28.000000
2.817851 11.071013 -0.012761 14.000000
3.945555 11.031640 -0.013087 15.000000
4.715889 11.056248 -0.013426 15.000000
5.892566 11.100995 -0.014039 23.000000
2.256223 11.137704 -0.012694 35.857143
2.366789 11.192486 -0.012779 1.000000
6.918809 11.185034 -0.014691 5.000000
1.698753 11.220053 -0.012676 42.500000
2.028899 11.242369 -0.012761 36.500000
2.122259 11.253542 -0.012792 21.750000
2.828856 11.262147 -0.012971 8.000000
1.528081 11.354592 -0.012798 20.750000
1.627743 11.351886 -0.012810 30.000000
2.174248 11.333318 -0.012890 11.000000
2.814631 11.356394 -0.013069 38.000000
1.454289 11.415732 -0.012855 13.000000
2.793191 11.423463 -0.013136 12.000000
1.415067 11.541553 -0.012989 6.500000
2.646202 11.526117 -0.013210 21.000000
1.639273 11.693651 -0.013190 48.000000
2.736555 11.667362 -0.013386 5.000000
1.414974 12.008919 -0.013507 0.000000
1.385896 12.088811 -0.013592 0.000000
5.450268 12.241502 -0.014968 22.000000
4.541141 12.449632 -0.014803 25.000000
-19.068592 12.597307 -0.025528 17.500000
2.681085 12.581481 -0.014369 29.500000
4.443143 12.610104 -0.014934 22.000000
2.635703 12.660549 -0.014445 1.000000
4.590334 12.708373 -0.015093 11.000000
4.714086 12.675794 -0.015106 5.000000
3.046257 12.806678 -0.014704 63.000000
4.784818 12.743306 -0.015205 3.000000
3.055958 12.892653 -0.014800 53.250000
3.215995 12.888808 -0.014838 16.500000
2.908757 12.949321 -0.014825 30.000000
3.173217 12.977676 -0.014923 45.000000
1.412828 13.047723 -0.014660 0.000000
2.981426 13.080517 -0.014986 16.000000
3.316105 13.028598 -0.015017 7.000000
1.381447 13.143594 -0.014762 0.000000
2.640321 13.532827 -0.015401 6.000000
-18.170507 13.672587 -0.025401 26.000000
-2.193673 13.665034 -0.015459 0.000000
4.187820 13.714865 -0.016018 9.000000
-2.273442 13.883078 -0.015714 0.000000
2.617509 13.879330 -0.015777 6.000000
4.950466 13.841338 -0.016420 8.000000
-2.510353 13.951949 -0.015835 0.000000
-2.324949 13.923212 -0.015768 0.000000
-18.237209 14.268985 -0.025865 2.000000
-2.659544 14.266210 -0.016210 0.000000
6.419320 14.296979 -0.017506 10.000000
-18.201721 14.333629 -0.025879 9.000000
-2.724473 14.363893 -0.016331 0.000000
-3.129305 14.498117 -0.016568 4.000000
4.108209 14.422211 -0.016751 2.500000
3.195180 14.654320 -0.016754 15.666667
-3.847311 14.855155 -0.017141 28.666666
-5.962014 14.966828 -0.017996 15.000000
-3.969027 14.937687 -0.017265 24.000000
-3.721273 14.947692 -0.017206 24.666666
3.865417 14.989619 -0.017291 3.000000
-6.549754 15.179177 -0.018466 22.000000
-4.067905 15.118273 -0.017488 14.000000
-3.681039 15.192402 -0.017461 18.000000
-3.556602 15.199401 -0.017437 14.500000
-3.640734 15.235015 -0.017497 16.000000
-3.052198 15.302568 -0.017430 3.000000
-4.417057 15.444785 -0.017944 20.000000
-4.373949 15.477833 -0.017966 18.000000
-3.436461 15.450384 -0.017680 7.000000
-6.772996 15.561973 -0.018958 14.000000
-5.487167 15.599037 -0.018471 17.000000
-4.563462 15.585637 -0.018140 17.000000
-4.492240 15.523049 -0.018051 21.000000
-3.309122 15.568188 -0.017778 12.000000
-6.626030 15.625113 -0.018958 16.000000
-6.423105 15.692332 -0.018940 19.000000
-5.621549 15.665905 -0.018592 18.000000
-4.643082 15.674775 -0.018261 14.000000
-4.381241 15.691834 -0.018198 12.000000
-3.279037 15.668556 -0.017881 3.000000
-6.574277 15.743387 -0.019057 22.000000
-5.943064 15.777808 -0.018833 13.000000
-5.774856 15.780529 -0.018770 19.000000
-5.279508 15.797113 -0.018605 3.000000
-4.724446 15.767399 -0.018386 13.000000
-6.105155 15.904466 -0.019029 14.000000
-6.025299 15.845055 -0.018936 25.000000
-5.753866 15.877569 -0.018864 21.000000
-5.629893 15.845562 -0.018784 23.000000
-4.386159 15.902180 -0.018426 7.000000
-3.056769 15.843811 -0.018024 1.000000
3.468133 15.906294 -0.018185 2.000000
-7.148251 15.942778 -0.019516 38.000000
-6.482029 15.979315 -0.019262 8.000000
-5.967575 15.995026 -0.019070 3.000000
-5.568368 15.990170 -0.018913 23.000000
-5.016707 16.008326 -0.018739 18.000000
-4.828488 15.932396 -0.018596 4.000000
3.077108 16.039494 -0.018243 5.000000
-7.751359 16.185616 -0.020046 1.000000
-7.629687 16.126162 -0.019927 1.000000
-5.969976 16.156275 -0.019239 18.000000
-5.131002 16.194586 -0.018976 22.000000
-4.952361 16.158087 -0.018877 47.000000
-5.049278 16.291458 -0.019052 7.000000
-3.759531 16.414968 -0.018810 4.000000
-7.476322 16.466187 -0.020200 22.000000
-3.456017 16.514236 -0.018846 4.000000
-5.725373 16.608864 -0.019624 9.000000
-5.476027 16.557970 -0.019481 0.000000
-5.370649 16.588245 -0.019476 15.000000
-3.585029 16.609493 -0.018980 1.000000
-5.467518 16.708151 -0.019637 2.000000
-7.164347 16.747967 -0.020347 4.000000
-5.709337 16.732767 -0.019749 7.000000
-5.359996 16.734552 -0.019628 12.000000
-3.349516 16.793205 -0.019128 0.000000
-3.286734 16.752617 -0.019070 0.000000
-7.452110 16.976374 -0.020709 4.000000
-5.098359 16.918467 -0.019738 6.500000
-8.264699 17.096441 -0.021211 29.000000
-7.409910 17.025377 -0.020741 5.000000
-7.348465 17.030207 -0.020718 2.000000
-8.391891 17.175480 -0.021353 24.000000
-8.173333 17.205278 -0.021277 28.000000
-6.721732 17.186926 -0.020614 14.000000
-3.541319 17.191025 -0.019606 8.000000
-8.541851 17.275574 -0.021527 8.000000
-8.110881 17.283451 -0.021326 26.000000
-5.361897 17.300123 -0.020231 8.000000
-4.777425 17.215372 -0.019957 4.500000
-8.703732 17.396116 -0.021728 21.000000
-8.083545 17.366871 -0.021397 10.000000
-7.997584 17.468231 -0.021460 22.000000
-7.817925 17.658792 -0.021572 1.000000
-5.656486 17.660229 -0.020714 1.000000
-4.828261 17.722046 -0.020517 2.000000
-7.871743 17.932323 -0.021876 6.000000
-6.632690 17.949747 -0.021375 9.000000
-4.327787 18.110060 -0.020799 4.000000
-5.981270 18.181383 -0.021380 17.500000
-4.109559 18.205933 -0.020848 2.000000
-4.172990 18.220224 -0.020879 1.000000
-7.911616 18.494844 -0.022470 2.000000
-7.831614 18.468052 -0.022407 1.000000
-7.444613 18.435570 -0.022208 2.500000
-6.187320 18.513428 -0.021804 13.000000
-6.280011 18.596220 -0.021925 4.000000
-8.665884 18.617981 -0.022939 10.000000
-7.212970 18.615419 -0.022300 6.000000
-7.003652 18.772045 -0.022380 14.000000
-4.235596 19.042618 -0.021791 1.000000
-4.209147 19.208214 -0.021965 7.000000
-7.445451 19.396055 -0.023207 2.000000
-8.296969 20.090132 -0.024279 3.000000
-9.988636 20.281721 -0.025253 4.000000
-10.649729 20.397095 -0.025702 5.000000
-10.536096 20.413301 -0.025660 5.000000
-8.700041 20.879969 -0.025267 1.000000
-11.358228 21.182995 -0.026848 9.000000
-10.737451 21.128096 -0.026473 7.000000
-10.692628 21.204588 -0.026527 7.000000
-11.226773 21.257481 -0.026853 13.000000
-11.349870 21.328043 -0.026987 14.000000
-12.311065 21.956015 -0.028117 37.000000
-12.486209 22.105303 -0.028359 35.000000
-12.300391 22.099432 -0.028251 21.000000
-11.478749 22.069279 -0.027787 33.000000
-12.597141 22.138971 -0.028452 37.000000
-11.363559 22.187248 -0.027845 25.000000
-11.198713 22.208206 -0.027782 13.000000
-12.285058 22.236000 -0.028377 10.000000
-11.670574 22.266937 -0.028082 13.000000
-11.491920 22.265179 -0.027988 14.000000
-11.315551 22.265625 -0.027898 6.000000
-11.787177 22.318584 -0.028193 12.000000
-12.120580 22.435259 -0.028484 40.000000
-12.044372 22.462648 -0.028470 21.000000
-12.018835 22.585125 -0.028578 14.000000
-13.002785 22.685781 -0.029208 36.000000
-12.359990 22.651155 -0.028823 14.000000
-14.134665 22.957613 -0.030115 1.000000
-13.327997 23.084759 -0.029775 29.000000
-12.724832 23.203903 -0.029561 7.000000
-13.770581 23.340525 -0.030271 23.000000
-13.589471 23.367807 -0.030195 41.000000
-13.745703 23.466513 -0.030378 18.000000
-18.349543 27.061438 -0.036522 5.000000
-18.266663 27.122274 -0.036526 3.000000
-0.044891 0.272752 0.043741 8.183199
-0.005071 0.436030 0.004545 115.270325
0.036852 0.583396 0.004089 91.258278
0.106343 0.782656 0.001907 1.250000
4.412050 -8.341352 0.153180 13.600000
5.200130 -7.341738 0.146045 10.500000
5.245868 -7.316512 0.146143 6.666667
12.003501 1.811153 0.197059 28.750000
12.174432 1.954450 0.200159 8.000000
-7.149773 2.155133 0.121221 26.000000
11.649728 2.591216 0.193731 40.000000
11.802361 2.586280 0.196134 31.000000
11.419266 2.709802 0.190518 45.500000
11.705629 2.661567 0.194868 38.500000
11.368543 2.792382 0.190031 42.000000
11.330033 2.839572 0.189609 34.000000
11.108616 2.996448 0.186772 25.400000
11.551902 2.991884 0.193710 42.333332
10.841914 3.063866 0.182889 68.000000
10.909142 3.119905 0.184188 83.000000
11.428490 3.171631 0.192530 27.500000
11.201374 3.317998 0.189641 47.000000
11.252194 3.371540 0.190680 12.000000
11.418492 3.323801 0.193050 44.500000
10.845212 3.425390 0.184624 40.714287
11.391392 3.491396 0.193407 10.000000
10.873208 3.577038 0.185811 45.000000
10.916594 3.534382 0.186265 23.000000
10.030601 3.778250 0.173995 9.000000
11.006437 3.745865 0.188732 23.750000
11.128987 3.758296 0.190680 58.000000
11.011424 3.873393 0.189485 29.200001
9.823927 4.093330 0.172761 14.000000
11.087226 4.017903 0.191433 35.799999
9.961954 4.212253 0.175575 22.666666
11.257463 4.179867 0.194933 45.500000
9.575530 4.275322 0.170229 4.000000
10.758690 4.246640 0.187758 59.000000
11.081196 4.233693 0.192563 17.000000
9.517046 4.375299 0.170034 12.000000
10.950737 4.402168 0.191589 65.000000
11.112144 4.325726 0.193569 29.000000
10.443123 4.467301 0.184382 44.000000
11.269185 4.489110 0.196913 52.000000
10.693436 4.614173 0.189057 33.000000
11.114101 4.610359 0.195322 7.500000
11.279875 4.596313 0.197724 52.500000
9.626128 4.653459 0.173562 12.000000
10.513380 4.646645 0.186590 38.599998
9.963721 4.907080 0.180292 38.000000
10.289021 4.867993 0.184772 18.000000
10.318747 4.842441 0.185032 14.000000
10.436122 4.977775 0.187694 32.000000
10.826708 4.915770 0.193017 7.000000
10.929623 4.921141 0.194575 24.000000
9.841028 5.079333 0.179773 2.000000
10.116628 5.021936 0.183344 47.000000
10.208104 5.107381 0.185291 24.000000
9.550009 5.159363 0.176202 34.000000
8.633326 5.296725 0.164419 2.500000
9.120478 5.303984 0.171268 6.000000
8.596985 5.394688 0.164757 18.142857
9.121225 5.362107 0.171755 15.500000
10.577690 5.333910 0.192303 51.000000
10.632190 5.403354 0.193602 19.000000
8.534950 5.498265 0.164808 22.500000
9.208738 5.485164 0.173995 22.333334
9.746519 5.424842 0.181071 2.000000
10.078238 5.485710 0.186265 15.000000
8.418029 5.524642 0.163451 21.600000
9.653179 5.573265 0.180942 0.000000
9.767930 5.537547 0.182272 107.000000
8.076006 5.682216 0.160296 25.000000
8.392869 5.671738 0.164435 34.250000
8.006911 5.796894 0.160465 31.000000
8.129723 5.796661 0.162081 32.000000
8.327969 5.752599 0.164305 35.750000
7.414574 5.985053 0.154680 28.500000
7.519384 5.991805 0.156076 19.000000
7.629037 5.962610 0.157180 13.000000
7.284681 6.052155 0.153739 29.000000
7.245512 6.136008 0.154128 36.000000
7.798660 6.154592 0.161270 35.000000
8.145763 6.196321 0.166139 31.666666
8.293550 6.161301 0.167716 30.571428
7.215284 6.267624 0.155145 11.000000
7.370765 6.242023 0.156790 38.000000
7.695806 6.292190 0.161367 36.000000
6.580875 6.343975 0.148382 1.500000
7.220178 6.412581 0.156758 30.000000
7.766305 6.411159 0.163477 34.000000
8.474967 6.390985 0.172307 51.000000
10.469753 6.370720 0.198947 5.500000
-9.233794 6.504079 0.183344 7.000000
7.332879 6.451168 0.158543 82.000000
10.428451 6.465929 0.199185 4.500000
-9.201015 6.538845 0.183235 17.333334
10.150649 6.516601 0.195809 1.000000
10.268307 6.592329 0.198081 13.500000
10.319799 6.533995 0.198276 2.000000
6.225714 6.749143 0.149053 34.333332
6.337306 6.755548 0.150363 28.500000
6.688168 6.801178 0.154842 9.000000
8.752522 6.730595 0.179232 17.666666
6.030201 6.890455 0.148642 35.000000
6.135856 6.857870 0.149379 29.142857
6.520288 6.885376 0.153933 38.000000
6.627625 6.851733 0.154745 35.125000
5.863062 6.915956 0.147181 40.500000
8.697014 6.952682 0.180747 2.000000
5.854733 7.017101 0.148350 20.000000
5.902923 7.165866 0.150709 8.000000
6.252130 7.166951 0.154388 65.000000
5.619848 7.300173 0.149551 42.000000
5.740152 7.289021 0.150609 36.599998
5.889644 7.288517 0.152116 5.000000
6.364327 7.249464 0.156595 156.000000
8.108512 7.270244 0.176786 11.000000
7.499830 7.375199 0.170749 26.666666
7.701062 7.331134 0.172599 11.000000
5.304561 7.480869 0.148869 40.799999
5.457052 7.469705 0.150168 31.000000
5.601569 7.460453 0.151445 34.000000
5.997674 7.422389 0.154907 0.000000
7.480233 7.417827 0.171008 10.000000
7.661828 7.432568 0.173281 19.000000
7.763082 7.460150 0.174774 74.000000
9.552133 7.489830 0.197043 5.000000
9.626097 7.499110 0.198081 9.000000
5.150093 7.612266 0.149194 44.000000
5.240880 7.601604 0.149882 34.400002
5.678513 7.521991 0.152992 43.000000
7.598443 7.582545 0.174254 59.000000
6.619915 7.636850 0.164061 33.000000
8.955586 7.730255 0.192043 5.000000
5.250883 7.867417 0.153544 81.000000
7.771455 7.820458 0.178972 15.333333
4.749133 7.996847 0.150979 21.750000
8.642771 7.922438 0.190323 15.000000
4.583397 8.104490 0.151142 33.500000
4.673179 8.080067 0.151522 31.142857
4.875795 8.079529 0.153187 5.000000
4.958294 8.072199 0.153782 34.000000
8.637079 8.147710 0.192747 54.944443
4.555784 8.215405 0.152494 38.166668
6.621958 8.221398 0.171365 36.500000
6.895004 8.263903 0.174709 9.000000
8.363435 8.293660 0.191199 1.000000
8.982574 8.312132 0.198666 32.000000
5.425072 8.411598 0.162482 37.666668
4.544473 8.420237 0.155323 64.400002
5.548598 8.485609 0.164581 38.000000
6.931391 8.441298 0.177306 9.000000
8.100792 8.500727 0.190615 21.000000
8.113618 8.460803 0.190290 7.000000
8.323053 8.463689 0.192693 13.000000
4.216992 8.607946 0.155600 33.000000
5.405556 8.527746 0.163899 31.500000
4.542215 8.710830 0.159474 28.333334
5.729180 8.701971 0.169125 35.000000
4.166179 8.734681 0.157093 31.000000
4.507515 8.800793 0.160512 35.666668
4.406125 8.829694 0.160188 43.333332
5.526796 8.841312 0.169255 29.000000
5.908965 8.913945 0.173605 50.000000
4.128219 8.992292 0.160620 69.333336
4.219039 9.088992 0.162666 64.000000
5.237789 9.094095 0.170359 8.000000
5.433001 9.034885 0.171138 45.000000
4.939206 9.304961 0.171008 48.000000
4.392548 9.385612 0.168217 55.000000
3.691599 9.468463 0.164970 1.000000
3.764830 9.450981 0.165143 0.333333
5.183829 9.441030 0.174839 4.500000
5.712049 9.431715 0.178994 11.000000
4.293729 9.562907 0.170164 41.000000
4.572465 9.534929 0.171657 24.000000
4.612842 9.542122 0.172047 24.000000
6.626253 9.533929 0.188473 0.000000
4.309214 9.678653 0.171982 43.000000
2.901316 9.719865 0.164662 32.750000
2.993726 9.749356 0.165555 29.500000
3.219378 9.717220 0.166171 46.000000
3.683003 9.716002 0.168671 7.000000
3.754961 9.812708 0.170554 0.000000
4.027779 9.781816 0.171722 13.000000
4.283925 9.770247 0.173177 29.000000
5.200424 9.723186 0.178994 17.000000
2.784860 9.894196 0.166853 12.000000
2.811547 9.870012 0.166593 23.000000
3.074189 9.845871 0.167437 49.000000
3.151811 9.845241 0.167808 43.428570
3.306535 9.825169 0.168281 23.000000
3.492105 9.828679 0.169320 42.333332
3.636051 9.871560 0.170770 18.000000
3.711508 9.884783 0.171398 29.000000
3.510452 10.013072 0.172242 28.000000
2.930055 10.164728 0.171722 45.000000
3.492203 10.164718 0.174471 52.000000
4.130012 10.120284 0.177436 2.000000
2.569128 10.261858 0.171722 9.000000
3.699776 10.242854 0.176786 13.000000
2.458158 10.334269 0.172437 9.000000
4.471776 10.393332 0.183668 36.000000
3.042602 10.431916 0.176397 8.000000
4.434454 10.441893 0.184155 4.500000
2.878016 10.519938 0.177046 23.000000
2.913329 10.605689 0.178539 29.000000
4.196320 10.518321 0.183831 20.000000
5.315564 10.908184 0.196978 3.000000
4.441588 10.982278 0.192303 35.000000
3.116442 11.072260 0.186720 2.000000
4.275174 11.102412 0.193125 44.666668
3.299475 11.181828 0.189252 2.000000
3.754295 11.155660 0.191070 2.000000
4.386044 11.249621 0.196004 33.000000
1.433929 11.398634 0.186492 9.500000
1.550419 11.406844 0.186871 16.666666
3.004490 11.319468 0.190112 14.250000
1.535864 11.480193 0.188018 14.000000
1.661853 11.419512 0.187326 28.666666
1.718960 11.474429 0.188343 44.000000
1.375757 11.520603 0.188343 4.000000
1.886132 11.594035 0.190680 3.000000
2.798392 11.523506 0.192498 8.500000
1.824463 11.676710 0.191849 14.000000
3.552310 11.765821 0.199510 2.000000
2.355835 12.074708 0.199704 5.000000
-4.502069 -17.458487 0.292675 0.000000
-4.634643 -17.296753 0.290684 4.666667
-3.986923 -17.365841 0.289234 25.000000
-3.847452 -17.383581 0.289017 25.666666
-4.902129 -17.209055 0.290467 22.000000
-4.788855 -17.221487 0.290164 12.333333
-4.946199 -17.158981 0.289883 11.000000
-1.713240 -14.944133 0.244177 25.000000
-1.613288 -14.898885 0.243268 45.666668
-1.520852 -14.920715 0.243463 32.000000
-1.476724 -14.953279 0.243917 0.000000
-0.034191 -13.044221 0.211748 19.000000
0.191082 -13.027507 0.211499 24.000000
0.047527 -12.970188 0.210547 51.000000
0.108590 -12.961838 0.210417 52.000000
14.940909 -0.391242 0.242619 9.000000
15.006039 -0.345775 0.243658 12.000000
15.229585 -0.111640 0.247228 9.000000
15.229923 -0.039872 0.247228 10.500000
14.541884 0.076142 0.236061 81.000000
14.714029 0.030816 0.238853 46.000000
14.125008 0.177534 0.229309 31.333334
14.381600 0.120487 0.233465 96.000000
14.346961 0.300526 0.232945 95.000000
14.543779 0.258940 0.236126 109.000000
15.464300 0.226735 0.251059 9.000000
14.008960 0.381518 0.227492 67.000000
14.202008 0.342130 0.230608 40.000000
13.821652 0.485053 0.224505 39.000000
13.834314 0.572598 0.224765 34.500000
13.702785 0.703739 0.222731 32.666668
13.975309 0.644393 0.227102 73.000000
13.419122 0.787842 0.218208 40.000000
13.569283 0.753889 0.220610 42.000000
14.963883 0.737091 0.243203 5.000000
13.420528 0.861988 0.218305 27.000000
13.178591 1.023293 0.214572 16.000000
13.642338 1.059217 0.222125 21.666666
13.859772 1.032391 0.225609 39.000000
16.546879 1.075838 0.269172 6.000000
12.859776 1.140861 0.209573 39.500000
13.534575 1.136531 0.220480 35.000000
16.623568 1.185759 0.270536 25.000000
16.962389 1.156380 0.275989 12.000000
12.774830 1.275098 0.208404 50.000000
13.093239 1.244502 0.213501 46.000000
12.664443 1.344530 0.206738 42.000000
17.608669 1.367281 0.286702 4.000000
12.621720 1.480443 0.206294 43.750000
12.481085 1.603233 0.204271 39.000000
12.675585 1.709301 0.207625 28.000000
12.623796 1.762971 0.206911 15.500000
13.011208 1.879580 0.213403 1.000000
12.427232 1.994970 0.204314 81.000000
14.079478 1.966230 0.230770 29.000000
14.147264 2.043693 0.232036 44.000000
14.215948 2.099230 0.233270 5.000000
13.076090 2.141291 0.215091 23.000000
13.787433 2.124553 0.226453 15.000000
13.542680 2.261408 0.222882 59.000000
13.651536 2.367880 0.224916 37.666668
13.811930 2.395666 0.227557 64.000000
14.827675 2.332558 0.243658 9.000000
13.222479 2.507975 0.218467 43.000000
13.424188 2.531566 0.221757 48.333332
14.036581 2.571130 0.231647 69.000000
14.276951 2.522551 0.235347 79.000000
13.213381 2.678752 0.218857 12.666667
13.402692 2.629503 0.221713 46.000000
14.989293 2.696999 0.247228 8.000000
12.944166 2.793899 0.214961 24.000000
13.269758 2.820574 0.220220 46.000000
14.615157 3.010695 0.242229 56.000000
14.648687 3.065608 0.242943 40.000000
16.481148 3.287276 0.272808 4.000000
12.566265 3.338928 0.211066 1.000000
15.567403 3.360104 0.258525 3.000000
16.443302 3.333476 0.272354 0.000000
12.699846 3.848826 0.215416 5.000000
13.724482 4.135799 0.232685 10.500000
12.855006 4.476513 0.220967 6.500000
12.747016 4.619388 0.220090 4.000000
15.112373 4.657843 0.256707 1.000000
11.473841 4.823159 0.202042 6.000000
12.535845 4.880019 0.218370 4.000000
12.856385 4.842645 0.223012 5.000000
11.878834 5.147761 0.210157 7.500000
11.498503 5.264426 0.205288 27.000000
13.654615 5.241516 0.237425 10.000000
11.631992 5.414205 0.208274 28.000000
11.100252 5.423551 0.200548 3.000000
12.297193 5.536900 0.218922 4.000000
12.143536 5.698789 0.217753 7.000000
12.353054 5.655559 0.220545 5.000000
12.042430 5.790453 0.216909 1.000000
12.159895 5.776509 0.218532 3.000000
11.651174 6.001950 0.212754 25.250000
12.113613 5.918676 0.218857 22.000000
10.892593 6.032887 0.202128 42.666668
11.370842 6.096991 0.209443 13.000000
11.565729 6.108108 0.212321 12.333333
12.025104 6.016474 0.218272 0.000000
10.799551 6.122561 0.201522 51.500000
11.467173 6.288503 0.212300 8.000000
11.534609 6.231537 0.212819 4.000000
14.445102 6.286905 0.255733 0.000000
13.883697 6.462278 0.248592 6.000000
11.362714 6.800444 0.214961 0.000000
11.874550 7.808915 0.230705 20.500000
11.945849 7.936802 0.232815 3.000000
9.398457 8.190159 0.202366 3.000000
10.677507 8.264429 0.219181 16.000000
11.294525 8.269316 0.227232 0.500000
10.922180 8.399070 0.223661 4.000000
16.121487 8.449618 0.295466 12.000000
16.254398 8.454294 0.297414 4.000000
16.079308 8.589136 0.295921 3.000000
11.013565 8.691750 0.227751 7.000000
16.032740 8.759479 0.296570 6.000000
11.355753 9.019837 0.235412 0.000000
10.188862 9.280908 0.223726 4.500000
10.071636 9.319909 0.222752 5.000000
10.256898 9.431701 0.226193 45.000000
7.975819 9.713352 0.204022 20.000000
8.913155 9.836739 0.215481 3.000000
11.109821 10.045529 0.243138 13.000000
11.256032 10.092369 0.245410 1.000000
9.302250 10.169380 0.223726 1.000000
10.639125 10.385910 0.241353 3.000000
11.139907 10.373601 0.247098 1.000000
4.566351 11.604234 0.202431 15.000000
5.023185 11.879974 0.209378 33.000000
3.975080 12.190586 0.208144 2.000000
5.038972 12.129213 0.213208 13.000000
2.049537 12.353488 0.203275 8.000000
1.792723 12.502460 0.205028 2.000000
4.597599 12.482462 0.215935 6.000000
5.242474 12.508001 0.220155 30.000000
2.199769 12.526644 0.206456 1.000000
2.735898 12.611522 0.209486 39.333332
2.821598 12.561301 0.208988 47.000000
4.506691 12.600556 0.217234 4.000000
2.896599 12.708353 0.211585 66.000000
4.581581 12.684137 0.218922 8.000000
2.614436 12.759116 0.211423 29.500000
2.742554 12.771121 0.212040 36.000000
2.215434 12.852742 0.211715 12.000000
4.879483 12.872395 0.223466 1.000000
2.653380 12.949206 0.214572 79.000000
2.998681 12.968060 0.216065 58.000000
3.045633 12.924229 0.215546 45.000000
3.182522 12.927176 0.216114 19.250000
1.410169 13.023441 0.212646 2.000000
3.327508 13.073400 0.218987 8.000000
4.869819 13.031990 0.225836 8.000000
5.568884 13.056066 0.230413 19.000000
1.339973 13.146145 0.214507 1.000000
1.319499 13.361236 0.217948 0.000000
2.045382 13.366631 0.219506 2.000000
5.342933 13.331287 0.233140 5.000000
5.441702 13.334483 0.233789 9.000000
4.916069 13.477505 0.232880 4.000000
2.656058 13.613487 0.225154 26.000000
2.616939 13.757452 0.227329 17.500000
1.595257 13.915011 0.227362 2.000000
-2.648839 13.965138 0.230738 2.000000
2.233871 14.009145 0.230283 11.000000
-2.621081 14.059888 0.232166 1.000000
-2.909828 14.125504 0.234114 8.000000
-2.567656 14.142899 0.233335 1.000000
2.628948 14.184533 0.234179 12.000000
-3.108342 14.291945 0.237425 6.000000
-2.999485 14.221189 0.235932 6.500000
-2.837666 14.227142 0.235499 4.666667
3.701125 14.352518 0.240606 12.000000
5.967285 14.363736 0.252487 4.000000
6.273367 14.455346 0.255798 5.000000
-3.437407 14.586423 0.243268 10.000000
-3.587366 14.704723 0.245703 7.500000
-3.347419 14.615593 0.243398 7.000000
-3.291135 14.687788 0.244339 4.500000
-2.836650 14.702888 0.243073 2.000000
-2.492528 14.643425 0.241125 0.000000
-5.475688 14.818605 0.256447 0.000000
-3.824667 14.863773 0.249144 5.500000
-3.744313 14.840932 0.248462 8.000000
-5.571150 14.932480 0.258720 11.000000
-3.735348 15.003982 0.250994 5.000000
-5.284850 15.176018 0.260862 8.000000
-4.484581 15.139686 0.256318 4.000000
-5.939049 15.256614 0.265764 11.500000
-5.500905 15.254298 0.263232 0.500000
-4.443874 15.266249 0.258103 2.000000
-6.623368 15.349780 0.271380 19.000000
-6.475310 15.404146 0.271250 10.000000
-6.254962 15.350325 0.269075 4.500000
-5.860945 15.340318 0.266575 16.500000
-5.398856 15.347984 0.264108 32.000000
-5.138098 15.373992 0.263135 11.000000
-6.751359 15.512258 0.274626 19.000000
-6.568287 15.421237 0.272094 17.500000
-4.317209 15.462501 0.260603 1.000000
-7.196441 15.588816 0.278716 6.000000
-5.845009 15.517489 0.269172 11.000000
-4.946715 15.612934 0.265861 6.000000
-6.890087 15.696050 0.278262 19.000000
-5.021364 15.677302 0.267225 2.000000
-5.332254 15.789746 0.270536 17.000000
-5.187462 15.768430 0.269465 7.000000
-2.484208 15.791692 0.259499 0.000000
-5.642544 15.881169 0.273587 7.000000
4.423164 15.906285 0.268004 0.000000
-5.165446 15.954436 0.272224 2.000000
-4.571538 15.984948 0.269887 2.000000
-7.588877 16.105225 0.289007 34.000000
-6.659281 16.053272 0.282125 12.500000
-5.035185 16.067291 0.273327 3.000000
-4.817959 16.079491 0.272483 1.000000
-4.538696 16.060814 0.270925 2.000000
-3.575079 16.073032 0.267290 3.000000
-5.523900 16.189291 0.277677 15.000000
-2.679560 16.203756 0.266608 0.000000
2.942617 16.160109 0.266640 25.000000
4.453686 16.213207 0.272938 4.000000
-6.532396 16.249838 0.284300 9.000000
-6.493149 16.300005 0.284819 3.000000
-5.389915 16.297590 0.278651 3.000000
-5.015333 16.272377 0.276411 4.000000
-4.419719 16.222498 0.272938 1.000000
-4.274753 16.294380 0.273457 4.000000
-3.996342 16.270184 0.271964 0.000000
-2.616848 16.301117 0.268004 0.000000
4.230556 16.299692 0.273360 9.500000
4.313983 16.304724 0.273782 10.000000
-8.212254 16.413801 0.297933 18.000000
-7.436202 16.332422 0.291311 20.333334
-7.309786 16.371895 0.291052 17.000000
-6.717696 16.412050 0.287870 3.000000
-6.095411 16.337667 0.283066 1.000000
-5.637293 16.353352 0.280794 2.000000
-4.901172 16.357166 0.277190 3.000000
-8.165985 16.450264 0.298128 20.000000
-7.412091 16.461901 0.293064 6.000000
-7.274509 16.431349 0.291701 17.000000
-8.055935 16.620071 0.299816 11.000000
-7.951356 16.670357 0.299816 14.000000
-6.101612 16.673574 0.288217 11.333333
-4.432731 16.682869 0.280209 5.000000
2.975625 16.637775 0.274366 0.000000
2.745391 16.875895 0.277548 15.000000
-4.996673 17.065187 0.288649 5.000000
-4.580729 17.024172 0.286182 7.000000
-4.470628 17.041014 0.285988 1.000000
-5.007524 17.303625 0.292415 5.000000
-4.694112 17.229650 0.289883 4.000000
-4.970737 17.380795 0.293454 5.000000
-4.840997 17.338495 0.292220 6.000000
-7.605742 -22.138882 0.379997 18.000000
-7.521994 -22.121012 0.379283 25.000000
-7.141274 -22.017769 0.375744 8.000000
-6.875392 -22.069111 0.375231 10.000000
-7.931132 -21.850010 0.377335 26.500000
-7.196754 -21.837662 0.373245 0.000000
-8.551289 -21.730959 0.379088 1.000000
-7.966316 -21.628511 0.374154 39.000000
-7.248124 -21.649887 0.370615 23.000000
-6.912802 -21.660669 0.369090 6.000000
-8.006343 -21.528404 0.372855 22.000000
-7.472236 -21.421133 0.368278 4.000000
2.058150 -10.758720 0.367778 47.500000
2.136099 -10.709524 0.366659 52.000000
2.232637 -10.752452 0.368718 19.000000
4.401463 -8.352128 0.316983 11.142858
5.196252 -7.350974 0.302249 9.200000
5.231277 -7.312362 0.301873 9.000000
-7.162455 2.158795 0.322745 25.862499
11.542989 2.377834 0.395697 2.000000
11.465244 2.465191 0.393751 17.750000
11.316737 2.554489 0.389522 12.000000
11.310184 2.740402 0.390731 14.000000
11.226374 2.832379 0.388744 37.599998
11.271437 3.013838 0.391737 30.500000
11.403465 2.991643 0.395831 32.000000
10.966146 3.086526 0.382498 28.333334
11.126981 3.050222 0.387375 20.000000
11.092774 3.172422 0.387375 38.000000
11.258078 3.277220 0.393683 30.500000
10.675268 3.326973 0.375429 55.000000
10.716637 3.395401 0.377442 63.000000
10.946918 3.355168 0.384422 35.000000
11.180510 3.359674 0.391972 18.250000
10.755410 3.444903 0.379187 42.000000
10.816612 3.584729 0.382596 38.599998
11.056412 3.579650 0.390194 2.000000
10.556090 3.628248 0.374777 43.142857
10.548738 3.738624 0.375764 30.750000
10.232858 3.817768 0.366704 42.000000
10.548545 3.897839 0.377576 33.000000
10.630646 3.871327 0.379858 88.500000
10.426576 3.927402 0.374087 36.000000
9.777303 4.110000 0.356100 48.000000
10.141888 4.058597 0.366771 18.000000
10.565111 4.074615 0.380194 38.000000
9.993129 4.163831 0.363483 29.000000
10.079202 4.144000 0.365899 33.500000
10.354224 4.200204 0.375160 39.000000
10.659359 4.168775 0.384288 37.000000
9.613380 4.292090 0.353483 50.000000
10.099267 4.282724 0.368315 12.000000
10.850731 4.282970 0.391670 60.000000
9.486694 4.379372 0.350821 3.666667
9.732018 4.345191 0.357845 108.000000
10.235003 4.492853 0.375295 46.000000
10.412889 4.454368 0.380261 45.000000
10.534986 4.585115 0.385764 38.000000
10.685151 4.610599 0.390731 13.000000
9.680665 4.692330 0.361201 45.000000
9.892168 4.833284 0.369657 38.000000
9.923558 4.887300 0.371402 31.000000
8.625034 4.997721 0.334691 15.500000
8.773471 4.992130 0.338919 22.000000
8.883987 4.999736 0.342275 24.000000
10.390716 4.996247 0.387106 23.000000
10.520579 4.937159 0.390194 26.000000
10.738859 4.957580 0.397129 23.333334
8.552805 5.046034 0.333416 13.000000
9.472228 5.040715 0.360261 23.000000
10.183069 5.074872 0.382006 63.500000
8.714617 5.141441 0.339725 23.500000
9.565566 5.129011 0.364422 0.000000
9.757873 5.311332 0.373013 12.000000
8.769297 5.389685 0.345597 19.500000
8.919821 5.384262 0.349819 36.400002
9.689629 5.373249 0.372006 16.000000
10.619530 5.355009 0.399321 16.000000
8.451519 5.596064 0.340329 11.000000
8.553041 5.605484 0.343349 32.000000
8.685011 5.559180 0.346225 14.714286
8.281972 5.711213 0.337779 28.250000
8.677824 5.648374 0.347644 29.000000
8.477172 5.748112 0.343886 31.000000
7.252524 6.006229 0.316168 36.000000
7.373352 6.009221 0.319367 34.000000
8.388569 6.001198 0.346302 4.000000
6.818108 6.113328 0.307466 0.666667
7.259179 6.082565 0.317980 35.000000
8.343985 6.028948 0.345631 5.000000
8.595939 6.068263 0.353282 9.000000
8.608415 6.036636 0.353013 10.000000
7.921834 6.191442 0.337577 30.500000
9.857698 6.154990 0.390194 1.000000
-9.076818 6.287445 0.370731 17.000000
6.858912 6.280652 0.312253 26.333332
7.929262 6.298251 0.339993 5.333333
8.080549 6.254375 0.343080 28.000000
8.615557 6.308029 0.358516 1.500000
7.373679 6.364791 0.327052 27.833332
7.880246 6.340411 0.339591 13.000000
-9.257998 6.499388 0.379791 7.500000
6.736448 6.433063 0.312745 34.666668
6.908560 6.474027 0.317891 21.666666
7.303434 6.466079 0.327510 2.000000
-9.196297 6.520985 0.378516 34.000000
6.500828 6.589923 0.310799 3.000000
6.747681 6.525270 0.315162 9.000000
6.983529 6.544222 0.321336 10.000000
7.065493 6.579463 0.324155 16.000000
6.637246 6.623394 0.314826 27.500000
-9.439326 6.737977 0.389388 2.000000
8.787848 6.757785 0.372207 33.000000
8.828095 6.744707 0.373013 5.000000
6.405839 6.850221 0.314893 3.000000
6.155491 6.961187 0.312000 36.333332
7.942026 6.987070 0.355161 17.000000
5.646523 7.055656 0.303417 34.500000
5.730899 7.046630 0.304960 40.333332
5.830896 7.078476 0.307913 39.000000
5.708858 7.202786 0.308585 31.000000
5.921995 7.143219 0.311537 23.000000
6.021242 7.216668 0.315564 44.000000
5.787609 7.349458 0.314088 56.000000
6.174993 7.353856 0.322410 30.000000
6.288717 7.357023 0.324960 29.400000
6.858425 7.403819 0.338852 42.500000
8.253168 7.353304 0.371134 15.000000
8.538989 7.323971 0.377711 5.000000
8.672579 7.321175 0.381066 2.500000
6.293540 7.447398 0.327376 54.000000
8.297234 7.462893 0.374691 18.000000
5.282761 7.550173 0.309390 1.000000
5.874874 7.524867 0.320531 33.000000
7.246808 7.556902 0.351537 39.000000
7.335147 7.577247 0.354087 38.000000
5.157766 7.640918 0.309524 28.000000
5.241770 7.654366 0.311484 38.400002
5.407750 7.677347 0.315296 1.000000
5.571574 7.685500 0.318719 33.333332
5.913576 7.656796 0.324826 37.000000
7.507706 7.682694 0.360664 67.000000
5.489652 7.741848 0.318651 0.000000
5.930865 7.729253 0.327108 50.000000
7.249485 7.813805 0.357879 15.750000
7.743392 7.775895 0.368449 5.000000
7.849178 7.799825 0.371536 33.000000
7.967898 7.802616 0.374436 27.200001
5.854718 7.909273 0.330396 81.500000
5.988959 7.855943 0.331671 44.000000
7.476762 7.845889 0.363885 61.000000
8.104114 7.836993 0.378516 16.000000
4.737756 7.991995 0.311940 39.000000
5.984390 7.927135 0.333483 56.500000
7.243168 7.943411 0.360932 4.000000
7.870974 8.003970 0.376905 77.000000
8.631028 7.936637 0.393683 3.000000
4.665345 8.073792 0.313087 40.090908
4.839417 8.047663 0.315296 32.666668
4.938985 8.069105 0.317645 33.000000
7.647244 8.075434 0.373415 84.000000
4.551734 8.137543 0.313059 38.000000
7.002663 8.129860 0.360261 25.000000
4.404516 8.250648 0.314021 27.250000
4.495631 8.218216 0.314517 31.200001
6.280879 8.401937 0.352208 24.000000
4.413049 8.441311 0.319815 18.333334
6.991067 8.432753 0.367778 4.000000
4.260640 8.605618 0.322410 29.000000
4.361086 8.537166 0.321873 16.333334
5.446280 8.562211 0.340709 26.000000
5.523136 8.563663 0.342141 21.000000
5.681302 8.523980 0.343940 32.200001
6.260498 8.541368 0.355563 33.000000
4.274331 8.674537 0.324692 24.200001
4.334385 8.617965 0.323886 23.000000
5.686687 8.667097 0.348047 52.500000
6.258255 8.651796 0.358516 2.000000
6.238872 8.798444 0.362140 106.000000
4.077507 8.856992 0.327376 38.000000
4.297550 8.819095 0.329389 54.000000
4.074450 8.998981 0.331671 29.000000
4.167590 8.978305 0.332342 24.000000
5.551482 8.943092 0.353416 43.000000
6.270967 8.977462 0.367677 41.750000
5.682763 9.059100 0.359053 30.000000
5.854839 9.015660 0.360932 14.000000
4.050292 9.190171 0.337201 27.600000
4.355512 9.131391 0.339680 27.666666
3.964690 9.254847 0.338047 37.000000
4.377455 9.277336 0.344423 63.000000
4.064789 9.366250 0.342812 20.000000
7.284603 9.370974 0.398516 13.000000
3.205489 9.426938 0.334311 39.000000
5.484733 9.454053 0.366973 0.000000
3.877593 9.587743 0.347241 29.000000
4.043281 9.562474 0.348584 20.000000
4.492327 9.598812 0.355832 58.000000
3.844687 9.703150 0.350429 28.750000
2.845104 9.812072 0.343013 4.000000
4.088942 9.755793 0.355161 51.000000
5.052199 9.813658 0.370597 8.000000
5.108203 9.771092 0.370194 3.000000
3.857008 9.892714 0.356503 102.000000
3.309608 9.937466 0.351671 76.000000
4.191708 10.089779 0.366838 58.000000
5.485243 10.027309 0.383751 30.000000
2.490618 10.186016 0.352074 4.000000
2.542459 10.189670 0.352610 8.000000
