# This PCD file was generated using the MATLAB® pcwrite function
# from Computer Vision Toolbox®.
# .PCD v.7 - Point Cloud Data file format
VERSION .7
FIELDS x y z intensity
SIZE 4 4 4 4
TYPE F F F F
COUNT 1 1 1 1
WIDTH 1243
HEIGHT 1
VIEWPOINT 0 0 0 1 0 0 0
POINTS 1243
DATA ascii
-17.733204 20.292181 2.314120 1.000000
9.562445 20.256952 2.316452 18.000000
-10.501512 20.407425 2.373369 59.333332
-10.306611 20.415918 2.365003 57.799999
-9.936805 20.346418 2.341550 17.000000
-9.867625 20.366796 2.340316 21.000000
9.394408 20.396770 2.322212 5.000000
9.483678 20.337826 2.320566 15.000000
-9.585577 20.435150 2.334144 10.000000
-9.298429 20.488773 2.326738 10.000000
-10.221846 20.600792 2.378169 12.000000
-8.601324 20.653200 2.313572 1.000000
7.824614 20.828085 2.300817 41.000000
8.831254 20.876003 2.344019 29.000000
-17.596428 20.918648 2.347316 3.000000
8.784089 20.947676 2.348956 4.000000
9.034611 20.988213 2.362945 27.000000
-17.993729 21.120136 2.382565 4.000000
-17.047260 21.194942 2.335680 1.000000
7.081028 21.138615 2.305343 32.000000
8.121075 21.311451 2.358419 50.500000
7.654683 21.390465 2.349368 31.000000
-17.407139 21.503706 2.375720 7.000000
-16.751421 21.510401 2.341156 1.000000
-8.625934 21.468500 2.392570 1.000000
8.298817 21.473400 2.380638 40.000000
5.432773 21.612808 2.304520 33.000000
7.045669 21.594534 2.348956 33.000000
7.632625 21.541918 2.363357 31.000000
5.384961 21.710865 2.313160 20.000000
7.005905 21.703648 2.358419 1.000000
7.188236 21.799011 2.373643 51.000000
7.646566 21.798569 2.388867 32.000000
4.382130 21.890617 2.308634 56.500000
7.600234 21.886379 2.395861 16.000000
4.219821 21.975182 2.313983 56.000000
4.281212 21.922766 2.309869 54.000000
4.532116 21.923035 2.315012 50.000000
5.960107 21.951982 2.352248 12.000000
4.134856 22.094528 2.324475 29.000000
3.902373 22.199421 2.330853 19.000000
6.094426 22.171011 2.377758 3.000000
5.884184 22.223619 2.377346 22.000000
-16.398664 22.479940 2.389409 4.000000
-16.142025 22.571899 2.382907 2.000000
5.010623 22.620142 2.395861 3.000000
-13.950882 23.655560 2.358267 4.000000
-13.571290 23.687225 2.344236 13.000000
-13.471198 23.684706 2.339787 13.000000
-13.426108 23.778971 2.344920 5.000000
-14.305891 23.912861 2.392832 3.000000
-13.185634 24.054136 2.355529 9.000000
6.377350 26.790052 2.364769 6.000000
3.225236 26.967836 2.332258 7.000000
3.358713 27.003782 2.336707 1.000000
6.247535 26.996552 2.379485 2.000000
2.246105 27.031023 2.329178 2.000000
3.069832 27.112312 2.343038 9.000000
3.623647 27.049927 2.343551 1.000000
2.947033 27.172070 2.346973 25.000000
6.113628 27.194693 2.393516 2.000000
2.347796 27.218390 2.345947 5.000000
2.698662 27.277956 2.353818 1.000000
-4.705561 -35.984886 2.481725 19.000000
-7.106503 -35.792099 2.495370 39.000000
-4.796856 -35.807755 2.470536 18.000000
7.105752 -35.657978 2.486364 20.000000
-6.481171 -35.557747 2.471628 4.000000
7.435788 -35.562080 2.484454 13.000000
-7.840914 -35.397301 2.479269 9.000000
8.583888 -35.454479 2.494551 3.000000
9.116727 -35.226418 2.488275 3.000000
9.462831 -35.192886 2.492095 8.000000
-8.009021 -35.110001 2.462622 20.000000
-7.907440 -35.173923 2.465351 41.000000
-4.800870 -35.001778 2.415957 37.000000
7.095743 -35.033146 2.444338 12.000000
7.216227 -35.061493 2.447886 12.000000
7.563171 -35.069946 2.453344 10.000000
-5.017864 -34.951172 2.414593 11.000000
-4.900270 -34.911438 2.410772 24.000000
-5.509581 -34.864876 2.413774 6.500000
7.727099 -34.768517 2.435606 8.000000
9.225230 -34.744164 2.458256 2.000000
7.359277 -34.652424 2.422506 22.000000
8.146011 -34.594868 2.430420 3.000000
7.558083 -34.519737 2.416503 1.000000
7.791504 -34.545536 2.421688 4.000000
-8.514696 -34.329205 2.418686 10.000000
-8.384988 -34.266628 2.412409 6.000000
6.803110 -27.906998 2.466581 13.500000
6.648748 -27.843838 2.458196 0.000000
6.926262 -27.841820 2.463672 18.000000
7.476714 -27.806389 2.472570 7.000000
9.007387 -27.541864 2.488312 1.000000
9.382353 -27.513260 2.496183 3.000000
7.843561 -27.444105 2.451010 29.000000
9.711104 -27.077391 2.470174 1.000000
8.446185 -26.968307 2.426712 1.000000
9.461962 -26.645826 2.428081 4.000000
10.041501 -26.172659 2.407205 3.000000
8.609141 -21.822071 2.425897 4.000000
6.968057 -18.867458 2.435728 8.000000
7.397584 -18.837646 2.450876 5.500000
6.998161 -18.767340 2.425629 7.000000
7.266423 -18.763086 2.436689 10.000000
8.002470 -18.716248 2.465062 15.000000
8.198912 -18.607140 2.462417 9.500000
8.256625 -18.501211 2.453521 13.000000
7.660838 -18.394934 2.413126 2.000000
9.668316 -17.903572 2.464100 21.000000
9.467982 -17.799191 2.441498 29.000000
9.304494 -17.625170 2.413607 5.000000
6.995141 -16.226944 2.453553 14.000000
7.096090 -16.180794 2.453278 12.500000
7.206566 -16.155853 2.456304 25.000000
-7.534411 -16.018700 2.457954 10.500000
7.849101 -16.078794 2.484360 0.000000
-7.713551 -15.942039 2.459054 2.000000
-7.636649 -15.974604 2.458504 31.000000
7.345960 -15.927303 2.435399 11.000000
7.899784 -15.557865 2.422746 1.000000
7.972509 -15.459762 2.415228 29.000000
8.096498 -15.460879 2.423296 19.000000
9.356397 -15.102088 2.466756 3.000000
8.906239 -14.999814 2.422196 23.000000
9.100635 -15.003286 2.436499 18.000000
9.199360 -15.059148 2.450252 11.000000
9.395402 -15.059175 2.464556 5.000000
5.988057 -14.709980 2.489342 5.500000
9.305659 -14.760004 2.422746 10.500000
6.405252 -14.239039 2.447223 1.000000
6.205698 -14.150393 2.421828 3.000000
6.482895 -14.056031 2.426164 7.000000
6.520616 -13.964443 2.415634 17.000000
6.686859 -13.808042 2.404691 7.000000
8.484852 -13.505060 2.499871 12.000000
7.888783 -13.478427 2.447843 8.000000
7.947144 -13.480811 2.452798 3.000000
7.978015 -13.246210 2.423686 0.000000
6.997307 -12.307485 2.473436 0.000000
7.095529 -12.299613 2.480779 7.000000
6.277085 -12.266500 2.407349 9.000000
7.262271 -12.230949 2.485139 6.250000
7.111603 -12.150572 2.459668 31.000000
7.431091 -12.036623 2.471371 7.000000
7.640929 -12.077418 2.496842 9.000000
7.761890 -11.811867 2.469306 20.000000
7.863193 -11.763657 2.472059 29.000000
8.053451 -11.340685 2.430067 85.000000
8.076935 -11.260970 2.421117 11.500000
8.525578 -11.094704 2.444523 2.000000
8.561054 -11.014937 2.437295 28.000000
8.774729 -11.055010 2.465864 6.500000
7.822227 -9.890430 2.430785 7.000000
6.788832 -9.531670 2.469879 7.000000
7.033902 -9.523144 2.498790 1.000000
6.776881 -9.337812 2.435185 12.000000
7.181268 -9.188334 2.461343 8.666667
7.084838 -8.987075 2.415359 7.000000
8.854676 -9.013719 2.435706 29.000000
7.941125 -8.483101 2.452532 42.000000
7.985044 -8.449833 2.453771 47.500000
9.679617 -8.293451 2.457158 2.333333
7.563424 -7.796645 2.495023 31.333334
8.364102 -7.879174 2.425272 51.000000
8.757984 -7.770206 2.471117 9.500000
8.843415 -7.747280 2.481443 10.000000
6.957149 -7.156694 2.477997 0.000000
6.335418 -6.683143 2.461117 2.000000
6.360148 -6.646232 2.458535 6.000000
6.463403 -6.362665 2.423937 0.000000
6.615816 -6.232248 2.429101 22.000000
7.706053 -6.273750 2.467073 26.000000
7.851662 -5.812058 2.425307 31.333334
7.871437 -5.756795 2.421131 48.000000
9.078051 -5.622053 2.452638 13.000000
9.183067 -5.607568 2.471442 18.000000
9.209491 -5.291455 2.439654 9.500000
9.285476 -4.823417 2.403388 4.000000
8.850377 -4.597401 2.476069 8.000000
8.542077 -4.574466 2.405710 2.000000
7.831502 -4.450720 2.407412 80.000000
8.202599 -4.082545 2.448723 13.500000
8.306144 -4.020713 2.466281 9.000000
8.306822 -3.956814 2.459051 38.000000
9.280054 -3.556705 2.467394 4.000000
9.313008 -3.419104 2.463057 2.500000
9.457089 -2.828325 2.450688 12.000000
9.369982 -2.674414 2.419203 0.000000
8.698873 -2.248062 2.401216 0.000000
8.905874 -2.034810 2.441494 27.000000
8.949923 -2.015311 2.451822 8.000000
9.146391 -1.670428 2.484871 0.000000
8.982610 -1.005974 2.415674 40.000000
9.242292 -0.523206 2.474027 4.000000
9.092409 -0.414478 2.432543 17.000000
9.324624 0.043942 2.492100 30.000000
8.911903 1.311227 2.407412 35.000000
8.915257 2.666227 2.486936 14.000000
8.591658 2.881348 2.421871 26.500000
9.372526 3.258358 2.463539 2.000000
8.364758 3.776787 2.452855 14.000000
8.196921 3.872917 2.422904 44.000000
8.306822 3.956813 2.459051 0.000000
8.350086 4.009655 2.475576 0.000000
8.453990 3.961937 2.495199 0.000000
7.891977 4.485089 2.426002 9.000000
7.958188 4.456799 2.437707 12.666667
-18.222490 15.112499 2.448115 2.000000
7.709474 16.192200 2.490136 8.000000
7.837794 16.198824 2.498663 0.000000
7.352015 16.267834 2.478767 24.666668
7.494601 16.264513 2.486560 26.000000
7.304143 16.389977 2.491512 1.000000
-11.021099 16.765289 2.429717 10.500000
-10.320807 17.008171 2.409278 2.000000
-10.668283 17.092731 2.440056 22.000000
-10.227269 17.034454 2.406153 18.500000
1.861616 17.390827 2.428522 2.500000
1.969314 17.365005 2.426597 1.500000
-15.605419 17.632515 2.434949 13.000000
-10.048952 17.797691 2.475161 22.000000
-14.909283 17.894680 2.408616 26.000000
-9.869253 17.870752 2.472275 23.000000
-15.461247 18.147636 2.465396 27.000000
-15.676158 18.283228 2.490494 2.000000
-15.275586 18.511005 2.481854 10.000000
-15.235998 18.641300 2.489671 11.000000
-15.100734 18.774815 2.491591 7.666667
-7.660041 19.064556 2.488145 0.000000
2.261686 19.697721 2.401103 2.000000
2.890247 19.691608 2.410240 3.000000
3.073251 19.647804 2.408317 23.000000
3.133083 19.626287 2.406874 1.000000
3.274553 19.715899 2.420339 9.000000
2.080100 19.757654 2.405912 0.000000
3.214513 19.737846 2.421782 3.000000
3.045185 19.877171 2.435247 41.000000
-13.253709 19.955982 2.477328 35.000000
-12.679757 20.034153 2.451818 20.000000
-13.293913 20.153624 2.496666 31.000000
9.135728 21.408060 2.406970 12.000000
9.515676 21.453146 2.426926 1.500000
-17.597618 22.020491 2.420552 9.000000
9.109996 22.113461 2.473213 7.000000
9.168733 22.059013 2.470333 13.000000
-9.240726 22.188509 2.485557 2.000000
9.060032 22.189859 2.478562 23.000000
8.684343 22.262707 2.471156 30.000000
8.795053 22.338976 2.482677 6.000000
8.934134 22.382250 2.492140 8.000000
9.038033 22.336237 2.491729 13.000000
-17.271732 22.468340 2.433556 6.000000
5.656987 22.807608 2.430011 4.000000
7.074422 22.896198 2.478151 33.000000
6.936175 22.959238 2.480208 3.000000
7.338309 22.980116 2.494609 27.000000
6.881093 23.038101 2.486380 13.000000
7.054774 23.089539 2.496666 25.000000
-15.112432 24.044651 2.438689 4.000000
-14.839196 24.111343 2.431161 3.000000
-14.977431 24.508099 2.466410 4.000000
-14.717120 24.776609 2.474623 1.000000
5.261688 28.361900 2.477019 3.000000
-6.933518 -37.373516 2.599344 13.000000
-6.540218 -37.205307 2.583243 2.000000
-6.650733 -37.149223 2.580787 26.000000
-6.950224 -36.818233 2.562230 6.000000
9.030066 -36.791569 2.590611 1.000000
8.171245 -36.766972 2.575602 4.000000
-7.128640 -36.503590 2.543400 5.000000
-5.506651 -36.325134 2.512426 17.500000
-4.635411 -36.335972 2.504921 4.000000
-9.931121 -35.689503 2.533303 27.000000
-9.814716 -35.705132 2.532211 38.000000
-9.682638 -35.662617 2.527026 26.000000
-9.556082 -35.638897 2.523206 11.000000
6.891711 -20.106365 2.573985 13.000000
7.154545 -20.048079 2.577832 8.500000
7.659772 -19.964804 2.589614 4.000000
7.518543 -19.876225 2.573504 9.000000
7.724304 -19.852571 2.579755 5.000000
7.993895 -19.805523 2.586488 3.500000
9.490507 -18.682564 2.537677 17.000000
9.158531 -18.604397 2.511228 25.000000
9.176338 -18.493717 2.500167 21.000000
7.236990 -16.501970 2.501964 3.000000
7.402555 -14.354476 2.531461 69.000000
7.285413 -14.236946 2.506685 31.000000
7.649065 -12.174767 2.511987 5.000000
8.630089 -11.603493 2.526443 18.000000
7.652518 -10.924870 2.571234 9.000000
7.714218 -10.866890 2.568962 18.666666
7.780022 -10.815092 2.568205 8.000000
7.325633 -9.661668 2.559092 0.000000
7.084653 -9.508219 2.502645 12.000000
7.981566 -9.168816 2.565700 20.500000
9.412221 -8.922502 2.500063 2.000000
8.586602 -8.640718 2.571069 5.000000
8.840034 -8.120289 2.533484 64.000000
8.770111 -8.005404 2.506225 26.000000
6.416724 -7.881714 2.523296 15.000000
6.506059 -7.974117 2.555103 18.000000
6.604768 -7.958306 2.567632 22.000000
6.509031 -7.818143 2.525706 12.500000
6.596797 -7.818055 2.539681 7.800000
8.980341 -7.792743 2.509529 28.000000
9.235929 -7.753670 2.545214 28.000000
7.864830 -7.597633 2.511738 0.000000
9.347536 -7.659079 2.550625 5.000000
6.950262 -7.518850 2.542091 47.000000
7.110993 -7.407506 2.549320 0.000000
6.954155 -7.363738 2.514622 29.200001
7.275360 -7.042958 2.513979 35.666668
8.922243 -6.809239 2.578001 0.000000
8.141458 -6.473702 2.582411 23.333334
9.196012 -6.441510 2.578896 16.000000
7.168496 -6.319734 2.554067 1.500000
9.172762 -6.368052 2.564868 20.666666
7.112845 -6.172213 2.516887 12.000000
7.364449 -6.034146 2.544514 24.500000
7.335071 -5.920746 2.519297 28.666666
7.532004 -5.956976 2.566461 3.000000
9.360740 -5.919901 2.543974 0.000000
7.499235 -5.798159 2.533412 53.000000
8.366886 -5.821708 2.530645 30.750000
7.511285 -5.769863 2.531346 21.000000
8.343775 -5.728086 2.512694 0.000000
9.425092 -5.514201 2.508156 6.000000
7.911669 -5.143789 2.522051 28.000000
7.956537 -5.066922 2.521018 27.000000
9.077470 -4.824544 2.552211 0.000000
8.352715 -4.643336 2.554067 26.000000
9.008352 -4.625667 2.514140 3.500000
9.162602 -3.217676 2.595378 9.000000
9.085168 -2.608556 2.526182 12.500000
9.173351 -2.494064 2.540641 2.000000
9.188842 -2.436377 2.540641 5.000000
9.311436 -1.579927 2.524117 7.000000
9.451186 -0.237587 2.526698 5.000000
9.405589 0.073872 2.513789 16.000000
9.385527 0.486947 2.511723 2.000000
9.359135 0.544561 2.505527 3.000000
9.532419 0.780339 2.556133 9.500000
9.527766 0.835263 2.556133 13.333333
9.337513 1.239283 2.517403 7.500000
9.294453 1.337793 2.509658 12.500000
9.319826 1.431128 2.519985 3.000000
8.971765 2.652449 2.500363 8.000000
9.111535 3.008061 2.564395 8.000000
8.750666 3.385377 2.507592 39.000000
8.936381 3.350114 2.550625 10.333333
9.071050 3.346487 2.584018 10.000000
8.979437 3.473811 2.573174 26.250000
8.915703 3.557066 2.565428 19.666666
8.618053 3.777773 2.514822 6.000000
8.597753 3.833362 2.515854 4.000000
8.752347 15.750730 2.501964 1.000000
8.284136 16.077747 2.511316 1.000000
8.125448 16.205051 2.517092 4.500000
8.059393 16.328630 2.528370 15.000000
5.171881 17.504845 2.534421 15.000000
5.564851 17.510725 2.551200 37.000000
5.485208 17.546238 2.552575 22.000000
5.673468 17.565395 2.563028 29.000000
5.104643 17.685452 2.555876 0.000000
4.999871 17.740055 2.559177 36.000000
-10.721694 17.985733 2.535754 6.500000
-10.493803 17.922077 2.515075 27.000000
4.256848 17.951843 2.561744 30.333334
4.403179 17.980383 2.570363 36.000000
4.529213 18.004951 2.577881 21.000000
-16.081491 18.055820 2.500369 21.000000
-10.369834 18.099428 2.526136 7.000000
4.777431 18.030872 2.589984 2.000000
-17.237654 18.171055 2.590065 12.000000
-10.498105 18.190573 2.543448 51.000000
-10.192969 18.185963 2.524693 23.000000
-10.625046 18.277664 2.560279 38.000000
11.001421 18.352867 2.591297 40.500000
9.387927 19.003370 2.566851 35.000000
-15.158713 19.848301 2.582659 8.000000
-13.772798 20.047050 2.515181 9.000000
-13.846560 20.290693 2.540279 26.000000
-13.603847 20.344215 2.530816 46.000000
-13.404967 20.461538 2.529582 26.000000
-13.814343 20.519215 2.557972 35.000000
-13.330123 20.628906 2.539868 13.000000
-13.531566 20.797035 2.565789 3.000000
-13.037451 21.035440 2.559206 5.000000
-12.598003 21.209028 2.550977 8.000000
-12.375291 21.186260 2.537262 63.333332
-12.758541 21.326405 2.569904 1.000000
-12.291004 21.452625 2.556737 29.000000
-12.351414 21.715931 2.583482 13.000000
-12.253630 21.862524 2.591710 29.000000
-9.630696 22.330032 2.514770 1.000000
-9.569876 22.382130 2.517238 7.000000
7.430024 23.017530 2.501192 36.000000
7.282766 23.310600 2.525467 13.000000
7.415883 23.477306 2.546040 31.000000
5.669368 23.815952 2.531639 6.000000
5.259337 24.101286 2.550977 10.000000
5.511025 24.159262 2.562498 10.000000
6.873857 28.478354 2.515690 13.000000
6.753074 28.769293 2.537592 2.000000
8.742162 -38.200935 2.679848 9.000000
9.453896 -38.002262 2.677938 10.000000
9.845625 -38.042831 2.687217 5.000000
9.570997 -37.466530 2.644372 5.000000
8.025466 -24.802898 2.695807 14.000000
8.128561 -24.723202 2.691281 1.500000
7.087131 -20.998343 2.683869 16.000000
7.582314 -20.934498 2.696372 2.000000
7.609853 -20.806152 2.682907 0.000000
6.815300 -20.728918 2.642512 9.500000
6.917967 -20.711657 2.644436 25.000000
8.168198 -20.704386 2.695410 25.000000
7.254292 -20.634153 2.648764 11.000000
8.020213 -20.143673 2.625681 39.000000
9.476334 -20.038288 2.684350 4.000000
9.547028 -19.705078 2.651649 4.000000
8.922462 -19.660339 2.614620 14.000000
9.587976 -19.632170 2.645878 5.000000
8.959397 -19.578047 2.607407 18.000000
7.693086 -17.845999 2.698358 17.000000
7.915156 -17.448866 2.660400 5.000000
8.055677 -17.430204 2.666176 29.500000
9.792664 -16.611383 2.677454 13.000000
9.824091 -16.311321 2.643896 2.000000
9.514278 -16.255676 2.615289 3.000000
7.530491 -14.830578 2.607027 19.000000
7.679355 -14.720600 2.602381 35.000000
7.960492 -14.691956 2.619105 21.000000
8.721279 -14.583744 2.663391 1.000000
8.781996 -14.477981 2.654100 9.000000
8.896296 -14.259193 2.634280 2.000000
9.210880 -14.161859 2.647907 31.000000
6.349905 -13.939825 2.676171 4.000000
6.175141 -13.843581 2.648291 5.000000
6.503557 -13.871003 2.676515 0.000000
6.398471 -13.759169 2.651044 1.000000
9.633339 -13.656012 2.619415 9.000000
6.514560 -13.560472 2.628327 15.000000
7.491925 -13.471395 2.693037 5.000000
8.150954 -12.794435 2.650356 18.000000
8.239733 -12.756208 2.653110 10.000000
6.346062 -12.092525 2.632561 0.333333
6.468128 -11.987541 2.625747 17.000000
7.712852 -11.122175 2.609090 1.500000
8.000556 -11.048273 2.629533 0.000000
8.036712 -11.000911 2.626252 25.666666
7.918026 -8.511868 2.670232 37.000000
7.971385 -8.472583 2.672023 44.000000
9.053019 -8.368526 2.602046 35.000000
7.106452 -8.086256 2.672689 1.000000
9.483851 -8.125775 2.635914 15.000000
7.082955 -8.008638 2.654377 27.000000
9.354537 -8.066074 2.607002 27.000000
7.281063 -7.876610 2.663051 19.000000
7.406174 -7.812668 2.672689 0.000000
7.498358 -7.762064 2.679436 60.000000
7.812758 -7.476421 2.684737 16.000000
6.882973 -7.014004 2.626362 34.000000
6.919717 -6.941399 2.619477 5.666667
7.611220 -6.397899 2.657345 46.000000
7.635337 -6.459216 2.672837 4.000000
7.503748 -6.267433 2.612936 33.000000
7.847342 -5.815251 2.610354 37.500000
7.880634 -5.763510 2.609321 42.000000
9.255981 -5.572553 2.682328 8.000000
8.147660 -5.333711 2.602608 24.000000
8.610168 -4.965074 2.656312 3.000000
8.519516 -4.701086 2.600542 51.000000
8.663036 -4.744839 2.639788 1.000000
9.252420 -3.446460 2.638755 3.000000
9.199794 -3.263240 2.608804 5.000000
9.484295 -2.820186 2.644435 15.000000
9.320550 3.174789 2.631526 8.000000
9.344219 3.248517 2.643919 0.000000
-19.596367 16.148252 2.625861 4.000000
1.545154 16.656254 2.621892 5.000000
9.483586 16.694130 2.665901 2.000000
-13.534287 16.719425 2.605002 17.000000
-13.416945 16.816183 2.605243 18.750000
-13.384614 16.966116 2.617025 31.000000
9.035727 17.008049 2.674153 12.000000
-13.326547 17.112539 2.626642 23.000000
-13.299453 17.188868 2.631932 1.000000
-13.527219 17.258112 2.655496 11.000000
-13.351583 17.539261 2.669442 24.000000
-18.685678 17.701084 2.661657 1.000000
-18.646841 18.000755 2.680172 49.000000
-18.570223 18.039835 2.677292 21.000000
5.450294 18.029499 2.615289 3.000000
4.713280 18.133701 2.601536 15.500000
5.424259 18.149027 2.630143 37.000000
4.966144 18.392548 2.645271 18.500000
-12.194281 18.486576 2.681945 24.000000
11.284813 18.494751 2.623757 21.000000
11.456995 18.449350 2.630009 35.500000
-12.138323 18.528114 2.682426 7.000000
11.401072 18.553940 2.637222 27.000000
11.797060 18.798836 2.687716 16.000000
-16.953413 18.914799 2.626683 21.000000
-16.803928 18.866951 2.612694 3.000000
2.107546 18.848585 2.633444 2.000000
2.344721 18.824543 2.633994 21.000000
-11.077684 18.919271 2.655015 6.000000
2.300369 18.953745 2.651047 19.000000
2.422424 18.962498 2.654348 22.000000
2.658863 18.918789 2.652698 20.000000
2.723358 18.945639 2.657649 21.000000
10.957232 19.016788 2.657901 30.000000
-16.750750 19.046846 2.622980 24.000000
1.768739 19.066431 2.658749 1.000000
1.832035 19.096275 2.663700 1.000000
3.358309 19.084867 2.690656 18.000000
-16.719624 19.132338 2.627506 4.000000
3.245612 19.148563 2.696708 18.000000
-16.684856 19.336424 2.641084 2.000000
-9.350704 19.772642 2.648764 22.000000
-9.107374 19.737299 2.632413 10.000000
-15.595922 19.897377 2.614340 33.000000
-9.538404 19.845924 2.666557 8.000000
-16.755594 19.919064 2.691692 4.000000
-9.839018 19.986723 2.697815 1.000000
-9.730875 19.924761 2.685312 9.000000
-16.108639 20.092541 2.663096 17.500000
-15.653128 20.100088 2.634501 22.000000
-16.099176 20.275736 2.677292 8.000000
-16.025543 20.313715 2.675646 3.000000
-14.792886 20.413054 2.606934 29.000000
7.693841 20.578192 2.660545 46.500000
7.790060 20.539867 2.660305 54.000000
7.495770 20.672993 2.663030 51.000000
7.177565 20.774408 2.661748 40.000000
7.951098 20.767469 2.693006 66.000000
-14.507923 20.975557 2.637381 10.000000
-14.213600 20.969736 2.619689 14.000000
-14.936543 21.095627 2.672971 27.500000
-14.698792 21.109465 2.660011 4.000000
7.163998 21.056150 2.693487 60.000000
3.530245 21.255407 2.609330 31.000000
3.628039 21.224808 2.607647 19.500000
3.978463 21.634491 2.663912 9.000000
-12.478746 22.101099 2.624626 12.000000
-12.829689 22.230621 2.654250 3.000000
-12.356456 22.374456 2.643142 22.000000
-12.624003 22.690166 2.685109 5.000000
-12.098562 23.034542 2.690595 24.000000
-9.834905 23.203356 2.606111 2.000000
-10.843871 23.307852 2.658365 20.000000
10.019615 23.894072 2.679349 29.000000
9.629742 24.015270 2.675646 8.000000
9.501842 24.023344 2.671531 20.000000
7.699292 24.918575 2.697041 2.000000
8.814391 -39.080753 2.739613 3.000000
9.737134 -38.622467 2.723785 2.000000
-6.717086 -31.737583 2.785705 10.000000
-6.301443 -31.737394 2.778518 3.000000
-6.490324 -31.646423 2.774069 12.000000
8.057867 -31.543245 2.795629 14.000000
7.369269 -25.784590 2.773159 13.000000
6.552688 -25.651089 2.737774 2.000000
6.347202 -25.514145 2.718848 21.000000
6.961061 -25.568031 2.740243 8.000000
8.523542 -25.254263 2.756289 5.000000
8.042118 -25.123562 2.727900 5.000000
9.072738 -25.049505 2.755055 24.000000
9.170524 -25.073193 2.760815 10.000000
7.891084 -24.921114 2.703213 9.000000
7.509956 -21.798141 2.792070 8.000000
7.195994 -21.544041 2.750713 3.000000
7.348674 -21.114384 2.707433 2.000000
7.499799 -21.120182 2.714165 0.000000
7.164047 -18.422398 2.744569 10.000000
6.942493 -18.363087 2.725864 12.500000
7.026123 -18.322788 2.724764 1.000000
7.753760 -18.143320 2.739618 27.000000
8.369463 -17.777897 2.728340 10.500000
-7.626108 -16.147743 2.799039 22.000000
6.779840 -16.097218 2.737719 5.333333
7.633433 -16.148653 2.799658 5.000000
-7.712374 -16.003670 2.784483 36.500000
-7.589759 -16.070852 2.785722 41.500000
6.958546 -16.003561 2.735241 28.000000
7.078145 -16.002892 2.742674 8.000000
6.823817 -15.898162 2.711704 4.000000
7.612728 -15.974761 2.773643 2.000000
8.582077 -15.094917 2.721614 15.000000
9.032101 -14.996349 2.743912 17.000000
9.224858 -14.682905 2.717898 7.000000
9.674889 -14.376064 2.716040 2.000000
6.810135 -14.006219 2.720917 22.500000
6.945121 -14.058538 2.739504 21.500000
7.110541 -14.076475 2.755223 4.666667
7.207757 -13.976739 2.747421 18.000000
7.433642 -13.566582 2.702675 16.000000
8.143032 -13.568320 2.764631 5.500000
7.970360 -13.423615 2.727457 13.000000
8.073422 -13.262782 2.712656 23.000000
8.856408 -13.071031 2.758435 13.000000
7.013288 -12.431359 2.751432 29.000000
7.129663 -12.454016 2.766322 20.000000
6.693348 -12.312237 2.701461 27.000000
6.765491 -12.306350 2.707139 12.500000
7.202284 -12.369795 2.759255 20.666666
7.620472 -12.304943 2.790046 12.000000
7.613364 -12.207624 2.773389 1.000000
7.158617 -12.148071 2.718118 26.000000
7.756515 -11.808198 2.723418 38.000000
7.883954 -11.799171 2.735532 3.000000
7.807755 -11.764974 2.721904 53.000000
7.107045 -9.422454 2.710886 24.000000
7.808965 -9.289887 2.787536 4.000000
9.139400 -9.053667 2.715214 5.000000
9.350966 -9.033279 2.744126 21.000000
9.472623 -9.036472 2.763125 5.000000
6.497661 -7.930122 2.739968 29.000000
6.650859 -7.912214 2.762431 20.500000
7.091373 -7.695612 2.796771 4.000000
7.758977 -7.758999 2.724254 11.500000
9.315377 -7.780506 2.787835 9.666667
9.347060 -7.675056 2.777985 16.333334
7.124627 -7.328975 2.731705 10.000000
7.212463 -7.100050 2.704853 40.000000
8.940469 -6.867704 2.798950 23.000000
8.659564 -6.608769 2.704496 7.000000
8.200752 -6.506831 2.797803 36.000000
8.479358 -5.939517 2.766820 38.000000
8.579351 -5.654892 2.746164 2.000000
9.331378 -5.657963 2.709315 3.000000
9.191723 -4.738110 2.763722 1.000000
8.308061 15.614526 2.772281 37.200001
8.396564 15.568065 2.772405 28.000000
8.524678 15.687443 2.798419 24.000000
-15.927863 15.767443 2.714165 11.000000
8.246075 15.759885 2.787889 21.000000
7.795505 15.983154 2.787270 13.000000
7.831731 15.930214 2.782315 17.000000
7.134559 16.077286 2.756920 40.000000
6.972778 16.162712 2.759026 28.799999
7.074574 16.146948 2.763114 34.000000
7.255598 16.144436 2.774263 27.000000
6.366302 16.311895 2.744532 33.000000
-10.989591 16.329603 2.733016 30.000000
6.452958 16.331621 2.752378 34.666668
-10.943746 16.484150 2.747319 0.000000
6.325571 16.435732 2.760326 5.500000
-10.907252 16.655333 2.764373 8.000000
-10.755093 16.650318 2.752270 19.000000
-10.874311 16.719410 2.769324 29.000000
-10.769053 16.787401 2.769324 6.000000
9.924630 16.970369 2.729715 27.000000
-10.527532 17.112261 2.789679 17.000000
9.913046 17.073420 2.741268 40.000000
10.054310 17.068830 2.750620 25.000000
1.816087 17.221087 2.714182 7.000000
9.268650 17.249672 2.718988 9.000000
9.550524 17.315025 2.745669 26.000000
9.678480 17.289249 2.751170 26.000000
9.754156 17.296717 2.757221 45.000000
9.956310 17.272673 2.768224 38.000000
1.888958 17.388155 2.741435 18.000000
2.249417 17.391010 2.748558 5.000000
9.908729 17.357798 2.775192 28.333334
1.975602 17.420263 2.747939 12.500000
2.121117 17.476812 2.759397 3.000000
2.172592 17.442612 2.755062 3.000000
8.896384 17.535732 2.730265 8.000000
9.268091 17.781155 2.784177 31.000000
-19.450253 17.967037 2.738186 10.000000
-14.191086 18.105078 2.785818 15.000000
-13.610672 18.055414 2.738210 33.000000
-13.630056 18.199793 2.753598 20.000000
-12.711154 18.439705 2.712242 13.000000
-13.249658 18.527411 2.758407 10.000000
-13.156883 18.520388 2.751194 16.000000
-12.344574 18.587105 2.702143 1.000000
-13.173346 18.729977 2.773075 8.000000
-12.215634 18.904190 2.725707 10.000000
-12.147833 19.060938 2.737248 12.000000
4.103564 19.076427 2.709361 17.000000
11.570286 19.097290 2.704067 32.000000
4.248178 19.162384 2.725314 4.000000
2.859780 19.250006 2.702209 28.500000
-12.032877 19.414598 2.766102 3.000000
1.739239 19.411266 2.706060 0.000000
2.612981 19.326374 2.707894 17.333334
3.344193 19.360809 2.728065 7.000000
3.519022 19.460640 2.745944 11.500000
3.646020 19.463448 2.749520 25.000000
3.746659 19.492767 2.756121 21.000000
2.317071 19.606153 2.741268 15.000000
2.564289 19.583345 2.742368 8.000000
3.044303 19.642771 2.759972 11.000000
3.163935 19.665325 2.765657 28.666666
3.271216 19.674564 2.769324 5.000000
4.053450 19.746870 2.799031 2.000000
-17.230753 19.842686 2.717613 11.000000
2.288960 19.904606 2.781977 8.000000
-18.078711 20.043243 2.791263 5.000000
-10.154457 20.304529 2.749270 47.000000
-10.046496 20.247398 2.737248 56.000000
-16.741554 20.352489 2.725225 1.000000
-10.591198 20.371538 2.780529 11.000000
-10.476936 20.385868 2.775720 69.000000
-10.328928 20.412315 2.770430 65.000000
9.491758 20.438900 2.729073 21.000000
9.384599 20.545092 2.735325 6.000000
9.477337 20.576822 2.743500 4.000000
9.808536 20.610289 2.764178 2.000000
-16.485142 20.761829 2.741477 7.000000
9.793346 20.916058 2.796879 30.000000
8.105053 20.972034 2.722821 44.000000
8.265404 21.090696 2.743259 91.500000
8.587860 21.096582 2.758407 32.000000
-15.613702 21.123827 2.716379 3.000000
7.123157 21.153818 2.703105 5.000000
7.588843 21.206480 2.727630 5.000000
8.753865 21.185871 2.776040 27.333334
8.929655 21.294811 2.796398 26.000000
4.392269 21.881777 2.702784 43.666668
4.234007 21.925083 2.704227 45.333332
4.496395 21.924152 2.710318 52.000000
-14.375284 22.246336 2.739009 12.000000
-13.921061 22.226406 2.712059 24.000000
-14.346157 22.355007 2.746826 31.000000
-14.228806 22.326153 2.737774 1.000000
-13.784609 22.397804 2.719671 2.000000
3.499750 22.374485 2.742538 6.000000
3.372057 22.482428 2.753118 2.000000
5.022484 22.505888 2.792551 8.500000
-13.644774 22.646002 2.734071 4.000000
4.272273 22.632015 2.789185 25.000000
-12.137164 23.345112 2.720905 29.000000
-13.009045 23.731993 2.798669 0.000000
6.167994 25.553967 2.718436 1.000000
6.949462 25.595928 2.742712 1.000000
-5.941611 -33.188259 2.895216 11.000000
-6.784974 -33.083122 2.900008 22.000000
-6.359697 -33.118805 2.895901 20.000000
-6.125308 -33.017044 2.883581 1.000000
7.622759 -32.834728 2.894532 5.000000
-5.650299 -32.745804 2.853465 40.000000
7.692079 -32.667088 2.881870 7.000000
8.642179 -32.548275 2.891794 1.000000
7.325109 -32.477657 2.858941 1.000000
9.164275 -32.450703 2.895559 4.000000
8.793125 -32.297218 2.874341 2.000000
-7.146056 -32.260410 2.837381 3.000000
9.512605 -32.258869 2.888030 8.333333
-7.226391 -32.144482 2.829167 1.000000
8.324616 -31.754137 2.818901 16.000000
7.976266 -31.637962 2.801789 20.000000
8.986912 -31.444616 2.808292 10.000000
5.476211 -26.820637 2.830761 8.000000
6.664178 -26.788307 2.854626 14.000000
7.414557 -26.573870 2.852980 1.000000
7.241401 -26.433884 2.834259 15.000000
8.330678 -26.309412 2.853803 29.000000
8.689343 -26.289541 2.863266 36.000000
6.930385 -26.212009 2.803743 34.666668
7.380140 -26.133081 2.808132 13.000000
8.832726 -26.170336 2.856272 10.000000
8.826283 -25.882618 2.827882 10.000000
9.778835 -25.608215 2.834671 2.000000
9.862766 -25.467270 2.824178 1.000000
9.103053 -18.499847 2.862845 4.000000
8.736920 -18.333799 2.819936 23.000000
9.083672 -18.314985 2.838640 17.000000
9.626411 -17.968235 2.830388 8.000000
9.920937 -17.839052 2.834239 17.000000
9.790168 -17.734858 2.812784 14.000000
7.525246 -16.451733 2.835583 23.000000
7.594406 -16.197601 2.803994 4.000000
8.967251 -15.657701 2.828150 2.000000
6.993343 -14.794531 2.858943 13.000000
7.007580 -14.704903 2.845863 1.000000
7.952136 -14.193746 2.842421 2.000000
8.922991 -13.909661 2.887167 5.000000
7.465371 -12.578117 2.819574 26.000000
7.557759 -12.553341 2.824621 28.333334
7.641383 -12.455059 2.816798 20.000000
8.636361 -11.926281 2.838502 23.000000
8.874823 -11.807267 2.847336 10.333333
8.101427 -11.040872 2.890336 0.000000
7.843883 -10.903867 2.834991 1.000000
7.981402 -10.949247 2.859772 20.000000
9.020484 -9.820018 2.814340 0.000000
9.258003 -9.704889 2.830861 11.000000
8.030066 -9.392043 2.838279 34.666668
8.026917 -9.309125 2.823354 6.000000
8.915272 -8.776320 2.873499 13.000000
7.618998 -8.669470 2.865454 2.000000
7.683642 -8.633029 2.869310 33.000000
7.767235 -8.603661 2.877743 41.750000
8.836063 -8.589695 2.830518 7.000000
7.999166 -8.491479 2.896297 8.000000
9.320175 -8.374243 2.877977 12.000000
9.546383 -8.127483 2.879768 4.000000
7.471834 -7.783393 2.883524 30.000000
8.402632 -7.718499 2.832685 1.000000
8.555070 -7.590174 2.839431 3.500000
7.294882 -7.551432 2.806066 0.000000
8.763047 -7.532021 2.868828 17.500000
8.865897 -7.500118 2.883125 16.333334
9.137956 -6.838552 2.833648 6.000000
9.303759 -6.604506 2.832685 7.000000
8.204428 -6.551854 2.806066 7.000000
9.531171 -6.543245 2.870274 6.000000
9.282737 -6.458881 2.807625 49.000000
9.533523 -6.457107 2.858708 3.000000
8.769979 -5.939954 2.830853 0.000000
8.941484 -5.933963 2.868032 4.000000
8.757782 -5.871591 2.817943 16.500000
8.866026 15.896457 2.852926 30.000000
8.213861 15.941360 2.810807 13.000000
-17.129938 16.024303 2.840640 8.000000
8.327638 16.038227 2.832486 19.000000
-16.961609 16.271286 2.846411 17.000000
7.387842 16.301531 2.805233 29.000000
-16.742195 16.366573 2.835351 2.000000
-16.403404 16.443527 2.812748 7.000000
-16.230091 16.475546 2.800726 12.000000
7.542079 16.435303 2.834344 32.500000
-11.913023 16.609293 2.838090 16.500000
7.681017 16.532221 2.857261 11.000000
-11.147086 16.905445 2.811684 20.000000
-10.626563 17.395443 2.830388 43.000000
-10.882312 17.442423 2.854593 3.000000
-10.162038 17.743921 2.839190 21.000000
-10.007505 17.731512 2.827087 3.000000
-10.436886 17.832006 2.868897 44.000000
-14.729293 17.963676 2.813229 31.000000
-14.619654 17.983097 2.806657 22.333334
-9.749902 18.198730 2.866696 7.000000
-15.040934 18.226652 2.861800 1.000000
-9.701975 18.246765 2.869447 19.000000
-14.104528 18.348209 2.802650 20.000000
-9.644114 18.416170 2.886501 38.000000
-9.591695 18.456923 2.888151 1.000000
-13.763017 18.866892 2.828137 13.000000
-14.193849 19.077236 2.879593 8.000000
-19.785240 19.341347 2.861209 29.000000
-13.162291 19.353210 2.834389 8.500000
-19.299555 19.427912 2.831859 50.000000
-13.124193 19.494097 2.845930 2.000000
-19.288731 19.580442 2.842282 45.000000
-12.710257 19.534742 2.822366 29.000000
3.992963 19.767275 2.800131 17.000000
-12.121863 19.835432 2.815153 13.000000
-12.760346 20.022022 2.875265 10.000000
-12.535338 20.084127 2.867090 4.000000
2.051961 20.061863 2.800131 0.000000
-12.570506 20.282043 2.889692 18.000000
-11.124400 20.293894 2.802650 82.000000
2.016278 20.344198 2.838640 1.000000
-11.079732 20.440323 2.815634 39.500000
-10.988922 20.502834 2.817076 2.000000
11.856097 20.428181 2.860357 41.000000
12.064809 20.490160 2.879593 1.000000
-18.237087 20.606028 2.845574 4.000000
-17.537905 20.716616 2.806898 9.000000
11.924688 20.695854 2.892577 7.000000
-17.562384 20.878174 2.821298 35.000000
9.032095 21.350769 2.807459 1.000000
8.585348 21.606953 2.815634 56.000000
8.016309 21.752537 2.807459 16.000000
9.852533 21.750053 2.891615 29.000000
7.705343 21.856173 2.806497 11.000000
7.987413 21.885794 2.821404 2.000000
7.182134 22.012791 2.804092 21.000000
8.803934 21.955818 2.864685 39.000000
8.945850 22.108423 2.888249 10.000000
7.090794 22.205013 2.822847 1.000000
-16.051376 22.296774 2.841048 1.000000
5.145204 22.555571 2.801688 10.000000
5.819503 22.551054 2.820443 1.000000
5.673627 22.874695 2.854105 2.000000
5.675356 23.193266 2.891615 1.000000
-12.999071 23.891577 2.812658 4.000000
-12.908830 23.904287 2.809366 30.000000
-12.959604 24.179680 2.836933 32.000000
-12.941495 24.329172 2.849688 33.000000
-12.336095 25.059221 2.888364 4.000000
7.038011 26.247889 2.810189 4.000000
8.273497 26.481722 2.869026 7.000000
6.270990 26.715532 2.837756 0.000000
8.464428 26.650976 2.891656 5.500000
7.454669 26.789864 2.875609 3.000000
7.583021 26.923332 2.892479 6.000000
6.021696 27.184570 2.879313 4.000000
2.787447 27.299726 2.837756 2.000000
2.721647 27.510283 2.858740 1.000000
2.642034 27.589987 2.866146 1.000000
-6.294688 -33.930046 2.963319 27.000000
-5.284297 -33.783382 2.936284 8.000000
-5.488766 -33.702312 2.932177 19.000000
-5.166065 -33.721031 2.929439 3.000000
-7.346304 -33.664967 2.958870 4.000000
-6.133034 -33.647762 2.936968 8.000000
-5.583519 -33.618065 2.926359 19.000000
-7.104928 -33.570099 2.946550 38.000000
-6.543146 -33.505451 2.931492 8.000000
-5.677132 -33.529629 2.920199 29.000000
7.332301 -33.488529 2.943812 14.000000
-5.875275 -33.422646 2.914039 15.000000
6.987813 -33.419617 2.931834 14.000000
7.992752 -33.472298 2.955106 3.000000
-8.608932 -33.360306 2.958528 14.000000
-8.501132 -33.375595 2.957501 15.000000
-6.294060 -33.342258 2.913697 28.000000
9.374400 -33.194759 2.961950 9.000000
9.749454 -32.558548 2.918488 9.000000
7.651385 -27.759262 2.977648 2.000000
7.137657 -27.579426 2.945967 10.000000
8.528624 -27.231529 2.950904 26.000000
9.041642 -27.069714 2.951316 9.000000
8.353560 -26.969339 2.919634 9.000000
8.219857 -26.835667 2.902354 39.000000
9.760645 -26.428972 2.913463 12.000000
6.802086 -20.376556 2.982772 8.000000
6.898812 -20.381636 2.987723 6.666667
7.353712 -19.922398 2.948665 5.000000
7.360919 -19.750694 2.926660 5.000000
8.016038 -19.780722 2.963518 11.000000
8.075143 -19.748108 2.962418 1.000000
8.737582 -19.754692 2.999276 16.000000
7.424480 -19.637938 2.915107 9.500000
7.521200 -19.613855 2.916757 6.000000
8.602687 -19.285711 2.932161 6.000000
9.389181 -18.782497 2.915657 16.000000
7.124804 -17.741400 2.996625 32.000000
7.140433 -17.620043 2.979901 23.000000
7.724870 -17.391195 2.982689 21.000000
8.858795 -16.535437 2.940260 26.000000
9.182734 -16.511675 2.961320 11.000000
8.747437 -16.451534 2.920440 19.000000
7.503732 -15.010769 2.931913 18.000000
8.343356 -14.782935 2.965645 2.000000
7.752919 -14.692287 2.902312 9.000000
8.451742 -14.757573 2.971152 15.000000
7.855359 -14.662271 2.906098 7.000000
7.953874 -14.624859 2.908508 20.000000
8.498769 -14.625819 2.955319 25.000000
8.776239 -14.571533 2.971841 6.000000
8.983179 -14.398454 2.964957 14.000000
6.663332 -13.988811 2.986901 14.000000
9.050023 -14.010647 2.914015 6.000000
6.154028 -13.920135 2.933902 0.000000
6.209670 -13.849483 2.925825 14.333333
6.411994 -13.794545 2.932387 3.000000
6.493635 -13.856133 2.949801 14.000000
7.492290 -13.477587 2.972515 6.000000
8.328291 -13.108110 2.993715 20.333334
8.160518 -12.725962 2.914216 16.000000
8.234543 -12.753057 2.926330 9.000000
8.786929 -12.214805 2.900588 14.000000
8.917922 -12.153616 2.905887 0.000000
7.425422 -11.973165 2.973602 22.799999
7.558775 -11.952134 2.984781 5.000000
7.690387 -11.869358 2.985056 10.500000
7.790829 -11.779549 2.980788 45.500000
8.500813 -10.994799 2.933290 16.000000
8.544927 -10.980393 2.936595 14.000000
8.899066 -9.387499 2.971103 3.000000
9.473223 -8.404770 2.908870 2.500000
9.032279 -6.369213 2.953753 19.000000
-11.413346 15.278870 2.989192 20.666666
-18.736847 15.638674 2.955574 4.000000
-18.437754 15.886986 2.947399 10.000000
-18.420757 15.973444 2.952689 10.000000
-17.495876 16.469986 2.909889 1.000000
9.016089 16.468225 2.942738 16.000000
9.092593 16.484802 2.950790 28.000000
9.330715 16.485260 2.969062 25.500000
1.545465 16.660316 2.923193 4.666667
7.916369 16.762350 2.905574 1.000000
7.965593 16.730263 2.904335 3.000000
-10.621632 18.017563 2.904104 14.000000
4.877072 18.062710 2.932518 26.000000
4.966862 18.056694 2.935305 11.000000
4.726497 18.184366 2.944906 8.500000
5.072326 18.216120 2.963797 19.000000
5.185072 18.287033 2.979282 41.500000
11.101685 18.251884 2.966269 33.000000
5.335576 18.341114 2.993941 32.666668
11.029866 18.327784 2.970119 37.000000
10.965033 18.481911 2.983872 25.000000
1.923216 18.803135 2.962558 16.000000
2.522871 18.807865 2.974327 6.000000
1.993883 18.907038 2.979901 3.000000
8.966394 19.141203 2.934911 3.000000
9.082318 19.231165 2.953066 49.000000
9.151205 19.220423 2.955816 16.000000
9.394470 19.261518 2.975621 38.000000
-14.329759 19.386778 2.919507 39.000000
9.359797 19.344435 2.983872 23.000000
-13.435925 20.093094 2.927201 12.000000
-14.336657 20.181103 2.997893 11.000000
-13.359955 20.533281 2.966635 3.000000
-12.665135 20.871504 2.956536 5.000000
-12.941719 21.028242 2.990198 5.000000
11.713834 21.088892 2.921431 5.000000
-12.317390 21.188906 2.968077 8.000000
3.482697 21.151516 2.976446 16.500000
12.032111 21.502483 2.983947 28.000000
9.860631 21.951145 2.914217 28.000000
9.728933 22.027199 2.916141 43.000000
9.882106 22.185150 2.941147 28.000000
9.745704 22.254078 2.942109 2.000000
9.535535 22.344940 2.942109 24.000000
-9.733583 22.471558 2.965673 7.500000
9.737422 22.426643 2.960864 24.000000
6.977709 23.096718 2.921911 7.000000
5.388741 23.970243 2.975291 11.000000
5.115060 24.168154 2.991641 7.000000
-12.497518 26.002756 2.983409 16.000000
-12.455153 26.124493 2.992872 18.000000
-10.804477 26.174711 2.928275 2.000000
5.897120 27.578129 2.916343 26.000000
8.117334 27.813168 2.996164 3.000000
-5.236515 -35.677048 3.096444 22.000000
-5.117617 -35.645985 3.092338 31.000000
-7.092556 -35.143501 3.078649 8.000000
8.026324 -35.072910 3.089600 9.000000
-9.017220 -34.942455 3.098840 24.000000
-8.201138 -34.938301 3.081729 24.000000
-8.874938 -34.843166 3.087547 25.000000
-8.268406 -34.734016 3.065986 17.000000
-8.031132 -34.703751 3.058800 7.000000
8.175289 -34.719208 3.062907 4.000000
-9.049334 -34.617062 3.072489 15.000000
-8.477005 -34.642673 3.062564 11.000000
-8.350369 -34.595524 3.056062 20.000000
7.355212 -34.633286 3.040320 1.000000
8.624394 -34.667877 3.067698 5.000000
7.672651 -34.523521 3.036897 5.000000
-8.575975 -34.117184 3.020813 26.000000
6.656561 -20.807592 3.033384 17.000000
6.759760 -20.572100 3.006703 14.000000
8.209288 -20.441860 3.058689 6.000000
7.983776 -20.154282 3.010004 39.000000
8.884283 -19.749990 3.006978 1.000000
9.247229 -19.722797 3.024582 28.000000
7.019701 -18.135408 3.048035 3.000000
7.075204 -18.109587 3.047415 15.000000
7.124810 -18.068890 3.044318 21.000000
7.358784 -17.996222 3.047415 12.000000
7.720139 -17.908756 3.056706 23.000000
7.090950 -17.818771 3.005916 30.000000
7.373081 -17.870729 3.030072 5.000000
8.079300 -17.445208 3.013349 7.500000
8.996324 -17.048620 3.021401 1.000000
9.491452 -16.941267 3.043699 4.000000
7.895819 -15.550056 3.046877 1.000000
7.969246 -15.453399 3.037698 8.333333
8.828851 -15.304351 3.086804 6.000000
9.006712 -15.278167 3.098507 2.000000
8.526081 -14.996428 3.013833 2.000000
9.257486 -14.942437 3.070971 6.000000
9.671705 -14.836311 3.094147 5.000000
9.273033 -14.555746 3.015210 0.000000
10.023453 -14.497322 3.079232 0.000000
10.073584 -14.424076 3.073725 3.000000
9.800366 -14.318371 3.031388 17.500000
6.659621 -14.094905 3.005072 1.000000
6.782056 -14.123596 3.020215 25.000000
7.136104 -13.897278 3.011508 8.000000
8.795350 -13.029880 3.030437 3.000000
7.831374 -10.922604 3.087064 6.500000
7.919859 -10.793426 3.074976 8.000000
7.907406 -10.705773 3.057067 24.000000
7.968913 -10.718422 3.067812 1.000000
8.051600 -10.758880 3.086617 13.000000
9.069321 -9.920006 3.087288 7.000000
7.625009 -9.610026 3.045690 3.000000
9.098042 -9.537208 3.027517 1.000000
7.574327 -9.454299 3.007619 25.500000
9.079365 -9.457955 3.011399 9.000000
9.587323 -9.203554 3.052589 0.000000
7.379994 -8.668397 3.042572 44.000000
7.850814 -8.281713 3.049802 39.000000
9.262304 -8.322323 3.091472 5.500000
8.459628 -7.601049 3.039474 16.500000
8.632564 -7.459344 3.049114 6.333333
9.079780 -6.914389 3.050146 26.000000
9.182723 -6.917167 3.072523 17.000000
9.328841 -6.461972 3.032933 25.333334
9.421747 -6.424672 3.047736 23.000000
-11.112586 13.644813 3.074413 44.000000
-11.067884 13.810070 3.091967 25.000000
-9.948859 14.486516 3.070282 27.000000
-10.083959 14.584829 3.097819 18.000000
-16.769608 14.732459 3.099399 11.000000
-11.399011 15.427389 3.006535 5.000000
8.552936 15.448956 3.085083 19.500000
-11.139194 15.582030 3.002200 17.000000
8.496126 15.518492 3.090935 15.000000
8.266026 15.677913 3.096442 31.000000
8.004486 15.777703 3.090935 32.000000
8.141588 15.752469 3.097956 26.600000
7.974368 15.841486 3.098507 14.000000
6.694472 16.169893 3.057547 26.000000
5.672495 16.243389 3.005917 14.000000
-18.605616 16.443508 3.007030 0.000000
5.942501 16.433899 3.053072 0.000000
6.052441 16.494474 3.069594 9.000000
-18.788950 16.816967 3.053676 6.000000
-18.815685 16.947672 3.066660 6.000000
-18.853561 17.089369 3.081568 8.000000
-18.696638 17.108295 3.069065 12.500000
-8.939051 17.069798 3.020162 5.000000
9.762575 17.060223 3.080863 20.000000
9.871381 17.125332 3.098206 1.000000
-18.328600 17.253881 3.048387 28.000000
-8.440774 17.290827 3.015826 4.000000
2.265819 17.303947 3.048942 10.000000
1.889875 17.396597 3.057203 6.000000
1.962509 17.385889 3.056744 25.000000
2.273646 17.364433 3.059612 5.000000
2.445504 17.400795 3.069938 16.250000
-8.679183 17.499428 3.061661 6.000000
-8.587520 17.452148 3.048654 5.000000
1.845957 17.504330 3.075101 5.000000
2.069934 17.514971 3.081297 7.000000
2.162751 17.512997 3.082903 17.666666
-8.836596 17.677090 3.097586 9.000000
-17.631069 18.010548 3.052234 27.000000
-17.596554 18.088615 3.056081 15.000000
-18.009470 18.167324 3.097919 21.000000
5.459221 18.406389 3.009219 37.666668
11.118556 18.607222 3.009728 33.000000
11.428267 18.590919 3.030083 8.000000
-16.421112 18.910313 3.032998 7.000000
-10.877776 19.132790 3.055939 18.000000
2.660731 19.149967 3.030382 5.500000
3.046493 19.454496 3.086437 3.000000
1.688885 19.539698 3.074049 2.000000
1.944812 19.623110 3.090773 8.000000
9.121570 19.632792 3.005877 18.000000
-9.722737 19.916914 3.077394 29.000000
-9.802749 19.921820 3.082895 50.000000
-14.606271 20.111263 3.010075 27.000000
-14.534605 20.256866 3.019292 22.500000
-8.573033 20.236071 3.051538 3.000000
7.869945 20.258520 3.017705 54.000000
7.974791 20.245188 3.021281 50.000000
-14.330387 20.443117 3.023380 22.000000
-14.188102 20.513159 3.020495 3.000000
-15.089038 20.548761 3.087339 6.000000
-14.370467 20.637945 3.045501 5.000000
-14.020881 20.685410 3.026265 22.000000
7.530099 20.621561 3.048237 62.000000
-13.989086 20.778770 3.033479 28.000000
6.476861 20.833084 3.029258 7.500000
7.540725 20.853764 3.079044 38.000000
-14.007621 20.948050 3.051753 8.000000
-13.445154 20.951014 3.014724 2.000000
7.153986 21.014694 3.082345 52.000000
7.240632 20.945148 3.077118 63.000000
7.359596 20.968767 3.085645 19.000000
-13.281256 21.057606 3.014965 3.000000
-12.686296 21.511288 3.024342 14.000000
-12.784228 21.522541 3.031555 13.000000
12.185402 21.616783 3.005106 13.000000
4.255908 21.894863 3.097015 48.000000
4.346322 21.870386 3.096098 58.000000
1.862976 21.955685 3.059515 0.500000
-11.681139 22.127155 3.030113 0.000000
-18.517567 22.875462 3.043480 2.000000
-18.149797 23.006384 3.030314 5.000000
-18.853222 23.141056 3.086682 3.000000
9.930972 23.475605 3.086858 26.000000
8.756423 23.760864 3.066660 2.000000
5.601914 24.206726 3.008953 4.000000
-5.054387 -36.850101 3.193978 34.000000
-5.151851 -36.703804 3.182685 44.000000
-5.613871 -36.644043 3.183369 15.000000
-4.658956 -36.520535 3.161467 8.000000
-4.767983 -36.462250 3.157702 12.000000
-8.257100 -36.197536 3.188160 7.000000
-8.359998 -36.124825 3.184054 21.000000
-4.835937 -36.099487 3.127587 22.000000
-5.389362 -35.932369 3.120058 46.000000
9.105418 -35.643982 3.159071 3.000000
-6.930418 -35.488556 3.105000 11.000000
8.611774 -35.569664 3.142645 10.000000
8.727280 -35.557915 3.144014 15.000000
-7.038772 -35.450974 3.103631 24.000000
-8.734507 -35.215427 3.115609 19.000000
6.738035 -25.376865 3.179671 45.000000
6.831065 -25.247063 3.167408 8.000000
7.261334 -25.108124 3.165244 16.000000
8.055416 -25.165106 3.199868 15.000000
8.209666 -25.102674 3.198425 9.000000
6.869273 -24.921755 3.130619 7.000000
6.960340 -24.945950 3.136390 4.000000
7.039756 -24.927782 3.136871 16.000000
8.446276 -24.768263 3.169091 3.000000
7.875630 -21.131758 3.131306 12.000000
9.022699 -21.112560 3.187968 1.000000
9.155171 -21.055454 3.187968 4.000000
8.192163 -20.968542 3.125804 11.000000
8.457984 -20.871288 3.126905 1.000000
7.809408 -18.433577 3.137847 2.000000
7.826903 -18.314470 3.121742 45.000000
8.739239 -18.191284 3.163242 30.000000
9.065115 -18.205620 3.187708 7.500000
9.141015 -18.143322 3.184301 3.000000
8.885869 -18.058472 3.154570 25.000000
8.733314 -17.961498 3.130414 13.500000
8.512042 -17.861910 3.101302 26.000000
9.764872 -17.689034 3.166958 35.000000
9.390080 -15.480467 3.163217 6.000000
9.396316 -15.273493 3.132927 12.000000
7.389598 -14.731018 3.176942 20.500000
7.421623 -14.622494 3.161042 1.000000
7.050571 -14.565343 3.119400 1.000000
8.005644 -14.401039 3.176185 20.000000
7.858928 -14.033130 3.100471 14.000000
9.047432 -13.915867 3.199656 4.000000
6.201719 -13.792625 3.191843 5.000000
8.929100 -13.828736 3.173156 5.000000
7.168166 -13.284939 3.186061 3.000000
6.991513 -13.254978 3.162931 8.000000
7.060358 -13.233944 3.165823 18.500000
7.415022 -12.742756 3.111717 10.750000
7.534793 -12.740592 3.124107 14.000000
7.634900 -12.772158 3.140628 20.000000
8.687624 -12.116880 3.146824 11.000000
6.982908 -12.051024 3.199145 17.000000
6.983797 -11.894045 3.168103 19.000000
7.055681 -11.887847 3.175266 42.000000
8.791403 -11.981192 3.136498 2.000000
7.036986 -11.771928 3.150193 5.000000
7.641912 -11.515075 3.174371 51.000000
7.900798 -9.767126 3.118941 4.000000
8.096109 -9.570283 3.112194 3.000000
7.602669 -9.102373 3.169605 7.000000
