# This PCD file was generated using the MATLAB® pcwrite function
# from Computer Vision Toolbox®.
# .PCD v.7 - Point Cloud Data file format
VERSION .7
FIELDS x y z intensity
SIZE 4 4 4 4
TYPE F F F F
COUNT 1 1 1 1
WIDTH 1231
HEIGHT 1
VIEWPOINT 0 0 0 1 0 0 0
POINTS 1231
DATA ascii
-3.376276 -6.882947 -1.218363 3.666667
3.633818 -6.903422 -1.211879 3.000000
3.623463 -6.723962 -1.213864 2.500000
-3.414784 -6.441553 -1.289890 1.000000
3.530406 -6.429945 -1.297788 3.000000
3.532517 -6.269497 -1.273166 2.500000
-3.509200 -6.118207 -1.298604 1.400000
3.542056 -6.116649 -1.250518 2.500000
-3.968198 -5.919975 -1.260901 4.600000
3.631126 -5.831576 -1.201566 29.222221
3.703462 -5.762095 -1.211842 52.000000
3.935998 -5.759155 -1.234141 6.000000
4.430101 -5.830101 -1.295465 10.000000
3.781123 -5.723415 -1.213634 51.285713
4.075197 -5.716934 -1.224038 8.142858
4.491849 -5.576761 -1.266894 0.000000
4.814200 -3.058721 -1.216523 0.000000
8.900258 -1.328565 -1.269674 2.000000
8.986691 -1.312618 -1.281410 0.000000
-6.750293 -1.065519 -1.209054 8.000000
-6.538955 -1.053224 -1.291625 2.000000
-6.222441 -1.042396 -1.230374 4.000000
6.758134 -0.620985 -1.200692 5.000000
6.900279 -0.601260 -1.225431 8.500000
8.571012 -0.584226 -1.212114 3.500000
8.893854 -0.564230 -1.257380 13.000000
9.093264 -0.548203 -1.285322 10.000000
9.737444 -0.496685 -1.202690 2.000000
10.004637 -0.478807 -1.235500 2.000000
-11.483221 4.225006 -1.293593 5.000000
-11.331925 4.209804 -1.278033 1.000000
-11.230078 4.232237 -1.268781 1.000000
-11.068810 4.231194 -1.252800 1.000000
-10.946758 4.243714 -1.241235 1.000000
-10.762643 4.250304 -1.223362 1.000000
-10.639085 4.259638 -1.211587 2.000000
-7.299853 4.415726 -1.203732 5.000000
-6.869443 4.394798 -1.296002 28.000000
-6.720502 4.404307 -1.276958 9.500000
-6.599862 4.414849 -1.261891 7.500000
-6.419878 4.403199 -1.209284 48.400002
-6.267868 4.409950 -1.217944 45.333332
3.440901 -16.413406 -1.184747 16.000000
3.448406 -16.195681 -1.169807 70.000000
3.463012 -16.017069 -1.157686 4.000000
3.479097 -15.850220 -1.146411 3.000000
3.516728 -15.784688 -1.142464 0.000000
3.553982 -15.719076 -1.138518 0.000000
3.607374 -15.612713 -1.132035 0.500000
3.031034 -10.776392 -1.183515 0.500000
3.088845 -10.659641 -1.173317 0.000000
3.144049 -10.600585 -1.168972 0.000000
3.807295 -10.650919 -1.195816 10.000000
3.217749 -10.485555 -1.159580 0.000000
4.036483 -10.504437 -1.189718 2.000000
3.327297 -10.432141 -1.157652 1.750000
3.450442 -10.393579 -1.157810 1.375000
3.596581 -10.368768 -1.160280 0.000000
4.077057 -10.365890 -1.177628 0.000000
4.230413 -10.418159 -1.188772 0.500000
4.315904 -10.440120 -1.194344 0.000000
-2.270132 -9.298349 -1.180654 3.000000
-2.263093 -9.144732 -1.162045 2.000000
-2.274027 -9.006948 -1.145885 3.000000
-2.290769 -8.896172 -1.133153 3.000000
-2.308935 -8.795043 -1.121646 2.000000
3.746072 -8.825191 -1.182613 4.000000
-2.347263 -8.663595 -1.107200 2.000000
3.738941 -8.694395 -1.167432 6.000000
-3.273942 -8.625612 -1.138050 1.500000
-3.176989 -8.551799 -1.125318 1.000000
3.747435 -8.529075 -1.149150 3.666667
-3.862647 -8.447784 -1.145815 7.000000
-3.720960 -8.436274 -1.137365 7.800000
-3.569737 -8.413715 -1.127399 8.000000
-3.427907 -8.407967 -1.120030 3.400000
-3.288800 -8.405006 -1.113321 0.000000
-3.044780 -8.397282 -1.101813 0.000000
3.785067 -8.363752 -1.132419 3.750000
3.813643 -8.219702 -1.117728 2.500000
3.850400 -8.098223 -1.106098 2.000000
3.978104 -7.975355 -1.099365 1.500000
4.037107 -7.967910 -1.101813 4.000000
-3.345329 -7.296846 -1.132573 3.000000
-3.346128 -7.159702 -1.115063 3.666667
3.685615 -7.159243 -1.136113 4.500000
-3.348090 -7.047886 -1.100906 4.000000
3.625922 -6.989045 -1.180850 1.500000
-3.381321 -6.731963 -1.197227 7.333333
-3.401657 -6.590812 -1.178707 8.500000
3.612400 -6.579312 -1.192832 2.000000
-3.436157 -6.433012 -1.159056 8.400000
3.602068 -6.416362 -1.169394 2.333333
-3.476270 -6.269058 -1.139218 9.000000
3.602074 -6.277060 -1.150141 2.333333
-4.211029 -6.189367 -1.189693 11.000000
-3.529185 -6.116132 -1.158423 8.571428
3.597938 -6.117507 -1.153156 3.000000
-3.595956 -5.987221 -1.172729 66.071426
3.600225 -5.970610 -1.163643 3.333333
4.365872 -5.956554 -1.173684 25.333334
-4.007976 -5.930897 -1.137585 2.000000
-3.960702 -5.900818 -1.129424 1.000000
-3.866160 -5.892179 -1.140993 8.166667
-3.762418 -5.892450 -1.182884 26.142857
-3.690430 -5.919347 -1.162315 92.000000
4.248391 -5.951458 -1.162070 21.000000
4.368390 -5.824499 -1.157047 13.000000
3.954051 -5.713002 -1.166770 8.000000
4.293840 -5.687784 -1.132563 7.000000
4.376708 -5.685123 -1.140222 4.600000
4.527915 -5.694213 -1.156168 5.200000
-3.309140 -4.923512 -1.156873 23.200001
-3.262286 -4.781205 -1.174019 21.714285
-3.234712 -4.636134 -1.166827 28.500000
3.567484 -4.486549 -1.117826 0.000000
3.529527 -4.433143 -1.146272 0.000000
3.492934 -4.325651 -1.165213 0.000000
4.831537 -3.045913 -1.160244 0.000000
4.975049 -3.038710 -1.176753 0.000000
5.136374 -3.030252 -1.162999 0.250000
5.257845 -3.024559 -1.182905 0.000000
-6.430301 -1.045983 -1.152609 4.500000
8.282516 -0.702647 -1.172809 28.111111
8.424975 -0.627525 -1.191996 1.000000
9.170481 -0.539990 -1.133153 14.500000
9.501953 -0.514607 -1.173798 2.000000
10.659341 -0.443032 -1.127899 2.000000
-12.088629 4.190788 -1.127244 0.000000
-11.977434 4.236867 -1.119345 4.000000
-11.893018 4.206867 -1.111447 4.000000
-11.967547 4.318024 -1.120925 2.000000
-10.495428 4.259549 -1.197499 1.000000
-10.337944 4.271490 -1.182569 1.000000
-10.171566 4.277761 -1.166589 1.000000
-10.012834 4.285247 -1.151449 1.000000
-9.908580 4.296043 -1.141776 1.000000
-9.825788 4.296866 -1.133786 2.000000
-9.719973 4.305206 -1.123903 1.500000
-7.186430 4.408994 -1.189574 14.000000
-7.009577 4.407258 -1.168246 4.500000
-6.876309 4.399196 -1.151760 3.666667
-6.763783 4.417626 -1.139838 4.666667
-6.552335 4.391869 -1.140945 42.000000
-6.121240 4.408135 -1.198796 46.250000
-7.173167 4.463164 -1.191996 4.000000
0.049376 -20.207331 -1.075647 1.000000
1.625626 -20.029690 -1.069694 0.000000
0.111097 -19.891529 -1.058850 7.000000
0.203724 -19.786913 -1.053322 13.000000
1.509205 -19.748352 -1.054279 14.000000
0.325709 -19.643463 -1.045774 11.000000
0.478550 -19.582357 -1.042691 25.000000
1.247791 -19.560467 -1.043329 27.500000
1.375888 -19.625954 -1.047262 10.000000
0.631200 -19.542105 -1.040777 49.500000
0.784232 -19.525862 -1.040210 79.000000
0.937792 -19.523794 -1.040458 78.500000
1.061323 -19.533470 -1.041309 59.000000
1.154411 -19.546221 -1.042266 40.000000
-2.498196 -19.182625 -1.029721 1.000000
-2.549444 -18.881664 -1.014200 0.000000
-2.615265 -18.703304 -1.005270 0.000000
-2.767466 -14.452748 -1.039578 2.000000
3.368342 -14.271340 -1.035913 3.000000
-2.759468 -14.169828 -1.019846 2.000000
-2.777697 -13.914070 -1.002369 5.000000
3.043455 -11.584487 -1.055277 1.000000
3.045881 -11.375650 -1.037549 0.000000
3.059163 -11.213166 -1.024033 0.000000
3.156793 -11.223315 -1.027193 0.500000
3.079525 -11.149729 -1.019119 0.000000
3.162530 -11.043599 -1.012097 0.000000
3.178817 -10.906158 -1.000864 0.000000
-2.234359 -9.678072 -1.050098 4.000000
-2.221405 -9.419662 -1.023183 3.000000
-2.229547 -9.258255 -1.006782 2.000000
3.854550 -9.269203 -1.061312 2.333333
3.850708 -9.151528 -1.049677 4.000000
3.826643 -8.975953 -1.031594 3.500000
3.820444 -8.807582 -1.014982 3.000000
3.820315 -8.657845 -1.000474 3.000000
-2.454111 -8.500261 -1.091366 14.083333
-2.940432 -8.396567 -1.097406 0.000000
-2.823840 -8.400420 -1.093194 8.800000
-2.681870 -8.413489 -1.089277 25.600000
-2.573915 -8.440007 -1.088428 37.666668
3.906527 -8.073960 -1.000612 1.333333
3.919189 -7.982365 -1.096916 112.000000
-3.359118 -6.994360 -1.048748 19.166666
-3.382937 -6.869287 -1.080369 255.000000
3.649758 -6.877893 -1.006269 7.833333
-3.411128 -6.712358 -1.062346 255.000000
3.626379 -6.729365 -1.078552 218.000000
-3.438224 -6.560204 -1.045022 255.000000
3.619322 -6.591911 -1.061042 221.000000
-3.476647 -6.435445 -1.032030 132.000000
3.617964 -6.444677 -1.042787 187.000000
-3.493634 -6.323528 -1.019316 8.000000
3.627961 -6.322111 -1.028444 89.666664
-3.525749 -6.242031 -1.011492 9.250000
-3.582911 -6.116936 -1.000222 11.500000
3.612638 -6.138207 -1.004926 2.250000
-3.998102 -5.925062 -1.008512 10.111111
3.679963 -5.839273 -1.055731 25.833334
3.756371 -5.789625 -1.007193 70.181816
3.802219 -5.735810 -1.093639 97.750000
3.923989 -5.724747 -1.031997 16.142857
4.221035 -5.702127 -1.000986 4.600000
4.376723 -5.703606 -1.014380 4.833333
4.531853 -5.699230 -1.027363 7.400000
4.614280 -5.692064 -1.033846 3.000000
-3.350025 -4.957279 -1.058532 4.000000
-3.327796 -4.874759 -1.044247 20.500000
-3.316139 -4.776771 -1.028800 22.666666
-3.291252 -4.628347 -1.025114 34.799999
-3.277858 -4.492002 -1.034068 73.000000
3.619628 -4.459493 -1.016163 0.400000
-3.275810 -4.330116 -1.009673 158.250000
3.558014 -4.336199 -1.072062 0.892857
3.561145 -4.227556 -1.002984 0.750000
3.545080 -4.149939 -1.024920 0.600000
3.535808 -4.051574 -1.020747 1.000000
3.524831 -3.890358 -1.023781 4.000000
3.528836 -3.728615 -1.040167 2.666667
-4.775633 -3.500241 -1.047557 42.250000
-4.627211 -3.504346 -1.026941 42.500000
4.516966 -3.061618 -1.010316 0.000000
4.683963 -3.059116 -1.015175 0.000000
4.476230 -3.045470 -1.055810 0.000000
4.663952 -3.045948 -1.052710 0.000000
4.820909 -3.041600 -1.008498 0.000000
4.986545 -3.026886 -1.032052 0.000000
5.141277 -3.022328 -1.028214 0.500000
5.269012 -3.025985 -1.014148 0.000000
-6.736006 -1.055114 -1.068476 4.500000
-5.837855 -1.062977 -1.049822 4.500000
-6.256554 -1.027915 -1.007629 1.000000
-6.105954 -1.029404 -1.021305 2.333333
-5.970205 -1.048323 -1.017821 7.166667
19.275618 -0.983206 -1.027382 0.000000
19.295109 -0.882940 -1.028162 255.000000
-18.995274 -0.822704 -1.012073 2.000000
19.296808 -0.781787 -1.028020 255.000000
19.308641 -0.681020 -1.028445 156.000000
6.526262 -0.599679 -1.041531 2.000000
6.787821 -0.602214 -1.082966 0.000000
8.456185 -0.631346 -1.045988 0.000000
8.555042 -0.584680 -1.057740 0.000000
8.831081 -0.561795 -1.091529 3.000000
19.281670 -0.589124 -1.026851 1.500000
9.465301 -0.512622 -1.002156 1.000000
9.701252 -0.494839 -1.026968 1.000000
9.968968 -0.477100 -1.055144 1.000000
10.276405 -0.459460 -1.087526 2.000000
19.294973 -0.468190 -1.027382 0.500000
19.312963 -0.377573 -1.028233 0.000000
19.349997 -0.317487 -1.030146 0.000000
19.543854 -0.136444 -1.040352 0.000000
-11.493437 4.187812 -1.077745 0.000000
-11.385756 4.209392 -1.069495 0.000000
-11.229612 4.211987 -1.056682 0.000000
-11.101643 4.223718 -1.046501 0.000000
-10.909561 4.229294 -1.030879 0.000000
-10.780110 4.237705 -1.020523 0.000000
-10.630480 4.236764 -1.008236 0.000000
-9.437239 4.322707 -1.097409 4.500000
-8.964102 4.346910 -1.053252 0.500000
-8.834556 4.387306 -1.042844 0.250000
-8.721007 4.433983 -1.034328 1.000000
-7.269939 4.414969 -1.049171 5.500000
-7.183079 4.408700 -1.039622 10.000000
-7.035052 4.378831 -1.022156 31.666666
-6.889601 4.378935 -1.006975 40.000000
-6.422122 4.405813 -1.015840 42.400002
-6.295579 4.405330 -1.038534 43.500000
-6.119593 4.406949 -1.064023 45.750000
-5.964211 4.409910 -1.046559 47.000000
-5.812099 4.411476 -1.029515 48.500000
-5.669498 4.416617 -1.014007 50.000000
-8.649445 4.517954 -1.031678 1.600000
-8.603863 4.615294 -1.032225 3.000000
-8.586523 4.693220 -1.034538 8.666667
-2.686160 -18.572163 -0.998891 0.000000
-2.980255 -18.359962 -0.990103 0.000000
-2.814062 -18.433311 -0.992583 0.000000
-3.268261 -18.310888 -0.990103 1.000000
-3.121569 -18.319622 -0.989217 1.000000
3.574780 -16.534018 -0.900448 2.000000
-2.810536 -13.740552 -0.990812 3.000000
-2.851879 -13.615850 -0.982779 3.500000
-2.929513 -13.458529 -0.973054 5.000000
-2.895581 -13.506680 -0.975873 4.000000
3.215410 -10.779051 -0.991034 0.000000
3.247674 -10.702783 -0.985417 1.000000
3.318460 -10.635069 -0.981556 8.250000
3.468248 -10.586287 -0.981485 49.400002
3.546520 -10.489799 -0.975588 0.000000
3.610256 -10.461655 -0.975061 0.000000
4.055579 -10.407384 -0.984101 0.000000
4.239398 -10.440421 -0.992789 0.333333
4.330980 -10.407078 -0.993140 0.000000
-2.239860 -9.112448 -0.992063 2.000000
-2.261054 -8.955490 -0.976503 2.000000
-2.314722 -8.760870 -0.957999 5.000000
-2.291336 -8.840990 -0.965569 2.000000
-2.347148 -8.717216 -0.954424 11.500000
-2.422434 -8.566452 -0.941177 29.000000
-2.387085 -8.648606 -0.948537 23.000000
-2.517511 -8.493937 -0.936621 30.333334
3.831480 -8.537498 -0.989329 2.000000
-3.873552 -8.437024 -0.981503 6.777778
-3.719070 -8.431994 -0.974316 8.000000
-3.574533 -8.425005 -0.967566 8.000000
-3.429628 -8.412221 -0.960438 7.800000
-3.271954 -8.400558 -0.953121 5.800000
-3.119916 -8.397972 -0.947149 6.600000
-2.973011 -8.404696 -0.942523 8.400000
-2.830463 -8.420203 -0.939158 9.000000
-2.676295 -8.441773 -0.936271 11.333333
3.845423 -8.426399 -0.979236 2.000000
3.863974 -8.328098 -0.970615 2.000000
3.888348 -8.211218 -0.960522 1.000000
3.961794 -8.037308 -0.947345 1.000000
4.039722 -7.973133 -0.944962 0.000000
-3.405574 -7.343394 -0.998487 1.000000
-3.384363 -7.179446 -0.979063 3.333333
3.692506 -7.203386 -0.998487 3.000000
3.664219 -7.066098 -0.981838 1.000000
-4.174694 -6.660197 -0.969595 0.000000
-3.396133 -6.737476 -0.903962 5.600000
-3.422956 -6.578504 -0.914750 5.500000
3.611241 -6.579916 -0.925849 3.333333
-3.465908 -6.437158 -0.901822 8.200000
3.607705 -6.429024 -0.909363 4.666667
-3.727563 -5.969943 -0.993051 39.375000
-3.638516 -6.036396 -0.994448 22.500000
3.657898 -5.997517 -0.991188 10.666667
-3.871319 -5.927137 -0.998863 20.200001
3.886027 -5.763419 -0.980756 12.000000
4.076143 -5.710142 -0.989884 6.833333
4.677882 -5.688869 -0.908517 4.636364
-3.339808 -4.886799 -0.940663 6.000000
3.530053 -3.988135 -0.923149 0.400000
3.534186 -3.732312 -0.909404 0.666667
-5.066426 -3.501533 -0.978750 39.000000
-4.933145 -3.500762 -0.988302 36.625000
-4.882699 -3.508545 -0.955521 44.000000
3.551517 -3.510842 -0.973887 1.000000
4.850904 -3.050017 -0.910633 0.000000
5.100915 -3.031082 -0.942965 0.000000
5.420147 -3.016732 -0.985813 0.000000
-18.550758 -0.745075 -0.988260 25.000000
-18.465193 -0.683545 -0.983582 51.000000
-18.433134 -0.566320 -0.981669 38.333332
-6.241809 -0.586728 -0.996329 1.000000
6.237258 -0.592890 -0.995701 3.000000
6.356111 -0.604188 -0.900843 2.000000
6.507855 -0.597988 -0.922079 1.000000
8.552371 -0.611501 -0.906482 0.000000
8.714823 -0.568085 -0.923304 0.500000
8.890130 -0.537514 -0.941598 1.000000
9.205508 -0.527563 -0.974821 2.000000
10.341569 -0.462373 -0.912046 1.000000
-18.440380 -0.450672 -0.981881 18.000000
-18.317909 -0.390105 -0.975290 35.000000
10.776914 -0.447919 -0.950311 2.000000
11.076890 -0.425531 -0.976641 1.000000
11.245420 -0.396628 -0.991385 0.000000
-18.305292 -0.274793 -0.974510 46.000000
-18.305386 -0.159748 -0.974440 1.000000
-12.014731 4.249920 -0.900329 0.000000
-10.470732 4.249536 -0.995598 1.000000
-10.305733 4.258170 -0.982433 0.000000
-10.146545 4.267236 -0.969795 0.500000
-10.005974 4.282307 -0.958912 0.500000
-9.907074 4.295390 -0.951365 0.000000
-9.831470 4.299350 -0.945397 1.000000
-9.727316 4.308462 -0.937322 0.500000
-9.592873 4.321237 -0.926966 0.500000
-9.425312 4.335043 -0.914036 3.333333
-9.283962 4.358768 -0.903621 0.000000
-6.729324 4.381614 -0.990530 45.000000
-6.572275 4.397943 -0.975472 46.500000
-5.970018 4.415826 -0.915974 45.750000
-5.821579 4.420274 -0.901650 47.500000
-5.530777 4.421377 -0.999058 51.000000
3.575325 -16.288618 -0.887690 1.000000
3.578706 -16.062872 -0.875996 0.000000
3.601845 -15.930776 -0.869405 0.000000
3.660223 -15.728871 -0.859625 0.000000
3.422653 -11.674296 -0.859456 1.000000
3.429811 -11.564029 -0.852127 1.000000
3.436942 -11.391125 -0.840570 1.000000
3.463157 -11.222516 -0.829717 0.500000
3.496995 -11.084474 -0.821120 0.000000
3.534751 -10.963543 -0.813791 0.000000
3.565295 -10.882307 -0.808999 0.000000
3.625710 -10.780195 -0.803502 0.000000
3.726431 -10.688841 -0.799697 0.000000
4.278257 -10.488780 -0.800261 2.000000
4.335265 -10.486953 -0.801670 2.000000
-2.288574 -9.772727 -0.884313 4.000000
-2.269547 -9.556146 -0.865356 3.000000
-2.261307 -9.390141 -0.850962 3.000000
-2.261500 -9.262994 -0.840080 3.000000
3.917145 -9.228213 -0.883260 3.000000
-2.263788 -9.147543 -0.830250 2.000000
3.878675 -9.058357 -0.868164 3.000000
-2.272673 -9.001560 -0.817963 2.000000
-2.289289 -8.890422 -0.808835 1.000000
3.861295 -8.940046 -0.857983 3.000000
-2.310387 -8.800526 -0.801639 1.000000
3.851169 -8.840201 -0.849558 3.000000
3.840464 -8.703484 -0.838149 9.500000
3.853027 -8.621621 -0.832005 2.000000
-4.007074 -8.515318 -0.829158 6.777778
-3.869798 -8.518946 -0.824370 7.000000
-3.722429 -8.511967 -0.818525 6.200000
-3.572978 -8.495466 -0.811995 4.000000
-3.426559 -8.480804 -0.805887 4.000000
-3.287077 -8.478846 -0.801200 3.000000
3.858248 -8.525328 -0.824458 1.500000
3.871271 -8.378417 -0.813165 1.000000
3.943903 -8.228155 -0.803921 4.833333
4.014924 -8.145044 -0.800059 4.000000
-3.427090 -7.289697 -0.851601 1.666667
-3.387652 -7.127955 -0.834359 2.000000
3.687842 -7.138947 -0.849499 20.000000
-3.382370 -7.031264 -0.824897 3.500000
3.676250 -7.035134 -0.839195 4.500000
-3.383240 -6.878503 -0.868257 4.857143
3.652336 -6.883637 -0.823845 1.500000
3.634914 -6.722809 -0.841617 2.500000
-3.526262 -6.263440 -0.886641 16.400000
-3.494780 -6.346482 -0.893693 9.000000
3.613262 -6.276295 -0.893325 5.000000
-3.597416 -6.161324 -0.880079 7.200000
-3.704305 -6.099788 -0.880308 98.000000
3.621723 -6.133908 -0.878675 2.000000
-4.156004 -5.972549 -0.897540 6.428571
-4.031048 -5.962626 -0.887816 7.600000
-3.874406 -5.970391 -0.877953 7.142857
-3.770657 -6.015710 -0.875770 79.000000
3.648364 -6.005298 -0.866760 11.800000
3.734507 -5.955656 -0.867127 21.500000
3.784907 -5.830427 -0.857455 36.833332
3.924554 -5.783290 -0.862142 10.000000
4.063122 -5.760765 -0.869575 9.250000
4.117021 -5.750519 -0.872391 8.500000
4.232875 -5.739035 -0.879655 7.333333
4.377370 -5.725219 -0.888992 6.200000
4.519855 -5.704486 -0.897774 6.000000
-3.360172 -4.883626 -0.836390 1.333333
-3.340170 -4.802401 -0.854172 15.555555
-3.300225 -4.628606 -0.852517 24.375000
3.701401 -4.565958 -0.829312 0.000000
-3.263551 -4.472351 -0.879871 28.250000
3.666685 -4.469763 -0.859814 0.857143
-3.259251 -4.336396 -0.862104 37.799999
3.611044 -4.334939 -0.871362 0.000000
-3.286611 -4.182758 -0.885352 93.833336
3.569506 -4.183973 -0.874032 0.000000
3.557450 -4.052335 -0.856956 0.000000
3.542651 -3.866555 -0.859091 0.909091
3.562531 -3.726971 -0.819377 0.571429
3.551129 -3.590914 -0.866156 0.775000
-5.212415 -3.514323 -0.886984 49.599998
-5.081462 -3.519762 -0.872156 41.000000
-4.926434 -3.516332 -0.853994 43.166668
-4.766914 -3.516854 -0.888626 44.200001
-4.620484 -3.522238 -0.871532 44.700001
-4.476285 -3.530007 -0.859684 45.181820
-4.323287 -3.527080 -0.886714 46.000000
3.625659 -3.462104 -0.886965 64.699997
3.651979 -3.295362 -0.870293 54.500000
3.743545 -3.200540 -0.871425 13.722222
3.940047 -3.127316 -0.862616 0.500000
4.073269 -3.101665 -0.859620 0.000000
4.225789 -3.093769 -0.879315 0.500000
4.367036 -3.087351 -0.893477 0.727273
4.528506 -3.070395 -0.869512 0.333333
4.693336 -3.065179 -0.890857 0.000000
4.808137 -3.088203 -0.835285 0.000000
4.948625 -3.070840 -0.860617 0.000000
5.118200 -3.069595 -0.863192 0.200000
5.266821 -3.062774 -0.859629 0.750000
5.429518 -3.055631 -0.879048 0.000000
5.725485 -3.082832 -0.802120 0.000000
5.816223 -3.073015 -0.811424 0.000000
5.016155 -3.041453 -0.897407 0.000000
5.324225 -3.040581 -0.865077 4.000000
5.417505 -3.033779 -0.876068 0.333333
5.555566 -3.035181 -0.893205 0.000000
-5.212542 -2.580582 -0.820650 0.000000
-5.100873 -2.595611 -0.807517 0.000000
-5.362753 -2.530609 -0.836670 3.500000
-5.355855 -2.445317 -0.830709 0.000000
-3.380058 -2.388987 -0.807197 5.714286
-3.416034 -2.272192 -0.800088 8.666667
-6.114447 -2.207379 -0.801875 6.750000
-3.246320 -2.233808 -0.840522 9.818182
-6.013001 -2.108150 -0.899027 1.750000
-3.261286 -2.081890 -0.825276 8.000000
-5.412060 -2.003056 -0.814223 0.000000
-5.377314 -2.048106 -0.811876 0.400000
-3.283753 -1.932900 -0.812754 8.416667
-3.295479 -1.775570 -0.811850 9.133333
-6.558261 -1.055662 -0.866299 4.200000
-6.430493 -1.069539 -0.842621 3.000000
-6.114663 -1.063779 -0.875695 5.666667
-6.026007 -1.087509 -0.863960 3.000000
-5.781266 -1.062104 -0.881675 1.000000
-5.645298 -1.055468 -0.810311 2.000000
-6.286948 -1.042965 -0.899166 2.000000
-5.526030 -1.042058 -0.893682 1.000000
-5.371724 -1.039293 -0.869512 3.000000
8.265644 -0.892104 -0.878937 10.500000
8.390681 -0.666256 -0.889871 0.000000
5.648941 -0.590737 -0.801370 2.000000
5.863559 -0.594565 -0.831547 5.000000
6.145266 -0.603631 -0.871225 2.000000
8.416531 -0.641706 -0.892394 0.000000
-5.733565 -0.484444 -0.811848 7.750000
-5.670458 -0.530015 -0.837547 3.333333
9.155749 -0.553574 -0.808133 0.000000
9.328499 -0.534611 -0.823229 0.000000
9.529069 -0.516076 -0.840782 0.000000
9.761448 -0.497909 -0.861143 0.000000
10.041564 -0.480575 -0.885717 1.000000
5.929234 -0.021732 -0.836577 1.000000
6.131131 -0.041734 -0.865077 0.000000
9.199324 0.138091 -0.810591 1.000000
-11.877325 4.243343 -0.891026 0.000000
-11.662148 4.228474 -0.876369 0.500000
-11.488552 4.226967 -0.864811 0.000000
-11.389191 4.231078 -0.858328 0.000000
-11.236589 4.234680 -0.848321 0.000000
-11.064493 4.249407 -0.837328 0.000000
-10.908628 4.248711 -0.827039 0.000000
-10.777159 4.256042 -0.818583 0.000000
-10.616936 4.270080 -0.808435 0.500000
-10.544962 4.299026 -0.804489 2.000000
-9.116789 4.385515 -0.891334 0.250000
-8.985691 4.427341 -0.882557 0.500000
-8.882718 4.428757 -0.874483 0.000000
-6.864212 4.438914 -0.864218 29.500000
-6.720849 4.436454 -0.851391 35.750000
-6.565639 4.438495 -0.837864 38.000000
-6.432923 4.437690 -0.826228 39.333332
-6.272909 4.429861 -0.856781 41.333332
-6.138637 4.422331 -0.888609 43.666668
-5.677112 4.424144 -0.887816 48.500000
-5.522361 4.430361 -0.873321 53.599998
-5.339912 4.437981 -0.856476 43.500000
-5.250728 4.443350 -0.848478 52.333332
-8.810914 4.514558 -0.872260 5.166667
-7.145345 4.478793 -0.891553 1.000000
-7.045202 4.462354 -0.881670 16.500000
-6.948699 4.447297 -0.872208 25.000000
-5.424466 4.450933 -0.865535 60.500000
-5.199730 4.447164 -0.843989 53.000000
-8.720818 4.660458 -0.871183 32.400002
-8.666056 4.807677 -0.873149 1.000000
-8.628153 4.965459 -0.877081 1.000000
-4.017213 6.779080 -0.833097 36.833332
-3.900331 6.824171 -0.830995 40.750000
-3.826355 6.868985 -0.831275 18.666666
3.955483 -20.657185 -0.753584 29.500000
1.133806 -20.343355 -0.730023 2.000000
1.225279 -20.265942 -0.727445 1.500000
0.236054 -20.185665 -0.723291 3.000000
1.437525 -20.103739 -0.722146 0.000000
0.422153 -19.986713 -0.716273 1.000000
0.517164 -20.016445 -0.717419 4.000000
0.642436 -19.998821 -0.716918 2.000000
1.300783 -19.952812 -0.716417 0.000000
-2.941628 -14.381455 -0.781380 0.000000
-2.950219 -14.196158 -0.771812 0.000000
-2.994701 -14.076582 -0.766072 0.000000
3.323334 -14.080644 -0.770111 3.000000
3.336872 -13.941940 -0.763095 1.000000
3.340152 -13.764476 -0.753952 0.000000
3.371309 -13.612878 -0.746511 0.000000
3.427257 -13.475290 -0.740132 0.000000
3.508602 -13.355216 -0.735029 2.000000
3.623851 -13.283007 -0.732903 9.333333
3.690229 -10.692951 -0.799133 0.000000
3.800972 -10.580590 -0.794247 0.000000
3.907858 -10.564312 -0.795751 0.000000
3.937366 -10.517014 -0.793355 0.000000
4.088016 -10.490485 -0.795398 0.000000
4.206335 -10.500639 -0.799133 1.000000
4.366883 -10.424080 -0.798428 2.500000
4.423685 -10.376249 -0.796878 1.000000
4.482882 -10.349364 -0.796784 0.666667
-2.436424 -9.714157 -0.707522 1.000000
4.015834 -9.218183 -0.710341 0.000000
4.004648 -9.114197 -0.703294 3.000000
-2.526121 -8.572026 -0.787351 2.000000
-2.388146 -8.652924 -0.790873 2.166667
-3.211539 -8.481180 -0.799006 1.000000
-3.120486 -8.481050 -0.796197 2.000000
-2.973707 -8.491416 -0.792687 3.000000
-2.830886 -8.509862 -0.790159 2.000000
-2.676124 -8.534141 -0.788006 2.000000
4.069068 -8.030978 -0.793213 0.833333
-3.525988 -7.359303 -0.718965 0.000000
-3.482319 -7.181294 -0.703167 1.000000
3.736771 -7.178269 -0.712997 1.000000
3.714881 -7.081810 -0.704571 1.000000
-3.422227 -6.692001 -0.761487 3.000000
-3.455774 -6.576928 -0.712608 3.222222
3.645536 -6.568690 -0.727890 1.333333
-3.477597 -6.434573 -0.773275 7.500000
3.643851 -6.422223 -0.748112 0.750000
-3.546171 -6.275791 -0.762095 10.000000
3.629217 -6.281116 -0.766932 0.000000
-3.617943 -6.174131 -0.756558 5.750000
-3.690464 -6.098505 -0.753615 4.800000
3.642153 -6.124703 -0.753362 0.000000
-4.423548 -6.039586 -0.791463 2.000000
-4.329371 -6.029174 -0.784735 8.000000
-4.178756 -6.016725 -0.774473 8.200000
-4.020876 -6.008306 -0.764338 8.000000
-3.869610 -6.025041 -0.757049 0.333333
-3.754228 -6.031420 -0.751091 1.000000
3.677361 -5.982267 -0.742400 7.000000
3.751178 -5.961376 -0.744643 11.333333
3.793685 -5.864052 -0.738391 45.400002
3.921104 -5.817547 -0.741719 17.142857
4.071091 -5.781649 -0.747587 8.333333
4.200641 -5.761437 -0.753825 7.000000
4.256641 -5.752437 -0.756558 6.000000
4.372534 -5.737449 -0.762656 5.166667
4.536255 -5.725242 -0.772259 7.500000
4.675081 -5.695424 -0.779015 5.000000
4.818485 -5.685622 -0.787931 4.400000
4.957812 -5.730389 -0.700632 3.500000
-4.604719 -5.037472 -0.721548 0.000000
-4.515228 -5.050033 -0.716186 0.000000
-3.490313 -4.919466 -0.744042 5.200000
-3.472815 -4.804713 -0.731277 7.000000
-3.322238 -4.567636 -0.796899 24.000000
-3.321109 -4.476989 -0.786505 25.000000
3.749980 -4.462803 -0.719035 1.000000
-3.854342 -4.400778 -0.721635 1.142857
-3.336218 -4.338650 -0.772218 18.666666
3.635057 -4.288566 -0.743113 1.000000
-19.772547 -4.206397 -0.724294 1.000000
-19.544333 -4.222064 -0.716417 0.000000
-3.396555 -4.173610 -0.705446 14.125000
3.625843 -4.161759 -0.721542 0.916667
-3.416414 -4.039316 -0.727537 28.200001
3.606599 -4.022336 -0.734640 0.571429
-3.465978 -3.878078 -0.733875 46.222221
3.591135 -3.891092 -0.733519 2.142857
-3.572756 -3.741204 -0.729932 45.250000
3.600894 -3.743382 -0.732873 3.285714
-5.221701 -3.555191 -0.779227 39.250000
-5.073930 -3.560530 -0.764609 41.400002
-4.933111 -3.578709 -0.733677 37.166668
-4.772803 -3.578146 -0.735815 45.200001
-4.620626 -3.590353 -0.721810 43.833332
-4.460043 -3.601038 -0.721434 25.428572
-4.322813 -3.586283 -0.746958 25.727272
-4.179637 -3.607300 -0.726007 20.461538
-4.026120 -3.614939 -0.723290 32.666668
-3.887087 -3.620272 -0.737557 47.625000
-3.749315 -3.640797 -0.737383 51.000000
3.614479 -3.602123 -0.732802 0.285714
-5.359451 -3.551242 -0.793060 39.000000
3.626556 -3.430768 -0.772738 0.769231
3.726391 -3.372963 -0.709162 0.000000
3.679677 -3.309798 -0.786552 16.285715
3.775881 -3.267240 -0.740905 5.529412
4.669959 -3.286716 -0.704426 0.000000
4.838548 -3.263600 -0.719933 0.000000
3.825544 -3.178280 -0.790408 14.250000
3.917628 -3.191184 -0.750170 0.250000
4.078812 -3.187591 -0.730398 0.000000
4.229112 -3.175707 -0.732819 0.000000
4.372138 -3.159301 -0.737051 0.750000
4.895374 -3.165751 -0.719117 0.000000
4.930181 -3.232339 -0.727197 0.000000
5.008807 -3.172572 -0.731359 0.750000
4.526855 -3.132036 -0.776688 0.000000
4.677742 -3.118343 -0.793211 0.000000
5.122436 -3.132657 -0.740663 2.000000
5.280404 -3.116490 -0.756333 2.000000
5.420749 -3.108137 -0.770779 1.750000
5.555622 -3.093377 -0.784368 0.000000
5.678142 -3.103542 -0.798202 0.000000
6.000323 -3.119913 -0.715009 1.800000
-5.286220 -2.564570 -0.724748 0.000000
-5.024643 -2.596743 -0.798017 0.000000
-4.949714 -2.577757 -0.787399 0.000000
-5.391479 -2.518686 -0.734052 5.333333
-3.835127 -2.517791 -0.729107 2.642857
-3.583503 -2.525763 -0.775665 3.500000
-5.406496 -2.375642 -0.728456 0.714286
-4.035457 -2.375281 -0.744186 1.000000
-3.853451 -2.400350 -0.721507 4.500000
-3.574102 -2.369391 -0.758708 6.250000
-3.377106 -2.315817 -0.798557 8.500000
-5.421659 -2.231445 -0.723218 0.625000
-4.018476 -2.239664 -0.731125 0.000000
-3.643475 -2.206729 -0.753656 5.277778
-3.424020 -2.226258 -0.796515 7.333333
-6.062963 -2.090715 -0.753207 4.750000
-5.429823 -2.086579 -0.717543 0.142857
-3.972341 -2.078739 -0.712532 0.363636
-3.644839 -2.114598 -0.745526 5.166667
-3.448818 -2.081506 -0.785610 6.000000
-5.480751 -2.027392 -0.720831 0.000000
-3.658035 -2.038580 -0.740903 6.000000
-4.019996 -1.920194 -0.708026 1.000000
-3.683459 -1.933140 -0.736012 5.000000
-3.471664 -1.927707 -0.774439 6.666667
-3.728109 -1.780698 -0.731008 4.923077
-3.513991 -1.765144 -0.766910 7.111111
-3.493623 -1.819510 -0.768186 7.000000
-5.274486 -1.747031 -0.746875 0.000000
-3.337065 -1.694823 -0.798291 9.000000
-5.289832 -1.650154 -0.753745 0.857143
-4.106351 -1.593573 -0.700004 0.000000
-3.801219 -1.558218 -0.726826 5.000000
-3.782801 -1.634665 -0.729107 5.363636
-3.556226 -1.630467 -0.762984 7.000000
-3.821035 -1.476036 -0.724736 5.400000
-3.798797 -1.543304 -0.725433 5.000000
-3.593421 -1.486457 -0.758396 5.727273
-3.797737 -1.358308 -0.713586 5.750000
-3.826632 -1.307934 -0.715502 6.500000
-6.756485 -1.174336 -0.725018 1.000000
-6.537333 -1.157414 -0.701888 1.000000
-4.186796 -1.185899 -0.710844 2.000000
-6.262190 -1.098486 -0.784246 4.000000
-5.970034 -1.085981 -0.748498 17.000000
-5.795096 -1.082428 -0.727197 3.000000
-5.680766 -1.088733 -0.713485 3.000000
-5.542502 -1.083717 -0.729935 2.666667
-5.376023 -1.057518 -0.773056 3.000000
-5.222684 -1.070125 -0.752193 4.000000
-5.091451 -1.084906 -0.734496 4.666667
-4.908216 -1.072872 -0.768144 4.666667
-4.625655 -1.067211 -0.726497 3.333333
-4.429278 -1.082966 -0.724646 4.000000
8.263242 -0.979484 -0.733124 26.000000
8.278294 -0.880283 -0.733475 31.500000
-19.788887 -0.853616 -0.709685 1.000000
8.320423 -0.765966 -0.736167 10.333333
5.778305 -0.660398 -0.717403 1.000000
6.062576 -0.654324 -0.752171 5.000000
8.378897 -0.691765 -0.740730 5.000000
4.670712 -0.614834 -0.706731 1.000000
4.813622 -0.614439 -0.706289 1.750000
4.956996 -0.597272 -0.733779 1.000000
5.121810 -0.600768 -0.727604 2.000000
5.274154 -0.593362 -0.748840 1.000000
5.461972 -0.588538 -0.775105 1.000000
5.835510 -0.571320 -0.723279 1.500000
6.092241 -0.638170 -0.755599 2.000000
8.458590 -0.644913 -0.747400 0.000000
8.591715 -0.627921 -0.758985 0.000000
8.704941 -0.608709 -0.768815 0.000000
8.830057 -0.589587 -0.779698 0.000000
8.971045 -0.570699 -0.791985 0.000000
-5.924962 -0.462143 -0.733073 3.000000
-5.825788 -0.481935 -0.721075 0.500000
-5.670420 -0.500655 -0.714765 1.500000
5.796177 -0.478578 -0.717403 1.000000
9.934293 -0.506726 -0.702730 1.000000
10.342357 -0.494970 -0.731482 1.000000
-5.583494 -0.436489 -0.790193 3.000000
10.805019 -0.449019 -0.763992 4.000000
19.734289 -0.203220 -0.707107 1.000000
5.279707 -0.002765 -0.744928 1.000000
9.039489 0.164098 -0.796548 1.000000
2.946987 2.343299 -0.734243 1.000000
3.041137 2.319637 -0.727222 18.266666
3.173572 2.299191 -0.718563 38.428570
3.334812 2.284776 -0.719532 39.718750
3.460202 2.267338 -0.731672 35.272728
3.631423 2.285981 -0.720256 29.916666
3.780096 2.272897 -0.740629 47.571430
3.914843 2.266943 -0.739147 42.375000
4.079935 2.279211 -0.728552 34.666668
4.234132 2.299914 -0.727350 24.222221
-10.424394 4.288112 -0.796314 0.000000
-10.319368 4.301832 -0.789831 0.000000
-10.166656 4.294566 -0.779683 0.000000
-10.035652 4.276429 -0.770663 0.000000
-9.831583 4.299304 -0.758072 1.166667
19.097176 4.345805 -0.701736 255.000000
-9.709345 4.355334 -0.751777 0.333333
-9.580530 4.388288 -0.744448 0.500000
-9.352442 4.408744 -0.730448 0.000000
-6.085087 4.442175 -0.796510 42.000000
-5.988266 4.443958 -0.788379 43.000000
-5.874204 4.445850 -0.778847 44.000000
-9.259092 4.490026 -0.726972 0.500000
-9.151112 4.544654 -0.721827 0.000000
-6.848593 4.520899 -0.723002 4.500000
-5.913576 4.446500 -0.782211 44.000000
-5.801978 4.448723 -0.772960 45.000000
-5.679963 4.455111 -0.763182 45.500000
-5.523732 4.460065 -0.750587 47.200001
-5.375059 4.467097 -0.738895 48.750000
-5.234598 4.476915 -0.728214 49.599998
-5.081920 4.486457 -0.716691 50.799999
-4.921836 4.498751 -0.704972 53.333332
19.109722 4.490949 -0.703347 130.000000
-6.964867 4.550739 -0.733007 0.000000
-9.084681 4.672901 -0.721729 0.000000
-9.034774 4.828222 -0.723702 0.000000
-8.975955 4.979621 -0.725168 0.000000
-8.955420 5.135080 -0.729297 0.000000
-6.257985 5.118503 -0.712295 0.000000
-4.897249 6.750333 -0.734762 15.000000
-4.778500 6.763739 -0.729637 16.400000
-4.629847 6.776778 -0.723107 17.200001
-4.481120 6.785485 -0.716437 14.400000
-4.335403 6.794575 -0.710118 12.000000
-4.178154 6.804595 -0.703518 14.666667
-3.867602 7.099529 -0.712295 1.000000
-3.742923 7.081364 -0.705695 3.400000
-3.693271 7.233142 -0.715542 5.000000
-3.668702 7.384219 -0.726454 4.000000
-3.656297 7.536790 -0.738039 4.000000
-3.664069 7.706204 -0.751789 8.500000
-3.664183 7.800915 -0.759336 7.000000
3.920785 -16.624962 -0.612005 0.000000
3.999114 -11.587988 -0.652532 1.000000
4.002626 -11.481075 -0.647217 0.000000
3.994893 -11.344114 -0.640200 0.000000
4.260612 -10.636145 -0.609902 1.500000
4.303932 -10.599307 -0.608945 3.000000
4.370975 -10.526361 -0.606713 0.250000
4.490337 -10.532534 -0.609477 1.000000
-2.435479 -9.582707 -0.698502 2.000000
-2.442007 -9.422424 -0.687649 1.500000
-2.462194 -9.260365 -0.676938 1.000000
-2.487825 -9.125368 -0.668199 1.000000
-2.519948 -8.965341 -0.657911 0.333333
3.981532 -8.984838 -0.694273 5.000000
3.964155 -8.870285 -0.686381 8.000000
-2.632733 -8.780956 -0.647622 0.000000
-2.577595 -8.849240 -0.651146 0.000000
-2.695265 -8.690925 -0.642830 0.750000
3.963584 -8.685506 -0.674471 2.750000
-4.188397 -8.602726 -0.675951 1.000000
-3.451107 -8.619657 -0.655937 0.000000
-3.379362 -8.596609 -0.652555 1.000000
-3.259586 -8.607836 -0.650253 0.000000
-3.146449 -8.603815 -0.647199 1.500000
-2.976502 -8.629545 -0.644897 5.000000
-2.816760 -8.648499 -0.642576 2.400000
4.006949 -8.600766 -0.670313 0.000000
3.996628 -8.508683 -0.664112 0.000000
3.999432 -8.445600 -0.660166 0.000000
4.020615 -8.354394 -0.654998 0.000000
4.057749 -8.264641 -0.650441 0.000000
4.102549 -8.192674 -0.647293 0.666667
4.137102 -8.133554 -0.644662 0.000000
4.205899 -8.110492 -0.645437 0.000000
-4.079954 -7.464556 -0.600971 0.000000
-4.142347 -7.427410 -0.600810 0.285714
-3.474999 -7.025138 -0.690529 0.000000
3.696145 -6.992604 -0.696848 0.000000
-3.476240 -6.864110 -0.677891 0.333333
3.699364 -6.945789 -0.693338 0.000000
3.663656 -6.700177 -0.672801 0.000000
-3.553927 -6.526244 -0.654721 0.000000
-3.613759 -6.395127 -0.647174 0.500000
-3.559273 -6.415590 -0.689082 2.666667
-3.635069 -6.316475 -0.642083 0.000000
-3.766885 -6.180891 -0.637730 3.400000
-4.420654 -6.136137 -0.666306 0.000000
-4.328192 -6.128630 -0.661040 2.000000
-4.202277 -6.111960 -0.653493 6.250000
-4.111101 -6.122643 -0.606682 4.333333
3.684369 -6.113999 -0.610966 0.000000
3.695373 -6.039762 -0.623828 0.000000
3.793707 -5.894461 -0.617597 0.750000
3.917136 -5.871105 -0.621839 6.000000
4.078952 -5.855582 -0.600893 5.333333
4.542831 -5.789289 -0.648359 3.500000
4.677643 -5.772160 -0.654581 3.800000
4.818898 -5.759068 -0.661602 4.000000
4.956779 -5.756473 -0.669290 3.500000
-4.005625 -4.944599 -0.672765 0.000000
-3.866004 -4.881056 -0.658291 0.000000
-3.572685 -4.877880 -0.639227 0.000000
-3.973716 -4.781650 -0.657310 1.000000
-3.599910 -4.808599 -0.617405 0.000000
-3.944687 -4.746374 -0.652474 1.000000
-3.982041 -4.640968 -0.646516 1.500000
3.904099 -4.491153 -0.629134 1.000000
4.172440 -4.463421 -0.645955 1.000000
4.247576 -4.472768 -0.652123 1.000000
4.352213 -4.497360 -0.661656 1.000000
-3.370238 -4.306384 -0.690575 5.666667
3.827302 -4.333663 -0.611260 0.000000
-3.612502 -4.223721 -0.685573 1.000000
-4.660597 -4.129107 -0.658291 2.000000
3.740672 -4.142790 -0.688511 0.000000
-4.677272 -4.040308 -0.653441 2.400000
3.723163 -4.033604 -0.677125 0.000000
-4.679735 -3.900157 -0.603679 2.000000
3.765780 -3.909929 -0.669657 0.000000
-3.639252 -3.789722 -0.648111 1.833333
-4.867370 -3.745674 -0.649320 1.000000
-4.048501 -3.655536 -0.672840 1.000000
-3.866547 -3.671595 -0.657730 55.285713
-3.717155 -3.709559 -0.649525 41.833336
3.912726 -3.702841 -0.664516 0.000000
-4.907110 -3.635710 -0.623951 0.400000
-4.806245 -3.638896 -0.637334 1.500000
3.937338 -3.599178 -0.658027 0.000000
3.915384 -3.500758 -0.647866 0.000000
4.901641 -3.519593 -0.637965 0.000000
4.895816 -3.354745 -0.627451 0.000000
4.948567 -3.409919 -0.635372 0.000000
3.939885 -3.292797 -0.612264 0.538462
4.174262 -3.200710 -0.648845 0.000000
4.230889 -3.215820 -0.655538 0.000000
4.362497 -3.216078 -0.668556 0.000000
4.548945 -3.244785 -0.689245 0.000000
5.045688 -3.184824 -0.630816 2.000000
5.106899 -3.167544 -0.635337 1.750000
6.020002 -3.168566 -0.599371 1.000000
-5.385111 -2.835645 -0.643432 0.500000
-4.409587 -2.682853 -0.636701 9.600000
-4.388127 -2.727661 -0.637338 20.250000
-5.287623 -2.606402 -0.623246 4.000000
-4.311803 -2.555107 -0.618240 0.500000
-4.174304 -2.546134 -0.689882 0.500000
-6.936683 -2.260553 -0.642785 0.000000
-6.133888 -2.312912 -0.693056 5.000000
-5.956055 -2.310202 -0.675393 0.000000
-6.143857 -2.239993 -0.691374 8.333333
-6.209131 -2.077572 -0.692215 5.000000
-5.558552 -2.135954 -0.629554 0.000000
-4.015934 -1.773062 -0.697681 2.600000
-5.309711 -1.721133 -0.688511 1.000000
-5.315529 -1.615417 -0.697594 0.875000
-4.046068 -1.626240 -0.693041 2.727273
-6.233868 -1.543879 -0.678968 0.000000
-5.330649 -1.544663 -0.684593 0.000000
-4.092882 -1.500296 -0.692784 0.000000
-4.680551 -1.421167 -0.690162 0.000000
-4.115090 -1.444164 -0.693098 0.000000
-4.169626 -1.330685 -0.695610 0.000000
3.550502 -1.307291 -0.601308 2.708333
-6.889620 -1.197476 -0.616105 1.000000
-6.799506 -1.203831 -0.608382 1.000000
-5.571170 -1.167937 -0.601798 0.000000
-4.325754 -1.214152 -0.622440 0.142857
-6.267463 -1.129955 -0.673291 1.000000
-6.048697 -1.110144 -0.650161 3.000000
-5.450578 -1.106950 -0.686062 3.000000
-5.373397 -1.117633 -0.677003 5.000000
-5.245278 -1.142580 -0.662190 1.250000
-4.766649 -1.077708 -0.602814 0.000000
-4.456584 -1.096890 -0.649894 7.515152
19.338263 -0.989787 -0.693787 0.000000
19.350691 -0.868528 -0.694026 0.000000
-18.875927 -0.725245 -0.676815 21.500000
4.502104 -0.664775 -0.642102 0.000000
4.634580 -0.662074 -0.660544 2.000000
5.452700 -0.675304 -0.677737 0.000000
5.593792 -0.665985 -0.694877 1.000000
5.807478 -0.682222 -0.618199 14.000000
6.035838 -0.694501 -0.615817 2.500000
19.374268 -0.717151 -0.694646 0.000000
-18.772461 -0.573549 -0.672924 26.666666
5.059649 -0.650786 -0.629258 1.000000
5.851836 -0.562402 -0.621526 2.090909
8.582653 -0.640758 -0.608018 1.000000
8.720916 -0.609826 -0.617602 0.000000
8.889999 -0.593590 -0.629441 1.000000
9.035172 -0.574778 -0.639588 0.000000
9.204210 -0.556504 -0.651427 0.000000
19.410355 -0.596418 -0.695792 0.000000
-5.580443 -0.550127 -0.691694 0.500000
5.799831 -0.478871 -0.615256 0.000000
5.830005 -0.499808 -0.618620 1.000000
9.393138 -0.538316 -0.664676 0.000000
9.681646 -0.524339 -0.684971 1.000000
-18.745119 -0.425403 -0.671802 30.500000
-5.910440 -0.442332 -0.626610 1.000000
-5.828480 -0.417790 -0.617779 3.000000
-5.218953 -0.374099 -0.645418 1.000000
19.467068 -0.414601 -0.697654 1.000000
-18.704542 -0.277534 -0.670250 31.000000
19.461292 -0.292113 -0.697367 4.500000
-3.960978 -0.222193 -0.630475 0.000000
-18.677536 -0.130406 -0.669224 31.500000
-3.785609 -0.146752 -0.602066 1.500000
5.394206 -0.096957 -0.665495 1.750000
5.505985 -0.055739 -0.679206 3.000000
-18.679966 -0.042381 -0.669295 10.000000
5.494224 -0.038357 -0.677737 1.000000
5.527073 0.004797 -0.681777 18.750000
9.330290 0.213301 -0.659320 1.000000
9.829878 0.178446 -0.694555 1.000000
9.184763 0.282225 -0.649172 0.000000
9.233466 0.254688 -0.652555 3.000000
3.328165 2.344273 -0.646955 53.000000
5.285438 2.335531 -0.610910 0.000000
2.917602 2.400837 -0.691184 11.952381
3.036005 2.389073 -0.640605 44.166668
4.150950 2.347453 -0.672838 0.000000
2.743122 2.845452 -0.628120 0.000000
2.900717 3.569701 -0.607992 1.000000
18.965345 3.786208 -0.692927 51.000000
18.977652 3.912862 -0.694264 80.333336
18.994471 4.040864 -0.695792 78.000000
19.009033 4.106426 -0.696795 75.000000
19.034328 4.205899 -0.698442 57.000000
-11.836898 4.312957 -0.670605 1.000000
-11.660971 4.311142 -0.661781 2.000000
-11.375280 4.327847 -0.647855 1.500000
-6.378014 4.253604 -0.675434 1.000000
-6.292805 4.254181 -0.669232 9.333333
-11.498306 4.374829 -0.654871 0.500000
-11.100246 4.363552 -0.634885 0.000000
-10.780865 4.355755 -0.618938 1.000000
-10.614146 4.366065 -0.610929 0.666667
-10.507901 4.399860 -0.606394 0.000000
-6.330505 4.381927 -0.678330 2.750000
-11.527042 4.489572 -0.658486 0.000000
-11.330018 4.515598 -0.649237 1.500000
-6.348964 4.491106 -0.685176 3.000000
-5.341699 4.539661 -0.617626 0.333333
-4.767855 4.511724 -0.693981 55.400002
-5.226374 4.594701 -0.613121 0.666667
-11.401334 4.844247 -0.659407 0.000000
-6.050381 5.044567 -0.694040 0.000000
-11.620319 5.256547 -0.678897 0.000000
-10.753772 5.277582 -0.637649 1.000000
-10.800281 5.448532 -0.643921 0.500000
-11.615471 5.576444 -0.685860 0.000000
-10.750943 5.572863 -0.644594 0.333333
-10.801804 5.685510 -0.649768 0.000000
-10.718464 5.706310 -0.646366 1.500000
-10.680630 5.772617 -0.646260 0.500000
-4.572609 5.827472 -0.652615 0.000000
-5.209335 5.861155 -0.690880 0.750000
-5.104503 5.871990 -0.685497 0.666667
-4.344695 5.863959 -0.642996 2.600000
-4.016468 6.826631 -0.697843 24.166666
-3.889233 6.905247 -0.698252 46.166668
-3.679529 7.676482 -0.601393 1.500000
-3.691648 7.827561 -0.611400 1.500000
-3.713759 7.971442 -0.621266 1.000000
-3.737231 8.088110 -0.629441 0.000000
3.912126 -16.133816 -0.594818 0.000000
3.967997 -15.926610 -0.588086 0.000000
3.892339 -14.546569 -0.539532 0.500000
3.578635 -14.173828 -0.523778 0.000000
3.585498 -14.015352 -0.518335 0.000000
3.588392 -13.845366 -0.512463 0.000000
3.606906 -13.680749 -0.506925 0.000000
3.661020 -13.484197 -0.500623 0.000000
-2.764870 -9.836336 -0.543883 0.000000
-2.766249 -9.723870 -0.538142 1.000000
-2.765843 -9.607655 -0.532189 6.000000
-2.764964 -9.437364 -0.523472 4.000000
-2.780068 -9.272491 -0.515286 4.000000
-2.800808 -9.132637 -0.508482 3.000000
4.139814 -9.109262 -0.532614 1.000000
-2.840174 -9.008131 -0.502777 3.000000
4.131675 -8.979011 -0.526129 2.000000
4.119214 -8.841738 -0.519219 1.000000
-4.351005 -8.658541 -0.515817 0.000000
4.114162 -8.688148 -0.511707 0.000000
-4.211300 -8.649611 -0.512096 0.000000
4.127324 -8.507616 -0.503344 0.333333
-3.639988 -7.329509 -0.578138 2.000000
4.348587 -7.260207 -0.597870 1.000000
-3.606416 -7.176802 -0.567427 1.000000
4.235614 -7.225079 -0.591669 0.200000
4.344513 -7.240469 -0.596531 0.500000
-3.710410 -7.076311 -0.564467 0.000000
3.760905 -7.115122 -0.568554 1.000000
4.057273 -7.150636 -0.580816 0.000000
-3.607054 -7.039957 -0.558829 0.000000
3.790642 -7.037013 -0.564678 0.250000
3.898683 -7.024547 -0.567568 0.000000
-3.679230 -6.937140 -0.554742 0.000000
-3.628848 -6.765028 -0.542339 0.000000
-3.668514 -6.711798 -0.540366 0.000000
-3.683871 -6.591575 -0.533460 0.000000
-3.718860 -6.428281 -0.524658 0.000000
-3.741101 -6.283430 -0.571025 0.000000
-4.424833 -6.182806 -0.537125 0.000000
-4.361724 -6.176269 -0.534165 0.500000
-3.835537 -6.249182 -0.518004 0.000000
3.665860 -6.253310 -0.596165 0.000000
-4.020462 -6.132116 -0.581814 6.300000
-3.884660 -6.142710 -0.582397 7.090909
3.723472 -6.118153 -0.505977 0.000000
3.764282 -5.987504 -0.545789 1.125000
3.927536 -5.926978 -0.502312 5.166667
4.063322 -5.907486 -0.506540 5.000000
4.222122 -5.858430 -0.572995 2.100000
4.315725 -5.909666 -0.516970 0.000000
4.369519 -5.834978 -0.584255 2.363636
5.128377 -5.806855 -0.547319 0.333333
-4.006204 -4.882195 -0.556425 0.000000
-3.937599 -4.876437 -0.552213 0.000000
-3.859862 -4.826440 -0.544490 0.000000
-3.711457 -4.790643 -0.578433 0.000000
4.398090 -4.459868 -0.551862 1.000000
4.035834 -4.441638 -0.563902 0.333333
5.125050 -4.453460 -0.598201 1.000000
3.951113 -4.352841 -0.569791 0.166667
4.057086 -4.326499 -0.552624 0.285714
-4.685543 -4.025574 -0.559666 2.142857
-4.751077 -3.862480 -0.593213 1.375000
-4.836857 -3.689934 -0.536006 0.500000
-4.109515 -3.687257 -0.583715 1.000000
-4.019387 -3.686832 -0.576636 42.000000
-3.866896 -3.718328 -0.567173 43.777779
4.058728 -3.560668 -0.570818 0.000000
5.053860 -3.416578 -0.537468 0.000000
4.079103 -3.258486 -0.594780 0.066667
5.013821 -3.267437 -0.579859 0.750000
4.212167 -3.250759 -0.562519 0.200000
4.352489 -3.240537 -0.573692 3.500000
5.114062 -3.216646 -0.532290 1.250000
5.942575 -3.175704 -0.593637 1.000000
-6.174053 -2.805874 -0.597499 0.000000
-5.345207 -2.544206 -0.578565 2.272727
-4.428853 -2.546697 -0.540118 0.666667
-6.218709 -2.322605 -0.584861 0.000000
-6.195742 -2.269781 -0.581351 6.000000
-5.441211 -2.319782 -0.521144 0.000000
-6.208100 -2.208168 -0.580531 7.000000
-6.430439 -2.129153 -0.596797 0.000000
-6.234785 -2.086130 -0.579244 1.000000
-6.149380 -2.111444 -0.572837 3.250000
-6.209766 -1.969905 -0.573978 0.000000
-6.198418 -1.966254 -0.572925 0.000000
3.758440 -1.992617 -0.581233 3.062500
-5.280241 -1.693266 -0.586238 0.000000
4.177230 -1.700545 -0.556353 1.088889
-5.332518 -1.627280 -0.589445 0.000000
-5.333642 -1.545530 -0.587079 0.000000
4.194767 -1.429683 -0.546662 2.000000
4.189137 -1.342655 -0.542643 1.750000
-6.634916 -1.196202 -0.593989 1.000000
-6.256781 -1.172658 -0.560849 4.800000
-6.167577 -1.202195 -0.553617 1.500000
-5.951400 -1.158139 -0.598158 3.600000
-5.830997 -1.171512 -0.593782 1.666667
-5.712159 -1.188076 -0.565443 0.250000
-5.375168 -1.161954 -0.581402 2.500000
-5.288232 -1.186890 -0.572991 0.500000
-4.601341 -1.208857 -0.502970 0.000000
-4.464772 -1.161723 -0.579304 2.875000
3.569291 -1.174314 -0.597189 3.307692
-4.562310 -1.054128 -0.577595 6.000000
4.167769 -1.118632 -0.532298 1.500000
3.599443 -1.047730 -0.595788 4.222222
4.194361 -1.052026 -0.533417 1.571429
8.259030 -1.017004 -0.587879 1.222222
8.296977 -0.882244 -0.589461 2.666667
8.333433 -0.793612 -0.591387 11.000000
3.788771 -0.729124 -0.588460 5.642857
3.879405 -0.684513 -0.585871 2.142857
4.039773 -0.701059 -0.542125 0.000000
4.247917 -0.682298 -0.568862 0.250000
4.360784 -0.679324 -0.583680 0.000000
4.817337 -0.689004 -0.571639 0.000000
4.954019 -0.683152 -0.563897 3.000000
5.074497 -0.677083 -0.541240 1.000000
5.746392 -0.711738 -0.543837 3.333333
8.419984 -0.721666 -0.597024 2.600000
9.501363 -0.634411 -0.506887 0.000000
9.781312 -0.606759 -0.521664 1.500000
10.140980 -0.581174 -0.540694 0.000000
10.457848 -0.566377 -0.557491 1.000000
10.766741 -0.549187 -0.573863 4.000000
11.007799 -0.526817 -0.586620 0.000000
-5.627368 -0.385610 -0.596331 3.000000
10.793373 -0.397648 -0.574926 0.000000
-5.243525 -0.342759 -0.555538 0.000000
-5.010336 -0.311712 -0.530726 0.000000
-4.801263 -0.283628 -0.525480 1.200000
-4.619985 -0.287427 -0.570984 0.000000
-4.481027 -0.269635 -0.580260 0.000000
-4.311273 -0.244830 -0.570925 0.000000
-4.138278 -0.212224 -0.547995 0.000000
-4.011553 -0.193484 -0.566659 0.000000
-3.857689 -0.157089 -0.570398 1.000000
-10.708431 -0.093450 -0.570035 0.000000
-10.636775 -0.059409 -0.566208 3.000000
-10.021783 -0.024486 -0.533465 1.000000
-9.937825 0.038146 -0.529000 0.666667
4.530297 0.025683 -0.599059 3.500000
4.072671 0.061135 -0.502427 1.000000
4.350717 0.051638 -0.536705 1.000000
5.469133 0.064912 -0.578248 1.000000
-10.807929 0.211271 -0.575422 1.666667
9.953476 0.165105 -0.529903 9.000000
10.018821 0.244855 -0.533465 0.000000
-10.808580 0.330239 -0.575617 1.750000
9.569396 0.309080 -0.509651 0.750000
9.546777 0.383439 -0.508588 0.000000
9.557236 0.486164 -0.509396 0.000000
9.509039 0.576544 -0.507100 0.000000
-10.849109 0.827177 -0.579178 0.000000
-3.973220 1.068506 -0.507520 1.000000
3.177268 2.395201 -0.589621 54.549999
3.315710 2.394131 -0.557699 53.157894
3.436754 2.390023 -0.544070 29.750000
3.698986 2.409499 -0.544540 1.000000
3.726751 2.380764 -0.590262 1.857143
4.326840 2.398411 -0.581135 0.333333
5.265237 2.440159 -0.567139 3.636364
5.173767 2.489965 -0.505873 1.000000
2.910817 3.392502 -0.551396 0.000000
2.886720 3.466214 -0.582861 0.166667
-10.335806 4.366018 -0.597251 0.000000
-9.850989 4.418944 -0.574713 1.000000
-9.687060 4.437095 -0.567165 0.500000
-9.555748 4.490969 -0.562036 0.250000
-6.409351 4.526163 -0.554319 23.750000
