# This PCD file was generated using the MATLAB® pcwrite function
# from Computer Vision Toolbox®.
# .PCD v.7 - Point Cloud Data file format
VERSION .7
FIELDS x y z intensity
SIZE 4 4 4 4
TYPE F F F F
COUNT 1 1 1 1
WIDTH 1246
HEIGHT 1
VIEWPOINT 0 0 0 1 0 0 0
POINTS 1246
DATA ascii
-8.973013 -4.546312 -0.886244 0.000000
-8.818422 -4.555328 -0.874483 0.000000
-6.352317 -4.547814 -0.825948 0.000000
-6.237370 -4.510042 -0.813752 1.500000
-2.998577 -4.513594 -0.861193 9.625000
3.196527 -4.508263 -0.878301 6.000000
-6.119040 -4.483351 -0.801977 3.000000
-5.668854 -4.376495 -0.883409 2.750000
-5.527938 -4.365634 -0.868882 1.666667
-5.363686 -4.346342 -0.851579 2.200000
-5.206434 -4.342313 -0.836276 2.500000
-5.073225 -4.327041 -0.846142 3.000000
-4.915973 -4.327714 -0.807898 3.000000
-3.087628 -4.346003 -0.884134 56.384617
3.265929 -4.333514 -0.862397 13.250000
-4.617166 -4.249966 -0.885419 4.400000
-4.467144 -4.243396 -0.869325 3.000000
-4.320727 -4.235425 -0.853677 3.200000
-4.167664 -4.215712 -0.889133 4.250000
-4.013706 -4.208177 -0.861862 4.000000
-3.253403 -4.197518 -0.889405 7.285714
-3.138567 -4.249265 -0.892266 50.888889
-3.861938 -4.190550 -0.858606 7.076923
-3.719922 -4.174902 -0.888660 4.833333
-3.565496 -4.169960 -0.871933 5.000000
-3.406256 -4.172507 -0.867998 6.500000
3.453674 -4.137691 -0.867272 9.500000
3.633785 -4.086881 -0.869120 5.750000
3.784613 -4.046901 -0.880577 3.000000
3.947828 -4.038283 -0.863779 2.555556
4.079242 -4.032344 -0.860391 2.000000
4.229973 -4.013844 -0.874778 2.000000
4.361753 -3.998058 -0.864890 2.000000
4.465117 -3.990874 -0.844959 2.000000
4.537695 -3.979312 -0.851554 1.800000
4.681962 -3.964750 -0.865636 1.166667
4.827647 -3.946990 -0.879831 1.000000
-8.825078 -3.401781 -0.833292 10.666667
-8.786232 -3.297367 -0.826827 28.250000
-7.539660 -3.256492 -0.868283 2.333333
-8.759530 -3.162297 -0.820508 26.750000
-7.567595 -3.184206 -0.868002 2.666667
-8.753975 -3.051927 -0.816793 24.333334
-8.739347 -2.970021 -0.813224 27.000000
3.474877 -2.924062 -0.803481 0.500000
-8.730108 -2.860258 -0.809397 28.000000
-8.729822 -2.709056 -0.805325 29.400000
5.987224 -2.688143 -0.853042 0.875000
-8.751459 -2.550828 -0.803131 30.750000
-8.673752 -2.572816 -0.876158 23.000000
5.992410 -2.581076 -0.833702 1.000000
-8.779812 -2.410112 -0.802165 30.833334
7.902887 -1.702884 -0.854685 27.666666
7.954095 -1.666018 -0.859171 31.500000
8.102160 -1.657241 -0.874311 10.000000
6.513515 -1.396376 -0.821708 0.000000
4.836988 -1.325917 -0.887337 1.000000
6.044750 -1.354485 -0.874019 0.000000
6.172739 -1.362813 -0.891901 0.000000
6.358955 -1.362428 -0.879135 0.000000
9.020403 -1.045304 -0.800059 18.000000
9.075471 -0.965035 -0.804096 0.500000
9.157226 -0.930157 -0.810942 0.000000
9.271134 -0.912310 -0.820771 0.000000
9.456419 -0.900556 -0.836920 0.000000
9.788527 -0.901162 -0.866058 2.000000
10.029445 -0.891575 -0.887121 1.000000
11.265800 -0.823356 -0.798006 1.000000
11.574818 -0.809390 -0.819710 1.000000
11.871911 -0.792693 -0.840570 0.000000
12.129190 -0.771606 -0.858610 1.000000
12.426281 -0.751316 -0.879469 2.000000
-5.239891 -0.194881 -0.833308 1.000000
5.899392 0.461184 -0.834900 0.000000
-5.562017 1.255459 -0.855531 3.500000
-5.383934 1.286471 -0.879714 4.000000
-5.207239 1.325198 -0.885948 5.500000
-5.064013 1.353908 -0.880155 4.500000
-4.915250 1.384227 -0.852374 4.888889
-4.825651 1.404722 -0.889195 5.000000
-4.747501 1.422391 -0.876826 5.000000
-4.595004 1.447781 -0.884935 4.625000
5.252856 1.640061 -0.874534 1.000000
5.441112 1.655790 -0.863074 0.600000
5.588215 1.669340 -0.867206 0.428571
5.731378 1.681403 -0.878138 1.000000
5.843069 1.694251 -0.858371 1.000000
5.958781 1.707528 -0.874578 1.000000
6.047956 1.712539 -0.886872 1.000000
6.319046 1.756537 -0.867100 0.500000
9.566188 2.005452 -0.861143 0.000000
9.175823 2.089583 -0.829138 6.166667
9.323618 2.015837 -0.840431 0.000000
9.439027 2.009770 -0.850260 0.000000
9.110406 2.180489 -0.825335 27.000000
3.404960 2.295810 -0.800854 4.000000
3.408893 2.282917 -0.800088 4.000000
9.075546 2.247623 -0.823755 45.500000
3.399902 2.379143 -0.809276 3.100000
9.031340 2.387857 -0.823053 60.833332
3.398271 2.528191 -0.826024 1.375000
9.002951 2.547604 -0.824352 40.200001
-3.675493 2.694357 -0.840265 78.235291
3.398268 2.633118 -0.838370 0.000000
3.413738 2.645167 -0.842198 0.000000
8.987252 2.659409 -0.825756 18.400000
-3.719114 2.832393 -0.861890 5.470588
-3.763401 2.957374 -0.875654 3.500000
-3.802613 3.039958 -0.861321 18.500000
3.451433 3.054395 -0.815415 1.875000
-3.840610 3.115216 -0.874910 2.000000
-4.738647 3.962103 -0.871504 51.000000
-4.619389 3.961846 -0.858651 51.500000
-4.468197 3.968276 -0.843171 52.599998
-4.324235 3.976122 -0.828846 53.166668
-4.160765 3.985592 -0.812946 59.857143
-4.012765 3.986121 -0.853837 56.888889
-3.881732 4.005076 -0.886406 45.545456
-3.750571 4.074395 -0.880095 28.142857
2.787979 8.891026 -0.820947 14.500000
2.875262 8.859597 -0.820654 18.333334
2.712088 8.943569 -0.823404 2.000000
2.642854 9.020387 -0.828144 1.000000
2.600562 9.141788 -0.837388 1.000000
2.558077 9.268200 -0.847101 1.000000
-4.508177 14.368028 -0.801579 8.000000
-4.509181 14.530901 -0.809871 5.000000
-4.525689 14.830882 -0.825393 5.500000
-4.597294 15.865236 -0.879256 4.000000
-4.499322 15.900275 -0.879611 3.000000
-4.277345 15.874564 -0.875146 19.000000
-4.733983 15.961191 -0.886202 4.000000
-4.362936 15.992067 -0.882375 7.000000
-4.138608 15.957268 -0.877520 46.333332
-4.482691 16.033581 -0.886202 6.000000
-4.060739 16.071461 -0.882375 4.000000
-4.834604 16.114580 -0.895557 13.000000
-4.461006 16.151541 -0.891943 10.000000
-4.052742 16.254669 -0.891730 1.000000
2.619633 16.465307 -0.887478 9.000000
2.585119 16.583963 -0.893431 3.000000
4.808424 -21.441319 -0.787313 8.000000
4.976983 -21.404142 -0.787361 16.000000
5.263363 -21.412447 -0.790035 0.000000
1.590265 -21.299009 -0.765257 2.000000
1.661203 -21.345718 -0.767119 2.000000
1.929302 -21.323158 -0.767119 3.000000
5.181942 -21.370604 -0.787886 1.000000
0.715277 -21.226324 -0.760960 1.000000
1.717929 -21.212894 -0.762535 1.000000
0.943431 -21.101339 -0.756806 2.500000
1.075498 -21.085014 -0.756448 2.500000
-3.179883 -14.608757 -0.795838 0.000000
-3.288160 -14.449565 -0.788822 3.000000
4.142427 -12.643879 -0.708239 0.000000
-3.491911 -10.608227 -0.788985 2.000000
-3.423969 -10.512916 -0.781093 0.000000
-3.425724 -10.298105 -0.766717 0.000000
-3.690090 -9.430496 -0.715414 0.000000
-3.807968 -9.340457 -0.712596 1.000000
-3.741785 -9.345644 -0.711186 0.000000
-3.844836 -9.200445 -0.704452 30.000000
-3.324379 -8.154274 -0.775836 1.000000
-3.301070 -7.989391 -0.761618 0.000000
-3.293280 -7.830755 -0.748454 0.000000
-3.296527 -7.669185 -0.735465 0.000000
3.534872 -7.650163 -0.742486 1.000000
3.489898 -7.490935 -0.728092 1.000000
3.486309 -7.422230 -0.722475 0.000000
3.585482 -7.450079 -0.728443 0.000000
3.572514 -7.334604 -0.718789 0.000000
3.578021 -7.258703 -0.712997 0.000000
3.536982 -7.118964 -0.700359 0.000000
-3.994817 -6.966768 -0.707555 0.250000
3.663869 -6.593556 -0.797491 0.000000
3.787782 -6.631946 -0.699508 0.000000
-9.101524 -6.092942 -0.773764 0.000000
-9.128454 -6.028354 -0.772824 1.666667
-9.077656 -5.872708 -0.763804 1.000000
-9.038218 -5.737048 -0.756287 0.500000
-9.011841 -5.572424 -0.748536 1.000000
-3.554040 -5.572232 -0.698734 0.000000
-3.029285 -5.542285 -0.779104 0.000000
-9.024732 -5.424816 -0.743884 0.750000
-3.006821 -5.420183 -0.764577 3.333333
3.303908 -5.399789 -0.724832 0.000000
-9.037922 -5.279289 -0.739445 0.750000
-2.994836 -5.261446 -0.746784 2.250000
3.234195 -5.267498 -0.762455 1.000000
-9.039097 -5.147507 -0.734864 2.000000
-2.992517 -5.125334 -0.732094 4.333333
3.203904 -5.127475 -0.745805 1.000000
-9.048491 -5.090348 -0.733455 1.333333
-9.107203 -4.961188 -0.732666 0.400000
-3.021751 -4.923576 -0.712611 0.857143
3.186867 -4.960578 -0.727295 2.200000
-9.178714 -4.851702 -0.733455 0.000000
3.183966 -4.805127 -0.711037 1.000000
-9.221870 -4.782224 -0.733878 0.000000
-2.968899 -4.788467 -0.794944 4.000000
-10.294631 -4.600698 -0.796596 0.000000
-9.686044 -4.624115 -0.758260 0.666667
-9.538348 -4.627459 -0.748958 0.000000
-9.410793 -4.620416 -0.740643 0.500000
-9.263498 -4.675255 -0.733060 0.400000
-3.003710 -4.662964 -0.782609 4.142857
3.190847 -4.654404 -0.736010 1.200000
-5.337463 -4.508923 -0.738685 0.000000
-3.116561 -4.512883 -0.729256 3.181818
-3.036806 -4.570778 -0.774267 5.000000
3.212330 -4.516229 -0.732696 1.416667
-9.927269 -4.473995 -0.769254 0.000000
-9.756967 -4.434173 -0.757133 0.000000
-9.678365 -4.490449 -0.753750 1.500000
-6.059464 -4.483770 -0.796931 4.000000
-5.951650 -4.462000 -0.786417 3.333333
-5.818311 -4.433931 -0.773380 2.000000
-5.719492 -4.415708 -0.763918 1.000000
-5.290023 -4.426283 -0.729223 1.000000
3.244272 -4.399660 -0.757363 6.714286
-5.348501 -4.376252 -0.730625 3.000000
-4.768073 -4.318747 -0.793550 2.750000
-4.615155 -4.331155 -0.738844 1.625000
-4.458122 -4.337097 -0.708036 1.230769
-4.312030 -4.332998 -0.754060 0.428571
-4.213500 -4.369326 -0.748743 0.000000
-3.759347 -4.298782 -0.704426 1.500000
-3.255325 -4.358374 -0.700896 4.500000
-3.138337 -4.386955 -0.761064 6.000000
3.298307 -4.344529 -0.699132 4.909091
-3.701953 -4.238580 -0.760657 3.666667
-3.578080 -4.249125 -0.742442 4.416667
-3.412792 -4.241381 -0.768119 4.125000
-3.296650 -4.273003 -0.761469 3.800000
3.354213 -4.246316 -0.724958 21.333334
-5.311152 -4.185599 -0.714925 17.666666
-5.278474 -4.182184 -0.711981 4.000000
3.474352 -4.185250 -0.715828 8.600000
3.541268 -4.137501 -0.768399 4.000000
3.632392 -4.111222 -0.774057 3.625000
3.788673 -4.101212 -0.746366 2.500000
3.912647 -4.086675 -0.734241 2.272727
4.079567 -4.072186 -0.711037 2.000000
4.238954 -4.049210 -0.723116 2.000000
4.377334 -4.026382 -0.733644 1.333333
4.529735 -4.011572 -0.746376 1.000000
4.699550 -3.987422 -0.760251 1.000000
4.839336 -3.970631 -0.772167 2.000000
4.993281 -3.941862 -0.784736 3.000000
-9.593154 -3.600159 -0.723871 0.500000
-9.351610 -3.442619 -0.703998 5.000000
-9.305604 -3.326528 -0.698149 2.250000
-7.535349 -3.254639 -0.723178 2.333333
-7.566939 -3.183929 -0.723295 2.333333
5.064413 -2.907536 -0.720341 0.333333
3.397484 -2.804675 -0.779439 0.000000
3.493044 -2.828240 -0.754609 0.500000
3.602343 -2.870569 -0.732022 0.000000
3.769405 -2.845502 -0.721993 1.333333
3.348067 -2.693792 -0.760276 0.000000
3.553885 -2.759657 -0.715071 0.000000
5.010267 -2.697788 -0.701928 1.000000
6.025823 -2.714642 -0.698734 0.833333
3.647629 -2.566451 -0.708793 0.000000
4.978354 -2.413826 -0.731401 0.857143
6.005456 -2.424152 -0.718840 0.900000
5.004315 -2.335406 -0.739905 0.000000
5.081338 -2.336080 -0.789076 0.000000
5.152180 -2.087146 -0.744622 0.800000
7.888280 -1.734355 -0.711593 55.166664
8.490634 -1.736701 -0.763549 2.000000
7.937627 -1.675563 -0.714752 35.333332
8.581631 -1.671222 -0.770289 2.200000
8.595982 -1.520327 -0.769107 2.333333
6.506534 -1.416275 -0.703990 0.000000
8.642700 -1.416826 -0.771623 1.000000
5.568537 -1.378073 -0.707609 0.000000
5.894641 -1.380405 -0.746784 0.000000
6.007552 -1.377065 -0.732932 4.000000
8.710760 -1.343795 -0.776538 14.500000
8.759223 -1.252803 -0.779581 24.000000
8.846127 -1.109668 -0.785490 42.000000
8.918092 -1.189864 -0.792687 175.000000
9.931681 -0.929976 -0.704703 0.500000
10.138651 -0.901283 -0.719079 1.000000
10.296475 -0.882719 -0.730072 0.000000
10.502001 -0.867112 -0.744448 0.000000
10.779122 -0.855908 -0.763898 0.000000
10.988641 -0.837813 -0.778556 1.000000
5.923903 -0.438237 -0.732723 3.571429
5.988108 0.278202 -0.739439 0.000000
5.925224 0.361248 -0.732260 0.875000
-5.807044 1.244825 -0.732583 2.666667
-5.668512 1.271128 -0.716587 3.000000
-5.519476 1.295903 -0.719381 3.000000
-5.388294 1.314829 -0.733532 6.375000
-5.217271 1.342810 -0.712362 3.875000
-5.074629 1.364389 -0.714593 3.142857
-4.908257 1.386941 -0.719640 3.500000
-4.804657 1.404048 -0.765651 4.000000
-4.742939 1.421067 -0.727923 4.166667
-4.610884 1.452698 -0.725212 4.500000
-4.459401 1.493780 -0.709293 7.000000
-4.318428 1.515671 -0.715368 6.000000
4.824965 1.632117 -0.718662 0.000000
5.125803 1.655232 -0.730567 1.076923
5.262741 1.675832 -0.713923 0.666667
5.395157 1.686916 -0.730703 0.666667
5.570615 1.718986 -0.719117 1.000000
5.756125 1.736738 -0.741643 1.000000
6.039876 1.750175 -0.775676 1.000000
6.144575 1.759607 -0.788408 1.000000
9.782423 2.098875 -0.706817 0.000000
10.005032 2.097451 -0.722180 0.000000
3.406664 2.276288 -0.749552 7.000000
3.419048 2.227432 -0.727502 7.102564
-3.617551 2.387413 -0.727858 10.833333
3.397226 2.385238 -0.734429 7.636364
-3.639204 2.540851 -0.739962 9.600000
3.391912 2.539673 -0.714019 2.800000
-3.676076 2.674092 -0.730384 7.800000
3.387176 2.683467 -0.744985 2.583333
-3.728472 2.826090 -0.705588 5.272727
3.391551 2.835459 -0.766098 2.700000
3.412214 2.827827 -0.704309 4.428571
-3.766205 2.924532 -0.729431 3.333333
3.391757 2.918423 -0.791635 1.000000
3.440326 2.995105 -0.711224 5.000000
-3.863756 3.061618 -0.736440 14.300000
-19.973022 3.245653 -0.725010 14.000000
-19.765541 3.275711 -0.717849 16.000000
-19.534428 3.300493 -0.709828 14.000000
-19.346685 3.331326 -0.703383 18.000000
-19.281002 3.382415 -0.701378 19.000000
-19.209755 3.463277 -0.699373 47.500000
-19.099783 3.847722 -0.698084 65.000000
-19.091516 3.908514 -0.698227 66.000000
-4.822946 3.957357 -0.769555 51.000000
-4.751217 3.980967 -0.703730 47.444443
-4.620211 3.972429 -0.733525 50.333332
-4.473650 3.974536 -0.738166 52.000000
-4.319687 3.985818 -0.725028 51.857143
-4.157052 3.996016 -0.711281 54.333332
-3.992643 4.012705 -0.728296 57.299999
-3.876622 4.068580 -0.742928 29.875000
-3.757079 4.094362 -0.784046 11.500000
-3.708168 4.184760 -0.732917 58.812500
-4.525182 14.111204 -0.788822 8.000000
-4.515850 14.235766 -0.794988 8.000000
-4.300890 19.131247 -0.702571 76.000000
-4.165157 19.135344 -0.701664 2.500000
-4.101587 19.279896 -0.706247 1.000000
-4.075410 19.457014 -0.712263 0.000000
4.849836 -17.571285 -0.653111 1.000000
4.913620 -17.586763 -0.654256 0.000000
4.683217 -17.392973 -0.645376 0.000000
4.767276 -17.486162 -0.649387 1.000000
4.729001 -16.623320 -0.619238 47.000000
4.833922 -16.595196 -0.619309 68.000000
4.972167 -16.583479 -0.620312 32.333332
5.084451 -16.578726 -0.621314 0.000000
3.852875 -12.279520 -0.685063 0.000000
3.933438 -11.574513 -0.650725 32.000000
-3.907241 -10.671066 -0.604905 0.000000
-3.499040 -8.211323 -0.630568 0.000000
-3.487001 -8.112312 -0.623803 1.000000
-3.439458 -7.932920 -0.610837 0.000000
-3.447891 -7.850868 -0.605763 0.000000
3.770443 -7.710054 -0.606326 0.000000
-3.534158 -7.005581 -0.691319 3.500000
3.564785 -7.063422 -0.697082 0.333333
-3.712225 -6.972669 -0.695971 4.000000
-3.605999 -6.983496 -0.692460 5.000000
3.595140 -6.932991 -0.688072 0.000000
3.763454 -6.706396 -0.677540 1.000000
3.923167 -6.620282 -0.678008 0.000000
4.050285 -6.619802 -0.683742 0.333333
-9.541376 -5.982955 -0.599483 0.500000
-3.486320 -5.523347 -0.690533 1.000000
3.383950 -5.530768 -0.685486 0.000000
4.142249 -5.524820 -0.608382 1.666667
-3.557538 -5.463503 -0.689271 0.500000
-3.389430 -5.464272 -0.679809 0.250000
-3.268991 -5.440373 -0.671020 0.000000
-3.109221 -5.414196 -0.660074 0.000000
-3.659275 -5.198826 -0.672134 1.000000
3.304411 -5.270004 -0.657625 1.500000
-3.688974 -5.171708 -0.671608 0.500000
3.290628 -5.104362 -0.642065 5.000000
3.277641 -4.946530 -0.627346 0.000000
-12.031544 -4.885505 -0.691229 0.000000
-11.781221 -4.848618 -0.678153 0.500000
3.280001 -4.801329 -0.614751 1.000000
-10.762292 -4.728795 -0.625742 0.000000
-10.647659 -4.748361 -0.620586 0.000000
3.293493 -4.662153 -0.603480 2.600000
-4.389802 -4.580842 -0.670767 0.000000
-5.448030 -4.464505 -0.620581 0.500000
-5.271935 -4.453546 -0.608031 1.000000
-3.213888 -4.475895 -0.679696 0.000000
3.261426 -4.465979 -0.682145 1.000000
-3.512891 -4.294940 -0.684430 6.000000
-3.412031 -4.307817 -0.677877 7.428571
3.627441 -4.159487 -0.680798 4.625000
3.730183 -4.144219 -0.687776 2.000000
4.005499 -4.139132 -0.608947 2.000000
4.085128 -4.126737 -0.613910 3.600000
4.231441 -4.106055 -0.623366 3.285714
4.386353 -4.085830 -0.633760 2.500000
4.528429 -4.074409 -0.644021 2.200000
4.642914 -4.040813 -0.664226 1.812500
4.832764 -4.029213 -0.665216 2.600000
4.981317 -4.009139 -0.676024 2.000000
5.126813 -3.995293 -0.687169 2.000000
-9.240081 -3.172667 -0.690186 1.250000
4.230402 -3.134444 -0.649458 2.250000
-9.216105 -3.019469 -0.685140 0.800000
4.195593 -3.072959 -0.641500 3.000000
4.070403 -2.961664 -0.620933 4.000000
5.093460 -2.978255 -0.603000 5.400000
-9.208286 -2.857534 -0.681138 4.600000
3.961966 -2.867402 -0.646440 2.909091
4.077949 -2.867771 -0.603886 1.000000
6.204627 -2.865793 -0.602151 0.750000
-9.216814 -2.702202 -0.678544 3.600000
5.044289 -2.716201 -0.605703 1.000000
5.014194 -2.569341 -0.694999 1.000000
6.026443 -2.568044 -0.692576 1.000000
6.500701 -2.579123 -0.616175 2.200000
4.359155 -2.445179 -0.616526 0.500000
6.405104 -2.471524 -0.604871 1.000000
5.092657 -2.342360 -0.691449 0.000000
6.011886 -2.274230 -0.679552 0.888889
6.624063 -2.203533 -0.615052 0.000000
6.656043 -2.133091 -0.615813 0.000000
5.225656 -2.044760 -0.692183 0.500000
6.063000 -1.974669 -0.674132 0.000000
8.911746 -1.787892 -0.642125 0.800000
8.921261 -1.664714 -0.641139 0.833333
3.989939 -1.571757 -0.605059 3.714286
5.047561 -1.522026 -0.650315 0.000000
8.936542 -1.522761 -0.640434 0.500000
4.316909 -1.465393 -0.643220 0.000000
5.046355 -1.427036 -0.646887 1.000000
5.171948 -1.427483 -0.661822 0.500000
5.255570 -1.415071 -0.671371 1.000000
5.409211 -1.392875 -0.689000 0.000000
5.635723 -1.451202 -0.615256 0.000000
5.727349 -1.446020 -0.624508 2.000000
5.850597 -1.428291 -0.636703 0.333333
6.145494 -1.408583 -0.666562 0.000000
6.338659 -1.410978 -0.686538 0.000000
8.960100 -1.454429 -0.641280 1.000000
4.223106 -1.338034 -0.625058 16.500000
8.973321 -1.369910 -0.641280 0.600000
4.270579 -1.250370 -0.627852 12.166667
4.337507 -1.211015 -0.635396 2.000000
9.013423 -1.216910 -0.642548 0.166667
9.091707 -1.125987 -0.647199 0.000000
9.115006 -1.099808 -0.648609 1.000000
9.177546 -1.063517 -0.652696 0.500000
9.310978 -1.019658 -0.661716 0.000000
9.476403 -0.992665 -0.673132 0.000000
9.602533 -0.975390 -0.681871 1.000000
9.740561 -0.958503 -0.691455 1.000000
11.256583 -0.893820 -0.601078 1.000000
11.470424 -0.874546 -0.612347 1.000000
11.688235 -0.854229 -0.623828 1.000000
11.933923 -0.834501 -0.636798 1.000000
12.546263 -0.837720 -0.669329 1.000000
-5.315761 -0.616936 -0.660108 0.000000
-5.277173 -0.587276 -0.654967 0.000000
-5.241505 -0.392270 -0.648356 1.000000
5.925186 -0.438081 -0.628140 1.545455
-5.239803 -0.309456 -0.647485 2.333333
-5.251743 -0.215069 -0.648356 1.500000
4.940169 -0.115997 -0.609547 2.750000
5.985755 0.325237 -0.633760 0.000000
4.979890 0.836721 -0.622892 5.000000
6.005435 0.937167 -0.642591 0.000000
-5.950142 1.173275 -0.614434 1.750000
-5.880362 1.207601 -0.608176 3.250000
-5.053033 1.403229 -0.646887 3.000000
-5.027083 1.430138 -0.613802 2.333333
-4.903182 1.444765 -0.630531 3.600000
-4.753295 1.482150 -0.614175 3.600000
-4.617812 1.519886 -0.599680 3.200000
-4.301191 1.543377 -0.644756 4.000000
5.910872 1.572781 -0.646656 6.666667
4.669436 1.685549 -0.612363 3.250000
4.830760 1.684025 -0.631053 4.000000
4.967286 1.679518 -0.662203 4.666667
5.955965 1.680388 -0.654261 2.750000
5.927223 1.763063 -0.680873 3.750000
3.520548 1.860019 -0.606656 1.083333
5.634376 1.826372 -0.626190 0.000000
5.851209 1.825711 -0.620816 1.000000
9.480745 2.096530 -0.685958 0.000000
9.379294 2.120597 -0.679334 0.000000
-18.679569 2.227429 -0.674022 72.000000
-3.639589 2.239586 -0.602984 9.600000
3.422608 2.215032 -0.647896 0.000000
9.102538 2.299916 -0.663266 1.000000
9.144608 2.229250 -0.664958 0.000000
-18.718296 2.381323 -0.676075 69.666664
-3.638906 2.397410 -0.614859 9.000000
3.421389 2.378195 -0.662210 4.400000
9.068024 2.382319 -0.662364 1.000000
3.414559 2.478122 -0.670497 4.000000
-18.820555 2.534611 -0.680419 15.000000
9.012783 2.535095 -0.661434 1.000000
-3.720897 2.677842 -0.600134 3.000000
3.416708 2.668237 -0.688955 0.000000
8.985637 2.695849 -0.662759 1.000000
8.985841 2.788459 -0.664676 0.000000
3.407585 2.834059 -0.625337 0.000000
3.445993 2.954251 -0.640426 2.000000
-3.909088 3.076148 -0.613587 1.000000
3.466876 3.062896 -0.693837 1.000000
-3.980317 3.152500 -0.626319 2.000000
4.746743 3.156117 -0.602639 0.000000
-19.148319 3.576581 -0.697940 70.500000
-19.116978 3.726362 -0.697845 65.000000
-4.904638 3.985708 -0.668160 44.000000
-4.595469 4.005910 -0.644525 44.400002
-4.468108 4.020131 -0.635442 44.000000
-4.015611 4.084610 -0.605583 53.750000
-3.921701 4.103826 -0.600116 56.000000
-3.830609 4.162845 -0.697815 79.333336
-3.760976 4.231627 -0.598539 61.500000
-3.656067 4.259584 -0.692428 40.000000
-3.707499 4.333525 -0.602955 45.750000
3.030576 8.899618 -0.664183 10.500000
3.171045 8.875763 -0.665860 1.600000
3.326612 8.868939 -0.669186 2.000000
2.874302 8.969084 -0.665381 9.833333
2.996561 8.914392 -0.664394 24.000000
2.740213 9.036056 -0.667072 14.500000
2.659159 9.182846 -0.675387 16.750000
2.579652 9.289754 -0.681119 0.333333
2.546791 9.458707 -0.692018 1.000000
2.588077 11.373424 -0.620894 55.200001
2.725716 11.318570 -0.619718 66.333336
2.469059 11.517609 -0.627018 38.666668
-4.091408 16.204752 -0.598828 5.000000
-4.065601 16.318377 -0.602552 3.000000
-4.044853 16.455286 -0.607135 4.000000
-4.075087 16.805899 -0.619596 6.000000
-4.083638 17.075211 -0.629049 3.000000
2.895511 18.553978 -0.672828 32.000000
2.724924 18.610773 -0.673926 25.666666
2.624434 18.745028 -0.678175 2.000000
-4.461985 18.831493 -0.693405 19.666666
-4.355838 18.867268 -0.693787 15.500000
2.593706 18.959127 -0.685623 1.000000
2.563777 19.189068 -0.693644 0.000000
-3.308350 -15.418948 -0.565027 0.000000
-3.314230 -15.213187 -0.557865 3.000000
-3.330934 -15.062186 -0.552709 2.000000
-3.355986 -14.843566 -0.545261 0.000000
-3.443255 -14.692180 -0.540678 0.000000
-3.574360 -14.629290 -0.539580 0.000000
-4.036524 -9.390747 -0.544096 1.000000
-3.900306 -9.439480 -0.543671 0.000000
-3.954556 -9.382189 -0.541970 0.250000
-3.445069 -7.712473 -0.596742 0.000000
-3.495036 -7.474685 -0.582930 0.000000
-3.503271 -7.371507 -0.576588 0.000000
-3.563690 -7.204615 -0.567850 0.000000
-4.031056 -7.030082 -0.572501 0.500000
-3.865887 -7.020304 -0.566187 2.000000
-3.717430 -7.035674 -0.562165 3.000000
-3.633744 -7.064434 -0.561225 0.000000
3.748090 -6.931947 -0.556715 0.000000
3.920804 -6.720434 -0.549668 0.333333
3.955786 -6.667448 -0.547695 0.000000
4.040793 -6.674705 -0.551219 0.000000
-9.451738 -6.022315 -0.596570 1.200000
-9.425221 -5.848439 -0.590447 0.000000
-9.377893 -5.737813 -0.585217 0.000000
-9.389134 -5.623732 -0.582580 0.000000
-3.233895 -5.498840 -0.562042 0.000000
3.506138 -5.533325 -0.577138 1.000000
-9.348396 -5.421331 -0.575245 0.000000
3.632197 -5.425455 -0.575242 0.800000
3.785773 -5.448800 -0.584569 1.000000
3.919291 -5.420086 -0.589308 0.000000
-3.377462 -5.369481 -0.558883 0.000000
-3.231672 -5.335887 -0.549624 0.000000
3.450474 -5.389252 -0.563798 0.500000
3.406630 -5.265848 -0.552564 0.000000
3.436860 -5.258063 -0.553441 0.000000
4.036305 -5.286234 -0.585984 2.800000
-9.717724 -4.695570 -0.574501 0.500000
-9.551579 -4.745543 -0.567732 0.166667
-3.376653 -4.549984 -0.499203 0.000000
3.330066 -4.515455 -0.593177 0.250000
3.462837 -4.499834 -0.500256 0.000000
4.815256 -4.499735 -0.580648 0.000000
-4.563957 -4.402726 -0.558707 0.000000
-4.426106 -4.433784 -0.551979 0.750000
-3.707497 -4.365552 -0.560520 1.222222
-3.582721 -4.357280 -0.559981 4.000000
-3.411010 -4.362650 -0.585490 4.111111
-3.322385 -4.389794 -0.582033 0.000000
3.383214 -4.368132 -0.584135 3.857143
3.415736 -4.297248 -0.580350 6.000000
4.812255 -4.330045 -0.570351 0.333333
3.486520 -4.261058 -0.582085 6.000000
3.626924 -4.212006 -0.587657 3.500000
3.794661 -4.196302 -0.559633 2.923077
3.929520 -4.175035 -0.568753 1.368421
4.072524 -4.175317 -0.526690 0.625000
4.809761 -4.166345 -0.560638 2.000000
4.838634 -4.085979 -0.557980 3.142857
4.940856 -4.054111 -0.563096 1.500000
-9.581716 -3.419443 -0.541544 7.333333
-9.610680 -3.367484 -0.542076 1.000000
-7.537303 -3.248443 -0.579830 3.750000
-7.571239 -3.185730 -0.580299 2.333333
5.146295 -2.893475 -0.576782 3.909091
4.196149 -2.870418 -0.537508 0.500000
6.044073 -2.884304 -0.590039 5.000000
6.494976 -2.803900 -0.499775 2.000000
6.037374 -2.696890 -0.582579 1.000000
6.498301 -2.709328 -0.558364 1.750000
6.650707 -2.747874 -0.508373 1.500000
6.751615 -2.727830 -0.514433 0.000000
6.040110 -2.596285 -0.579244 0.800000
6.226496 -2.595646 -0.594340 0.000000
5.072125 -2.547642 -0.544383 0.500000
5.046717 -2.418123 -0.591645 0.857143
5.113461 -2.371420 -0.595911 0.000000
7.909762 -1.852305 -0.573910 1.000000
9.715246 -1.812912 -0.526076 1.250000
7.893939 -1.750784 -0.571232 64.125000
5.180989 -1.597841 -0.573201 1.000000
7.948386 -1.670349 -0.573789 39.857143
9.726285 -1.673057 -0.525343 1.200000
4.078480 -1.542069 -0.571094 2.391304
5.091789 -1.500618 -0.561216 1.000000
6.606482 -1.496038 -0.596797 0.666667
9.747428 -1.519397 -0.525130 1.000000
4.262907 -1.477771 -0.556538 0.000000
5.997537 -1.474234 -0.544138 1.500000
6.251623 -1.474301 -0.565904 0.000000
6.437087 -1.486118 -0.582053 0.000000
9.773253 -1.366564 -0.525300 1.000000
9.808578 -1.214727 -0.526108 1.000000
9.853813 -1.126184 -0.527937 1.000000
9.900379 -1.068486 -0.530063 1.000000
10.067471 -1.006553 -0.538568 1.000000
10.198784 -0.922710 -0.545106 1.250000
11.046718 -0.912087 -0.590022 0.000000
4.941695 -0.002272 -0.582781 6.961538
4.904651 0.011985 -0.518531 0.000000
4.929035 0.124321 -0.586484 10.416667
4.952089 0.586841 -0.578951 7.941176
4.956287 0.718522 -0.593691 8.363636
5.127213 0.869067 -0.549791 1.666667
-5.949885 1.295081 -0.590203 2.000000
-5.182157 1.433082 -0.568435 0.000000
-5.115030 1.568710 -0.565631 0.500000
-4.510984 1.547908 -0.588287 4.333333
-4.437551 1.569641 -0.580615 4.333333
-4.324320 1.598546 -0.568699 4.166667
-4.171474 1.609012 -0.591117 4.500000
-4.017096 1.653774 -0.576911 5.000000
3.800658 1.691800 -0.568350 1.125000
3.928763 1.684364 -0.565063 1.000000
4.381496 1.707102 -0.580043 3.000000
4.517790 1.695300 -0.595224 7.750000
-3.842290 1.758762 -0.541945 8.000000
3.602282 1.743411 -0.582192 7.833333
3.748894 1.717965 -0.520824 2.500000
3.927066 1.710798 -0.528381 1.000000
4.292307 1.711588 -0.570005 0.000000
4.396242 1.713123 -0.582002 2.500000
4.884474 1.763285 -0.549020 0.000000
4.977715 1.726429 -0.557010 2.000000
5.121103 1.731405 -0.571519 0.000000
5.712268 1.812038 -0.527990 0.000000
6.005945 1.815531 -0.552798 1.000000
3.603078 1.952681 -0.526093 0.428571
-3.679818 2.091644 -0.571894 3.200000
3.637463 2.011302 -0.512710 0.000000
3.766507 2.105978 -0.532298 0.000000
9.487376 2.207657 -0.518510 0.000000
9.685475 2.189822 -0.528574 0.000000
9.908245 2.191095 -0.540162 0.500000
-3.700428 2.230941 -0.564549 3.833333
9.381710 2.261042 -0.513691 0.500000
-3.678727 2.398684 -0.574857 5.142857
3.450239 2.374082 -0.590943 0.454545
9.321050 2.323999 -0.511352 0.000000
3.433590 2.467273 -0.596557 0.000000
9.403056 2.501960 -0.517943 0.000000
9.441776 2.480526 -0.519644 0.000000
-3.683550 2.538126 -0.594415 4.461538
-5.200108 2.640435 -0.513830 0.000000
-5.325582 2.739327 -0.527639 0.000000
-3.896930 2.742876 -0.503811 1.000000
-5.335026 2.817647 -0.531578 0.222222
-4.513904 2.909011 -0.567734 0.000000
-3.856936 2.818740 -0.523831 1.000000
-3.778009 2.813059 -0.581023 2.750000
3.475661 2.878657 -0.580508 0.500000
3.577821 2.899331 -0.568046 1.000000
-4.494731 2.916683 -0.566473 0.000000
-3.950536 2.999722 -0.524418 1.000000
-3.875573 2.973396 -0.578925 1.454545
3.699224 2.921471 -0.498344 0.000000
3.946916 3.027414 -0.525890 1.000000
4.069590 3.057670 -0.538156 0.666667
4.277221 3.133893 -0.560585 0.000000
4.308045 3.125385 -0.562688 0.000000
4.843430 3.143951 -0.576357 1.500000
4.954169 3.117259 -0.515703 0.500000
-4.313783 4.060338 -0.578038 31.000000
-4.175967 4.075351 -0.575554 51.099998
-4.121393 4.114183 -0.513070 60.000000
-4.017414 4.138181 -0.508155 62.750000
-3.871665 4.171510 -0.565577 38.857143
-4.287759 6.685237 -0.561085 1.000000
-4.211153 6.739316 -0.561413 2.000000
-4.208905 6.854934 -0.568272 0.500000
-4.080135 7.087015 -0.577716 2.500000
3.182227 8.996152 -0.507950 3.000000
3.339591 8.989226 -0.510459 2.400000
2.931025 9.047606 -0.506249 0.000000
3.030312 9.014750 -0.506249 2.800000
2.804556 9.196245 -0.511777 0.000000
2.859015 9.117672 -0.508641 0.000000
2.754550 9.293596 -0.515977 0.000000
2.701807 9.441098 -0.522727 0.000000
2.670901 9.559837 -0.528362 0.000000
2.584262 9.658080 -0.532189 2.000000
2.641299 9.688173 -0.534528 0.500000
-4.653973 13.773601 -0.520913 14.666667
-4.569329 14.104818 -0.531225 0.000000
-4.568918 14.256145 -0.536381 0.000000
-4.548265 14.346641 -0.539246 2.000000
2.418098 14.311845 -0.520054 0.000000
2.399267 14.477118 -0.525783 2.000000
-4.574938 14.589716 -0.547840 2.000000
2.402504 14.784455 -0.536668 0.000000
-4.893724 15.867836 -0.594961 7.500000
-4.755189 15.859793 -0.593242 19.000000
-4.619285 15.858313 -0.591810 35.000000
-4.488414 15.872273 -0.590998 37.000000
-4.315056 15.926095 -0.591201 43.750000
-4.178160 16.017385 -0.593099 12.000000
-4.126442 16.129856 -0.596536 9.000000
-4.039160 -10.661181 -0.408481 0.000000
-4.018369 -10.506559 -0.403038 0.000000
-6.222290 -9.519531 -0.407478 0.000000
-6.124088 -9.499038 -0.404948 0.000000
-5.968954 -9.474607 -0.401224 0.000000
-5.818921 -9.476970 -0.398455 0.666667
-9.916709 -8.136985 -0.459612 0.000000
-9.834075 -7.966319 -0.453454 0.000000
-3.632003 -7.945864 -0.465054 0.500000
-9.790544 -7.880245 -0.450303 0.000000
-3.646338 -7.830398 -0.459792 1.000000
-10.000622 -7.618442 -0.450446 0.000000
-9.922501 -7.657916 -0.449085 0.000000
-3.660527 -7.671315 -0.452456 1.000000
-10.018115 -7.498396 -0.448355 1.000000
-3.709890 -7.529743 -0.446822 1.250000
3.894423 -7.527425 -0.451138 0.000000
-10.287095 -7.337645 -0.452737 1.500000
-10.130632 -7.322526 -0.447868 4.000000
-10.025496 -7.367196 -0.445767 2.000000
-3.760541 -7.368022 -0.440337 1.800000
3.894888 -7.368813 -0.443668 0.333333
-3.871197 -7.216988 -0.435952 1.000000
3.911538 -7.207319 -0.436510 0.000000
-5.152492 -7.128359 -0.468190 0.000000
-5.043811 -7.110322 -0.464044 0.833333
-4.916691 -7.103068 -0.459845 1.000000
-4.765129 -7.096385 -0.455008 0.800000
-4.620155 -7.095322 -0.450702 2.000000
-4.477316 -7.093158 -0.446503 2.000000
-4.170877 -7.091902 -0.437956 1.000000
-4.035271 -7.114875 -0.435404 1.000000
-3.972319 -7.160357 -0.435872 1.000000
-4.315464 -7.080749 -0.441400 1.200000
3.959377 -7.055880 -0.430684 0.800000
3.998859 -6.971113 -0.427792 0.000000
4.053532 -6.889944 -0.425524 0.000000
4.129211 -6.796712 -0.423327 0.666667
-9.878901 -5.971087 -0.413589 1.000000
-9.882255 -5.874735 -0.411918 1.000000
-9.876186 -5.725118 -0.409018 1.000000
-9.873337 -5.579280 -0.406332 1.000000
3.912271 -5.519119 -0.477930 0.750000
4.163419 -5.562366 -0.490849 2.250000
-9.825477 -5.410647 -0.401892 0.250000
3.654817 -5.422610 -0.433327 0.750000
3.735054 -5.394030 -0.463507 1.000000
4.132004 -5.404439 -0.480607 3.000000
-3.289279 -5.378158 -0.445372 0.500000
3.546622 -5.370573 -0.454674 0.000000
-9.888968 -5.264769 -0.401405 1.400000
-3.290024 -5.267433 -0.438748 2.500000
3.535805 -5.281909 -0.449037 0.000000
-9.920322 -5.102791 -0.399708 1.000000
-3.296470 -5.115416 -0.429925 4.200000
3.969593 -5.124938 -0.457963 5.666667
-9.946211 -4.965535 -0.398312 1.000000
-3.310895 -4.964740 -0.421582 4.000000
-11.060259 -4.878107 -0.433115 0.000000
-10.847353 -4.845440 -0.425668 0.000000
-10.788339 -4.859795 -0.423949 0.000000
-10.325692 -4.828021 -0.408409 0.500000
-10.178148 -4.817710 -0.403468 2.000000
-3.329678 -4.859300 -0.416151 1.666667
-3.363478 -4.778781 -0.412843 1.000000
-3.438866 -4.664535 -0.409417 1.000000
-5.219691 -4.500391 -0.486889 0.571429
-5.117159 -4.505004 -0.481641 0.333333
-3.563211 -4.542619 -0.407882 1.600000
4.861256 -4.493499 -0.429324 3.866667
-4.568247 -4.476683 -0.451856 0.000000
-4.463796 -4.457366 -0.445654 1.000000
-4.376783 -4.453847 -0.441144 0.000000
-4.122680 -4.453611 -0.428741 0.500000
-4.017414 -4.450624 -0.423573 1.166667
-3.868671 -4.451786 -0.416667 3.166667
-3.709481 -4.463074 -0.409996 2.500000
-3.528300 -4.397696 -0.496746 4.000000
-3.444929 -4.420366 -0.493762 5.166667
-3.384039 -4.485941 -0.495078 5.000000
3.483327 -4.453496 -0.448615 0.000000
4.873292 -4.391320 -0.428173 5.076923
3.504100 -4.370155 -0.458307 1.214286
4.909739 -4.362136 -0.463976 6.000000
3.542648 -4.288418 -0.490076 4.000000
3.641671 -4.262211 -0.475994 3.454545
3.764002 -4.253060 -0.424413 1.764706
4.054530 -4.216195 -0.413238 0.666667
4.803209 -4.187221 -0.450164 2.333333
4.848776 -4.107561 -0.448943 2.500000
4.937692 -4.090622 -0.452983 1.000000
-7.528670 -3.237722 -0.436244 3.500000
-7.578252 -3.174687 -0.437360 1.500000
4.285900 -2.887691 -0.455321 2.250000
4.395427 -2.852076 -0.415613 0.500000
5.165758 -2.874244 -0.417635 1.200000
5.232732 -2.838777 -0.420567 0.000000
6.049248 -2.859490 -0.433949 2.666667
6.126493 -2.864645 -0.477789 4.000000
6.330120 -2.868385 -0.433607 1.578947
6.441329 -2.834033 -0.479663 1.714286
5.019244 -2.552019 -0.496102 0.666667
5.229630 -1.942829 -0.434315 0.705882
7.922155 -1.855207 -0.433108 9.000000
7.890719 -1.750106 -0.430238 38.375000
4.246401 -1.607776 -0.439536 1.500000
4.324077 -1.598660 -0.406173 1.000000
7.939614 -1.668533 -0.431863 26.571428
4.232115 -1.549565 -0.476476 1.000000
4.352219 -1.508792 -0.486990 1.000000
4.469841 -1.533856 -0.416354 1.000000
5.118121 -1.537470 -0.408596 1.000000
6.008012 -1.516908 -0.437761 0.000000
6.167042 -1.505644 -0.448473 0.000000
6.378248 -1.514809 -0.463131 0.000000
6.573911 -1.561244 -0.418593 0.000000
11.297639 -1.437242 -0.408051 0.000000
11.096918 -0.988422 -0.399171 1.000000
11.338934 -0.974083 -0.407764 1.000000
11.652677 -0.964167 -0.418936 1.000000
12.014283 -0.956095 -0.431826 2.000000
12.495525 -0.954897 -0.449014 3.000000
9.273622 -0.152158 -0.493705 1.000000
7.852602 0.439029 -0.418650 0.000000
7.772274 1.056988 -0.417533 0.000000
-6.073056 1.315215 -0.438983 0.666667
-5.969804 1.338717 -0.432218 1.666667
-5.083557 1.505390 -0.401027 1.000000
-4.395770 1.638292 -0.440807 0.000000
-4.342009 1.636336 -0.490564 0.000000
-4.138130 1.671822 -0.471850 4.200000
-4.062988 1.701216 -0.465682 6.000000
-3.997589 1.746934 -0.413808 5.153846
-3.885676 1.797050 -0.427424 2.800000
3.657022 1.793334 -0.423715 3.181818
3.778829 1.773515 -0.401156 1.090909
3.919174 1.752753 -0.423685 1.500000
4.157939 1.756989 -0.430611 0.333333
4.324982 1.740386 -0.492877 0.000000
4.872236 1.807213 -0.418859 0.000000
4.958546 1.779185 -0.423219 0.777778
5.077160 1.770047 -0.426776 0.000000
3.559788 1.868661 -0.460211 0.416667
5.638324 1.847247 -0.419157 0.000000
5.756205 1.845899 -0.427050 0.000000
5.862481 1.843387 -0.434153 0.800000
-3.786407 1.917660 -0.448720 0.000000
3.540913 1.914699 -0.425590 0.000000
-3.793272 2.599253 -0.486149 1.000000
-3.777477 2.562389 -0.482574 0.000000
-3.824725 2.656375 -0.492317 1.000000
-4.030524 2.724769 -0.428641 0.000000
-3.921378 2.787820 -0.423901 0.000000
-4.566023 2.882061 -0.419230 0.600000
-4.011309 2.829038 -0.415054 0.400000
3.514938 2.866688 -0.439539 0.700000
3.615089 2.865469 -0.441230 0.857143
-4.486067 2.921006 -0.471645 0.750000
-4.056883 2.971336 -0.398988 2.000000
3.802205 2.945043 -0.423726 0.000000
4.063084 3.076180 -0.449002 1.750000
4.897900 3.081995 -0.408822 1.333333
-5.065748 4.077252 -0.459396 1.000000
-4.320559 4.127186 -0.422117 29.666666
-4.169332 4.148758 -0.415533 55.428570
-4.044481 4.192544 -0.411547 0.166667
3.932313 4.468036 -0.420496 0.000000
4.046667 4.469118 -0.425922 1.000000
4.185364 4.464704 -0.432335 1.750000
4.034154 6.909121 -0.425879 1.000000
3.567863 6.990289 -0.417764 5.500000
3.667615 6.941487 -0.417906 13.250000
3.964868 6.914620 -0.424284 1.000000
3.881273 7.101055 -0.430769 0.000000
2.890484 11.439838 -0.422767 59.000000
2.758676 11.526804 -0.424665 0.000000
11.442979 -17.216547 -0.381773 2.000000
11.394696 -17.027618 -0.378375 4.000000
11.356510 -16.855753 -0.375347 6.000000
11.337190 -16.638544 -0.371826 8.666667
11.329071 -16.477736 -0.369291 13.000000
11.337535 -16.379583 -0.367887 16.000000
11.358400 -16.245678 -0.366078 21.000000
-3.985131 -10.322341 -0.396450 0.000000
-4.012911 -9.838243 -0.380695 0.000000
-5.489372 -9.465738 -0.392057 0.666667
-5.357774 -9.477334 -0.390076 0.000000
-5.201693 -9.477343 -0.387355 0.000000
-5.056632 -9.458218 -0.384275 0.000000
-4.917274 -9.445833 -0.381554 0.000000
-4.781644 -9.458306 -0.379733 0.285714
-4.622580 -9.452412 -0.377007 0.250000
-4.474351 -9.448336 -0.374572 1.000000
-4.311711 -9.447868 -0.372101 1.000000
-4.163138 -9.475029 -0.370812 0.000000
-3.802282 -7.622865 -0.305215 1.000000
-18.998482 -6.353118 -0.369955 1.000000
-3.857471 -5.328085 -0.350150 0.500000
-3.908381 -5.232115 -0.347634 2.000000
-3.785967 -5.203293 -0.342532 1.000000
3.622370 -5.266826 -0.340264 0.000000
-3.929981 -5.125548 -0.343807 2.000000
3.576261 -5.096209 -0.331404 0.000000
-3.936904 -5.019157 -0.339555 2.000000
-3.677205 -5.020584 -0.331263 2.000000
-3.977867 -4.942288 -0.337712 2.000000
3.556486 -4.951431 -0.324512 0.000000
-9.989698 -4.824791 -0.397488 0.000000
-4.048804 -4.825356 -0.335302 1.714286
3.556351 -4.818115 -0.318771 0.250000
-4.080225 -4.725328 -0.332326 1.000000
-4.288110 -4.603204 -0.334877 1.000000
-4.161464 -4.654273 -0.332349 1.000000
3.568596 -4.667770 -0.312765 3.000000
-4.885978 -4.553010 -0.355501 0.333333
-4.756703 -4.545445 -0.350221 1.666667
-4.618872 -4.540281 -0.344764 1.500000
-4.451821 -4.544320 -0.338634 1.000000
-4.355914 -4.574118 -0.336224 1.000000
3.572182 -4.508890 -0.306209 1.500000
3.624897 -4.346185 -0.350302 2.412698
3.769901 -4.309194 -0.304776 2.000000
4.862565 -4.347635 -0.347209 0.000000
3.849280 -4.290093 -0.306811 2.000000
3.932287 -4.273107 -0.309120 2.000000
4.083815 -4.246497 -0.313615 2.000000
4.221303 -4.227042 -0.317995 0.000000
4.359951 -4.230992 -0.323396 0.000000
4.863759 -4.133531 -0.339768 3.000000
5.353476 -4.131671 -0.359966 0.000000
5.440675 -4.096179 -0.362518 0.400000
5.553370 -4.067378 -0.366416 1.000000
-9.832871 -3.391489 -0.372674 13.000000
-9.896894 -3.344074 -0.374297 1.333333
4.490826 -2.814891 -0.374432 0.000000
5.151178 -2.801472 -0.312127 0.333333
5.218251 -2.799163 -0.315210 0.000000
4.504887 -2.774641 -0.373774 0.000000
4.979241 -2.590972 -0.298785 0.000000
4.266896 -2.220255 -0.339808 1.250000
4.389454 -2.214418 -0.304368 2.000000
4.257572 -2.173087 -0.337694 1.000000
4.391792 -2.162500 -0.333529 2.857143
5.228238 -1.886406 -0.392660 0.000000
4.546552 -1.575870 -0.339949 0.000000
6.026605 -1.551730 -0.331263 0.333333
6.322580 -1.554080 -0.346571 0.000000
10.243590 -1.196837 -0.369523 0.000000
10.259330 -1.092797 -0.369666 0.500000
10.320056 -1.050093 -0.371671 0.000000
10.498343 -1.034921 -0.377973 0.000000
10.668675 -1.017881 -0.383989 0.000000
10.874828 -1.003084 -0.391293 0.000000
4.320905 -0.234012 -0.381248 0.000000
9.715874 -0.191644 -0.348182 0.000000
4.261273 -0.110118 -0.301143 3.000000
9.263281 -0.117272 -0.331926 1.000000
4.027838 -0.024122 -0.367756 0.818182
4.243407 -0.056328 -0.299809 4.000000
9.184023 -0.022507 -0.329062 0.000000
4.002273 0.125479 -0.352812 1.000000
4.015173 0.132387 -0.353966 1.000000
9.842902 0.146081 -0.352708 2.000000
9.922709 0.240773 -0.355630 1.000000
10.689991 0.259391 -0.383130 0.000000
3.991773 0.450544 -0.358629 0.933333
4.019800 0.412829 -0.356042 1.000000
9.832800 0.439637 -0.352658 2.250000
4.012832 0.590825 -0.357376 1.000000
9.831724 0.547953 -0.352813 2.333333
4.228913 0.728447 -0.303163 2.250000
9.824739 0.780141 -0.353124 2.000000
9.997739 0.746469 -0.359211 0.000000
10.643525 0.794686 -0.382413 1.000000
9.822879 0.873168 -0.353339 1.500000
9.129888 0.912914 -0.328751 0.000000
9.184611 1.035304 -0.331167 1.000000
-5.829129 1.394055 -0.319037 1.000000
-5.777874 1.410630 -0.316592 2.000000
-5.168683 1.487954 -0.379976 0.000000
-18.671947 1.781485 -0.346395 79.666664
-4.208571 1.746691 -0.321908 2.000000
-4.120096 1.725163 -0.393535 3.000000
-3.937791 1.839985 -0.307063 0.750000
-3.880779 1.886872 -0.380195 0.000000
5.574591 1.865113 -0.312906 1.000000
5.697527 1.866643 -0.319143 1.000000
-18.693222 1.931769 -0.347059 77.500000
-3.936272 1.956104 -0.310532 1.785714
-18.718506 2.083120 -0.347823 76.666664
-3.937245 2.040514 -0.334814 1.055555
-3.890589 2.089545 -0.389088 0.000000
-18.747938 2.235569 -0.348684 75.500000
9.653403 2.308669 -0.355630 0.000000
9.761479 2.285882 -0.359211 0.000000
9.924101 2.274745 -0.364797 1.000000
10.130057 2.288481 -0.372101 0.000000
10.437083 2.289014 -0.382843 0.000000
-18.776049 2.388641 -0.349546 75.666664
9.458772 2.372314 -0.349400 0.500000
9.595816 2.342711 -0.353911 0.000000
9.389469 2.417798 -0.347395 4.000000
-18.801697 2.512024 -0.350309 49.000000
9.382688 2.526402 -0.348154 2.600000
-4.141923 2.706270 -0.349533 0.000000
-4.023422 2.703397 -0.304496 1.096774
9.367030 2.617084 -0.348469 2.000000
9.418146 2.711324 -0.351154 57.000000
-4.495481 2.863943 -0.397440 0.666667
3.551439 2.822918 -0.320499 1.000000
9.404710 2.852025 -0.352121 212.500000
9.415540 2.823032 -0.352193 125.000000
-4.107806 2.939832 -0.356862 13.000000
3.580619 2.920281 -0.326418 0.000000
9.379718 3.006068 -0.352909 7.666667
9.414499 2.935902 -0.353339 60.000000
4.105628 3.024010 -0.386907 1.300000
9.370687 3.133636 -0.354026 1.200000
9.359615 3.239251 -0.354866 0.666667
-19.859104 3.355350 -0.371950 1.000000
-19.479166 3.417179 -0.365228 20.000000
-19.323109 3.483679 -0.362607 11.000000
-19.279205 3.601048 -0.362200 1.000000
-19.265976 3.692610 -0.362274 1.000000
-19.224794 3.778711 -0.361831 1.000000
-5.154986 4.122406 -0.351355 0.000000
-4.170130 4.202057 -0.315134 55.000000
-4.055002 4.229973 -0.311914 39.000000
4.239722 4.508406 -0.329434 1.000000
4.373478 4.506570 -0.334282 1.400000
3.967948 4.522965 -0.320277 0.000000
4.084396 4.510508 -0.323912 0.000000
3.547590 7.646341 -0.302016 0.000000
3.627029 7.628196 -0.302637 0.000000
3.556552 7.793324 -0.306933 0.000000
3.647382 7.733555 -0.306360 0.000000
3.654419 8.108851 -0.318678 2.000000
4.025239 8.165962 -0.326197 0.000000
3.183578 9.085717 -0.344946 1.200000
3.339206 9.070584 -0.346321 1.600000
3.471461 9.076523 -0.348182 1.000000
3.079235 9.155140 -0.346082 0.333333
3.026209 9.286388 -0.349949 0.000000
2.970586 9.416168 -0.353768 0.000000
2.932386 9.555763 -0.358137 0.000000
2.913052 9.709927 -0.363221 0.000000
-4.900390 15.978540 -0.308653 0.666667
-4.766749 15.989742 -0.308136 11.000000
-4.635094 16.006159 -0.307742 18.666666
-4.480080 16.035013 -0.307471 18.666666
-4.331858 16.088114 -0.307693 12.666667
-4.241887 16.157614 -0.308505 1.000000
-4.143266 16.410143 -0.312568 0.000000
-4.128428 16.570549 -0.315374 0.000000
-4.114538 16.738783 -0.318329 2.000000
3.024400 18.685541 -0.349571 7.400000
2.894147 18.738564 -0.350161 7.500000
2.857934 19.100077 -0.356661 0.000000
2.775855 19.382902 -0.361609 0.000000
2.760419 19.716305 -0.367666 1.000000
-3.548978 -15.143032 -0.287234 0.000000
-5.850542 -10.125246 -0.215961 0.000000
3.864084 -5.223993 -0.232814 0.333333
3.895109 -5.113237 -0.230307 2.750000
3.882096 -4.965489 -0.225832 3.750000
3.911784 -4.829185 -0.222676 3.428571
3.969226 -4.670641 -0.219619 1.625000
4.002501 -4.576853 -0.217847 1.000000
4.085896 -4.512477 -0.218119 1.000000
4.163713 -4.441664 -0.218133 1.000000
4.229484 -4.385805 -0.218312 2.000000
4.384639 -4.337180 -0.220977 3.714286
4.486207 -4.314175 -0.223003 1.500000
4.544918 -4.261906 -0.223242 0.833333
4.680361 -4.225887 -0.225939 1.000000
4.822996 -4.182432 -0.288388 1.615385
4.981519 -4.181184 -0.243224 0.909091
5.134658 -4.187515 -0.237397 1.000000
5.236066 -4.175356 -0.239951 0.333333
-7.537128 -3.246801 -0.294043 5.250000
-7.575976 -3.186157 -0.294473 2.333333
4.565400 -2.831852 -0.285975 1.500000
4.766430 -2.824477 -0.198511 0.000000
4.582465 -2.731117 -0.283970 1.571429
4.629099 -2.702860 -0.285337 1.000000
4.587816 -2.578077 -0.280135 0.533333
4.873216 -2.584593 -0.293629 0.000000
4.900882 -2.443489 -0.291503 0.000000
4.504121 -2.245546 -0.267902 0.000000
4.494994 -2.041824 -0.262799 0.000000
4.537891 -1.947719 -0.262870 1.333333
4.551392 -1.822377 -0.260980 2.666667
7.935742 -1.859850 -0.292038 9.000000
4.562281 -1.692588 -0.259032 1.285714
7.900335 -1.786248 -0.290212 35.000000
4.621183 -1.626479 -0.260779 2.000000
5.092003 -1.623107 -0.284486 0.000000
5.424137 -1.599370 -0.202617 0.000000
5.604971 -1.605034 -0.208895 0.000000
5.730434 -1.602093 -0.213192 0.000000
5.877305 -1.603361 -0.218276 0.500000
6.010875 -1.599311 -0.222860 1.000000
6.198803 -1.607653 -0.229448 0.000000
6.357388 -1.616934 -0.235034 0.000000
6.502014 -1.631987 -0.240190 0.000000
7.941023 -1.677697 -0.290806 26.200001
4.727619 -1.580889 -0.265350 0.000000
5.172312 -1.559584 -0.287569 0.500000
10.766562 -1.095526 -0.199860 1.000000
10.976912 -1.082098 -0.203701 1.000000
11.179319 -1.066601 -0.207394 1.000000
11.437490 -1.054984 -0.212121 1.000000
11.759431 -1.047433 -0.218029 2.000000
12.081435 -1.037868 -0.223938 3.000000
12.427406 -1.028270 -0.230290 1.000000
-4.036168 -0.850594 -0.219566 1.000000
-3.717922 -0.852885 -0.269478 1.000000
-3.871096 -0.761034 -0.210008 1.000000
-3.715112 -0.782332 -0.245953 1.000000
-3.536047 -0.755950 -0.255455 0.500000
-3.471535 -0.755193 -0.275838 0.800000
-3.737139 -0.613604 -0.201603 1.000000
-3.402122 -0.613701 -0.244237 1.000000
-3.367379 -0.514710 -0.240656 1.000000
-3.323704 -0.448448 -0.236949 1.100000
-3.308419 -0.315718 -0.234807 2.785714
-3.313748 -0.164416 -0.234412 3.466667
4.394442 -0.152285 -0.295173 1.600000
4.496132 -0.116165 -0.239411 2.000000
5.110371 -0.156136 -0.272154 1.500000
-3.319149 -0.013222 -0.234505 3.357143
4.444983 -0.079866 -0.236647 4.500000
4.696191 0.000249 -0.249989 1.125000
4.765138 -0.033267 -0.253656 1.000000
-3.331709 0.089591 -0.235465 1.666667
4.169138 0.062583 -0.294566 0.000000
-3.751129 0.191299 -0.199934 1.000000
-3.366006 0.146861 -0.238036 0.909091
4.679996 0.136318 -0.249234 0.500000
-3.856126 0.300306 -0.205887 0.666667
-3.767387 0.233777 -0.200926 1.000000
4.236866 0.303703 -0.262486 1.000000
4.640538 0.259410 -0.247408 0.000000
-4.095645 0.390038 -0.218999 0.000000
-4.061053 0.373874 -0.217085 1.000000
-3.954784 0.351563 -0.211345 1.000000
-3.728859 0.384711 -0.264827 0.500000
4.121180 0.321449 -0.292029 0.000000
4.584433 0.362504 -0.244797 0.000000
4.072876 0.439391 -0.289411 0.000000
4.627932 0.439724 -0.247464 0.125000
4.093613 0.573356 -0.292029 0.000000
4.597246 0.577525 -0.246640 0.555556
4.639523 0.540556 -0.248644 1.000000
4.534848 0.693040 -0.244195 4.000000
4.672137 0.679583 -0.251317 1.400000
4.385208 0.733577 -0.251969 2.600000
7.771044 1.074037 -0.281081 36.666668
7.737985 1.156496 -0.280329 42.250000
7.788965 1.239225 -0.282585 8.500000
-5.680363 1.462777 -0.261608 0.500000
-5.480667 1.522924 -0.203811 0.000000
-5.345783 1.544432 -0.199371 0.000000
-5.152314 1.535973 -0.286187 0.000000
-5.073276 1.560209 -0.282537 0.416667
-4.587273 1.679558 -0.260035 0.500000
-4.466706 1.683254 -0.295249 1.166667
-4.447008 1.715899 -0.253727 3.000000
-4.365279 1.723911 -0.249829 1.500000
-4.141535 1.873458 -0.241962 0.000000
3.658994 1.882890 -0.285496 4.142857
3.769512 1.835905 -0.296210 1.333333
3.907426 1.839041 -0.267109 1.250000
3.916613 1.864639 -0.230906 1.000000
4.061179 1.845514 -0.237455 1.600000
4.209545 1.818015 -0.288303 0.333333
4.338641 1.841643 -0.250892 0.000000
4.847686 1.849764 -0.276194 0.000000
4.967617 1.828563 -0.281775 0.750000
5.119957 1.839261 -0.289589 0.000000
5.286034 1.897773 -0.201233 0.666667
5.444669 1.886662 -0.263833 0.285714
3.772727 1.927289 -0.225530 1.142857
3.659670 2.083988 -0.234558 0.857143
-3.928530 2.271680 -0.266837 0.250000
3.608252 2.231270 -0.225838 2.250000
-3.931139 2.334142 -0.269954 0.666667
3.565157 2.382258 -0.228248 3.222222
-3.958526 2.412600 -0.246767 6.200000
-3.964405 2.528710 -0.250307 3.625000
3.564810 2.535514 -0.232867 4.555555
3.560693 2.675606 -0.237090 3.333333
-4.030638 2.815540 -0.286127 0.428571
