# This PCD file was generated using the MATLAB® pcwrite function
# from Computer Vision Toolbox®.
# .PCD v.7 - Point Cloud Data file format
VERSION .7
FIELDS x y z intensity
SIZE 4 4 4 4
TYPE F F F F
COUNT 1 1 1 1
WIDTH 1261
HEIGHT 1
VIEWPOINT 0 0 0 1 0 0 0
POINTS 1261
DATA ascii
8.551023 -5.985181 0.896285 5.600000
8.503694 -5.794305 0.883623 4.000000
8.585443 -5.790883 0.889270 0.500000
8.317809 -5.515962 0.857043 49.666668
8.452651 -5.483744 0.865211 19.600000
8.123638 -4.596011 0.801489 72.000000
8.236081 -4.574692 0.809018 54.000000
9.099617 -4.542851 0.873356 51.000000
9.193573 -4.553576 0.880999 45.000000
9.285263 -4.599150 0.889783 22.000000
9.224420 -4.497057 0.881227 58.000000
8.473713 -4.414848 0.820482 34.500000
8.531286 -4.368471 0.823049 50.500000
8.840260 -4.275452 0.843240 52.000000
8.779357 -4.178129 0.834913 9.333333
8.842021 -4.123088 0.837765 12.500000
9.008264 -4.114799 0.850427 23.000000
9.349147 -4.024444 0.874041 15.000000
8.779462 -3.943805 0.826471 15.000000
8.896385 -4.007596 0.837879 43.666668
9.413061 -4.016953 0.878832 30.000000
8.787035 -3.848096 0.823734 39.000000
8.841766 -3.872024 0.828867 23.500000
7.878271 -3.628597 0.896956 1.000000
7.904108 -3.610442 0.898602 8.000000
7.922832 -3.573977 0.898808 9.000000
9.509588 -3.521488 0.870789 3.500000
8.284771 0.632845 0.859240 10.666667
8.387900 0.676348 0.870212 8.000000
7.995031 0.695256 0.829890 1.000000
8.064137 0.726799 0.837296 37.000000
7.985033 0.809722 0.829982 41.111111
7.993143 1.012578 0.833182 35.000000
8.610012 1.049551 0.896956 5.000000
7.945526 1.108198 0.829616 48.000000
7.951437 1.231207 0.832065 45.285713
7.736042 3.844600 0.893336 37.799999
8.971521 3.802642 0.836738 0.000000
8.988718 3.943901 0.842898 3.000000
-7.852077 5.505158 0.823477 1.250000
-7.787674 5.571681 0.822267 4.428571
7.690741 6.067226 0.841187 4.600000
7.801232 6.036005 0.847005 0.000000
7.670550 6.169485 0.845294 3.000000
7.730710 6.863612 0.887730 36.500000
7.648718 6.942880 0.887045 55.799999
8.281736 9.382510 0.855805 20.400000
7.508841 9.813988 0.845025 39.500000
8.151909 9.850451 0.874362 32.666668
8.237969 9.838520 0.877500 28.000000
7.456745 9.906221 0.847891 17.000000
7.970711 10.020592 0.875590 18.000000
7.327830 10.093315 0.852939 43.500000
7.467710 10.388591 0.874908 25.000000
7.550991 10.574384 0.888553 7.000000
6.649344 15.321688 0.851072 39.000000
6.767671 15.303817 0.852660 26.799999
6.282143 15.393922 0.847205 30.000000
7.180292 15.468615 0.868985 68.000000
7.087861 15.610603 0.873599 42.333332
6.248842 15.734613 0.862675 27.000000
7.260294 15.770509 0.884659 67.000000
7.366013 15.739054 0.885473 6.000000
6.326480 15.785359 0.866542 15.000000
7.146234 15.783064 0.882827 49.000000
6.543416 15.891258 0.875702 51.000000
6.664715 15.995216 0.882963 33.666668
6.050860 16.115131 0.877127 0.000000
6.524320 16.132044 0.886695 9.000000
6.351613 16.215813 0.887407 24.500000
6.226233 16.347752 0.891376 17.500000
6.758401 24.755547 0.861594 60.000000
6.663424 24.868237 0.864412 15.000000
6.944096 24.820356 0.865352 49.500000
7.099215 24.921986 0.870050 26.000000
7.174152 24.888035 0.869647 0.000000
8.117611 -26.634716 0.934881 6.500000
8.709010 -26.333620 0.931257 6.000000
9.088400 -25.836691 0.919579 2.000000
7.264691 -17.131161 0.948169 3.000000
7.392579 -17.206852 0.954275 19.000000
7.119500 -16.936621 0.936159 10.000000
7.374807 -16.944719 0.941655 24.000000
8.050048 -16.607912 0.940434 16.000000
8.859229 -16.522392 0.955293 9.000000
8.903499 -16.480421 0.954479 5.000000
9.016474 -16.441668 0.955497 1.000000
7.890501 -16.409906 0.927813 64.000000
9.033310 -16.350319 0.951833 10.000000
7.278481 -16.301765 0.909697 20.000000
7.346961 -16.249075 0.908679 28.500000
7.659700 -16.123917 0.909595 23.500000
7.977737 -16.198627 0.920078 9.000000
8.389153 -16.129152 0.926388 19.000000
7.437546 -16.111088 0.904200 9.000000
7.530312 -16.112022 0.906236 24.500000
7.955762 -16.026779 0.911732 30.000000
10.177095 -15.370146 0.939314 14.000000
10.245669 -15.264414 0.936770 4.500000
-5.656028 -13.253958 0.985431 12.000000
-5.825834 -13.134201 0.982566 33.500000
-5.698926 -13.163106 0.980883 26.333334
-6.393512 -13.114455 0.997711 29.000000
-6.198785 -12.920496 0.979973 36.000000
-6.044341 -13.015467 0.981338 55.000000
-5.812085 -13.011516 0.974515 35.333332
-6.223709 -12.868624 0.977517 20.000000
-6.113898 -12.899059 0.976152 32.500000
-5.976332 -12.868772 0.970285 40.500000
-7.122556 -12.728657 0.997438 8.000000
-7.027555 -12.785818 0.997711 28.583332
-5.821506 -12.744645 0.958141 34.000000
-6.825678 -11.592329 0.919936 73.000000
-6.627258 -11.543804 0.910248 39.000000
-6.579328 -11.614782 0.912840 28.000000
-6.707715 -11.515717 0.911339 52.000000
8.958653 -11.429500 0.993072 2.000000
9.180050 -11.267896 0.993891 9.000000
9.255889 -11.288374 0.998257 28.000000
9.442371 -11.153780 0.999349 26.000000
8.375775 -11.024368 0.946789 40.599998
9.231342 -11.044481 0.984339 51.000000
8.705202 -10.753869 0.946134 46.000000
8.495458 -10.630654 0.930579 59.000000
8.555257 -10.705383 0.937128 56.500000
9.287237 -10.560284 0.961689 10.000000
8.788181 -10.447399 0.933581 18.000000
8.984962 -10.479232 0.943951 33.000000
9.293921 -10.501170 0.958960 46.000000
9.020302 -10.321969 0.937401 34.000000
8.910206 -10.293411 0.930988 31.000000
9.130452 -10.251399 0.938766 8.000000
9.170563 -10.154263 0.935655 20.600000
9.248968 -10.045761 0.933785 11.500000
9.301838 -5.783105 0.940546 18.000000
9.438396 -5.758927 0.949444 11.333333
7.900154 -4.820382 0.957028 75.000000
7.912091 -4.861843 0.960319 65.000000
7.748515 -4.694516 0.936867 61.000000
8.198538 -4.638513 0.974103 63.500000
7.806261 -4.596379 0.936808 57.428570
8.002189 -4.577334 0.953325 54.000000
8.261024 -4.571560 0.976366 40.250000
7.962898 -4.292963 0.935495 37.666668
8.144519 -4.276158 0.951268 68.500000
8.207806 -4.292760 0.957851 74.000000
8.627332 -4.239564 0.994058 8.000000
8.152905 -4.166656 0.946824 48.400002
8.257551 -4.187483 0.957439 36.000000
8.632281 -4.174861 0.991589 56.333332
7.143886 -4.041844 0.994008 99.000000
7.214241 -4.021995 1.000259 102.000000
8.686398 -4.117162 0.994058 10.000000
9.730717 -4.071427 0.905782 18.250000
9.912352 -4.083552 0.920583 4.000000
9.881403 -3.926296 0.913054 2.000000
7.072619 -3.870447 0.976375 12.333333
9.904814 -3.899613 0.914081 1.000000
7.252210 -3.792975 0.991122 40.000000
7.128516 -3.643138 0.969482 43.000000
7.231752 -3.713191 0.984486 55.799999
7.233198 -3.573232 0.977016 13.666667
9.018384 -3.485330 0.999818 47.000000
8.290834 -3.415543 0.927266 4.666667
8.935368 -3.356804 0.987064 19.000000
7.940636 0.552506 0.963952 19.500000
7.730739 0.680417 0.939827 31.666666
7.836141 0.635149 0.952101 27.571428
7.793583 0.801425 0.948804 11.800000
7.967548 0.986650 0.972271 28.600000
8.930065 1.010403 0.929358 35.500000
9.036029 1.072683 0.940981 9.000000
7.971232 1.111948 0.974692 37.666668
7.948294 1.267536 0.974728 45.727272
7.943126 1.350611 0.975734 0.000000
7.758496 2.810068 0.999298 21.000000
7.702604 2.918209 0.997534 11.333333
8.059004 3.803465 0.921540 46.250000
8.221419 3.824980 0.937690 78.000000
8.158360 3.921094 0.936044 29.000000
7.926205 4.057790 0.920820 33.000000
7.859649 4.101950 0.916809 47.250000
8.128052 4.112925 0.942010 40.000000
7.864116 4.193767 0.921643 21.333334
7.654702 4.394814 0.912768 26.142857
8.038564 4.472369 0.951268 26.000000
8.015648 4.509233 0.951062 31.000000
-7.848129 5.502391 0.991178 1.250000
-7.787821 5.571777 0.990238 3.714286
6.673599 6.913128 0.993647 13.000000
6.451426 7.017110 0.985726 27.250000
6.323045 7.199842 0.990904 6.333333
6.409574 7.206600 0.997350 34.000000
7.913682 7.320457 0.925716 8.000000
6.802104 7.995336 0.901419 8.000000
6.908255 9.359865 0.998952 26.000000
8.506413 10.591196 0.928941 10.000000
7.912850 10.720973 0.911203 2.000000
6.320281 12.861501 0.979973 2.000000
6.673265 12.857551 0.990616 13.000000
6.729142 12.817108 0.989934 26.000000
6.940426 12.809191 0.996256 23.333334
6.649895 12.961649 0.996210 9.500000
6.625749 28.249027 0.974209 1.000000
6.711688 28.216404 0.973806 5.000000
-4.858180 -31.748352 1.078368 18.000000
-4.738869 -31.632986 1.073938 12.000000
-4.998392 -31.346100 1.065751 16.000000
-8.449928 -31.143856 1.083469 8.000000
-8.127737 -31.113810 1.079710 6.000000
-8.829662 -30.996767 1.082126 19.000000
-8.670011 -30.989872 1.080448 11.500000
-8.252579 -30.994019 1.076891 12.000000
7.722445 -31.019159 1.073267 2.000000
7.959858 -30.934277 1.072462 11.000000
-7.433871 -30.402718 1.050852 15.000000
-3.283699 -30.325550 1.024141 17.000000
-3.141600 -30.348600 1.024409 9.000000
-2.996963 -30.347193 1.023872 7.000000
-2.882209 -30.153496 1.017027 4.000000
-6.063873 -30.073458 1.030047 38.000000
-6.249454 -30.019110 1.029510 27.000000
-6.147089 -29.999432 1.028168 51.000000
-5.701840 -29.720951 1.016087 17.000000
9.292540 -29.652533 1.043335 45.000000
9.496962 -29.650669 1.045348 36.000000
9.585140 -29.605471 1.044811 28.000000
-9.409995 -29.485405 1.039174 4.000000
-6.419675 -29.443289 1.011792 28.000000
9.133060 -29.467741 1.035818 27.000000
-6.499186 -29.364426 1.009779 69.000000
-5.816901 -29.323778 1.003739 44.000000
-5.721685 -29.326214 1.003202 59.000000
9.296298 -29.341177 1.033402 45.000000
-9.431392 -29.235027 1.031389 7.000000
-9.237886 -29.263210 1.030315 13.000000
-8.709638 -29.178692 1.022396 4.000000
8.303120 -19.927359 1.100022 2.000000
-6.729858 -19.589350 1.055443 1.000000
-6.589159 -19.579456 1.052661 2.000000
8.910171 -19.461500 1.090659 22.000000
9.303795 -18.165571 1.039973 2.000000
9.491274 -18.108925 1.041805 22.000000
9.004155 -17.717495 1.012696 19.000000
10.117742 -17.272892 1.020024 18.000000
-7.055974 -14.358607 1.094044 6.000000
-7.169463 -14.248690 1.090769 3.000000
-5.733038 -14.297421 1.053382 2.000000
-5.658621 -14.241189 1.047924 34.000000
7.251833 -14.220363 1.091588 54.500000
7.061440 -14.119828 1.079580 8.000000
-7.513972 -14.042910 1.089132 2.000000
-7.278088 -14.022876 1.080399 6.000000
-5.827228 -14.019655 1.038237 27.500000
7.269417 -14.090270 1.084220 29.000000
-5.898888 -13.944250 1.035371 18.000000
-5.706483 -14.018325 1.035007 29.000000
7.400025 -14.017603 1.083947 41.000000
-7.788391 -13.867399 1.087631 4.500000
-7.541101 -13.883206 1.080399 6.000000
-7.082686 -13.858672 1.064298 18.000000
7.267057 -13.871106 1.070848 16.000000
7.395300 -13.902682 1.076851 28.000000
8.012315 -13.783128 1.090223 11.000000
8.119429 -13.620486 1.084356 43.500000
-6.711367 -13.549639 1.034007 32.000000
8.420588 -13.554706 1.091224 41.000000
-6.826134 -13.460871 1.032096 9.000000
-6.768875 -13.505360 1.033051 12.000000
-5.616634 -13.513038 1.000713 24.000000
8.477374 -13.487934 1.089405 89.000000
8.146981 -13.331198 1.068392 39.000000
-6.784499 -13.172917 1.013266 21.000000
8.938331 -13.186980 1.089405 18.000000
-6.945750 -13.079575 1.012721 88.000000
8.730180 -13.078041 1.075282 20.250000
9.043348 -13.075030 1.087153 2.500000
-6.864174 -12.958642 1.002805 36.666668
-6.785056 -13.006298 1.003169 26.333334
-6.946363 -12.884629 1.000986 35.000000
9.379399 -12.773174 1.083674 25.000000
9.332111 -12.708780 1.078216 9.500000
-7.468677 -12.593701 1.001259 22.000000
9.228400 -12.403425 1.057203 17.000000
9.200388 -12.244965 1.047379 18.000000
9.352268 -11.333113 1.004807 15.000000
9.469415 -11.401914 1.013539 2.000000
9.500658 -11.151400 1.001805 26.000000
8.247406 -6.060552 1.058381 13.666667
8.262014 -6.018142 1.057010 23.000000
8.126158 -5.880197 1.037260 34.000000
8.137016 -5.810502 1.033969 10.000000
8.239599 -5.747994 1.038906 5.000000
8.616658 -5.753117 1.071410 2.000000
8.698503 -5.715993 1.076348 3.000000
8.258119 -5.513690 1.026837 24.333334
8.326961 -5.181907 1.014219 58.799999
7.666513 -4.710925 1.089706 36.000000
7.667842 -4.606257 1.083262 52.799999
8.644824 -4.555971 1.010516 62.000000
7.575631 -4.492718 1.066623 64.000000
7.274896 -4.283531 1.022380 85.000000
7.339564 -4.275238 1.028632 81.500000
7.868096 -4.241848 1.082492 31.000000
7.823167 -4.170149 1.073596 46.500000
7.186825 -4.110938 1.002664 135.000000
9.094737 -4.028334 1.028620 7.333333
6.760345 -4.010808 1.091446 37.000000
6.865131 -3.957199 1.100248 38.000000
8.011690 -3.937031 1.081050 3.000000
9.214779 -3.994150 1.038577 7.600000
9.676752 -3.950980 1.080874 48.000000
9.714935 -3.931007 1.083754 34.000000
6.777806 -3.878545 1.084294 9.000000
6.889860 -3.913985 1.100248 85.000000
7.422934 -3.912013 1.016129 21.000000
9.206967 -3.872092 1.032871 14.000000
8.166409 -3.776793 1.089625 47.666664
9.073585 -3.638363 1.010928 66.000000
9.065107 -3.549299 1.006731 46.799999
9.153130 -3.559231 1.015591 32.000000
9.385891 -3.492447 1.035614 39.000000
9.452817 -3.483580 1.041786 8.000000
7.806364 -3.341050 1.028311 25.000000
8.028539 -3.376575 1.054761 17.666666
7.950020 -3.245814 1.039933 22.500000
9.187329 -3.274710 1.008623 12.800000
9.297077 -3.294094 1.019979 10.000000
7.781516 -3.191426 1.018533 49.000000
7.985422 -3.126561 1.038538 20.400000
7.838233 -3.114163 1.021419 34.500000
8.139020 -3.092583 1.054408 19.000000
8.224941 -3.060463 1.062775 0.000000
7.651825 -0.146909 1.062656 2.000000
7.821805 -0.084619 1.086128 3.666667
7.895972 0.224691 1.096810 30.250000
7.894532 0.299144 1.096947 18.000000
7.912837 0.337180 1.099698 0.000000
7.737869 0.427195 1.076043 23.000000
7.584805 0.526391 1.055688 43.000000
7.646751 0.518335 1.064215 27.500000
7.857622 0.483345 1.093096 44.000000
7.584396 0.586250 1.056238 21.000000
7.831319 0.630093 1.090896 9.000000
7.700490 0.717064 1.073842 0.000000
7.848866 0.985445 1.098378 35.400002
8.668038 1.056624 1.057486 11.000000
7.904514 2.778967 1.014686 0.000000
7.853924 2.802830 1.009877 14.000000
7.797693 2.921768 1.008435 19.250000
7.746994 3.126710 1.011721 6.666667
6.882823 3.641186 1.081177 34.666668
6.929234 3.777951 1.095847 32.666668
7.683530 3.767442 1.036326 46.500000
8.177950 3.721733 1.088103 17.000000
6.799214 3.830406 1.083607 39.000000
7.772413 3.856568 1.050753 75.000000
8.909461 3.925881 1.006813 48.500000
9.323978 3.966731 1.047840 13.142858
7.951683 4.039356 1.080088 8.000000
8.789754 4.055853 1.001053 25.000000
8.856722 4.053054 1.007224 27.000000
7.857379 4.100782 1.073355 44.500000
9.083334 4.087937 1.030060 38.000000
9.146876 4.116527 1.037260 35.000000
7.394643 4.277911 1.034563 3.333333
7.840184 4.212695 1.077844 30.000000
7.427047 4.405352 1.045752 29.000000
7.593752 4.446324 1.065661 30.000000
9.216619 4.465415 1.059067 0.000000
7.683725 6.061686 1.012080 5.400000
7.788409 6.026083 1.018334 0.000000
7.664142 6.164331 1.017099 5.000000
7.111574 6.874766 1.022859 0.000000
7.580317 6.880647 1.058656 44.000000
7.691981 6.872574 1.066679 63.000000
7.764503 6.871869 1.072233 27.000000
6.853162 6.933741 1.008150 6.000000
7.073038 6.945659 1.025122 11.500000
7.558663 6.904428 1.058656 38.000000
7.635488 6.952874 1.067913 44.500000
7.178352 6.983079 1.035614 7.000000
6.573101 7.160725 1.005167 10.000000
9.617243 7.249744 1.034202 3.000000
6.543631 7.310945 1.014631 22.000000
6.657415 7.360198 1.026288 20.666666
7.042425 7.364319 1.053718 9.000000
6.988997 7.415023 1.053718 24.600000
6.489483 7.824953 1.051249 9.000000
6.745809 8.030798 1.084577 15.000000
6.439446 8.121647 1.071822 33.000000
6.608619 8.185894 1.087951 15.200000
6.294293 8.334572 1.080051 11.000000
6.486851 8.320162 1.090995 26.799999
6.450423 8.430796 1.097743 8.000000
8.432026 9.054520 1.062459 9.714286
8.342721 9.165290 1.064260 9.166667
7.834025 9.208204 1.038171 10.000000
6.892956 9.400805 1.001006 36.000000
6.919703 9.499726 1.009219 10.000000
7.098200 9.491813 1.017775 8.000000
6.667974 9.611849 1.004542 19.000000
7.259807 9.644591 1.036597 29.000000
7.318951 9.659855 1.040704 48.000000
7.504088 9.775895 1.058271 43.333332
6.869683 9.814569 1.028726 18.000000
7.218904 10.163148 1.070477 29.200001
6.970900 10.583980 1.088273 2.000000
8.373178 12.669652 1.038509 2.500000
8.301297 12.777824 1.042012 5.666667
7.034845 12.854732 1.002078 20.000000
7.462143 13.045470 1.027730 40.000000
7.539402 13.009227 1.028221 40.200001
6.672719 13.158339 1.008900 3.000000
7.413324 13.103064 1.029504 36.500000
7.753469 13.120715 1.042194 22.000000
7.878601 13.190290 1.050653 11.000000
8.543820 13.242182 1.077670 4.000000
7.051527 18.960985 1.030813 55.000000
7.604557 18.974321 1.041601 26.000000
6.993305 18.986794 1.031016 50.000000
7.165825 19.084595 1.038752 50.000000
7.402949 19.165270 1.046894 17.000000
7.032185 19.278881 1.045673 19.000000
7.285217 19.218876 1.047301 14.000000
7.348415 19.203356 1.047708 29.000000
8.150645 19.276506 1.066435 19.000000
6.925500 20.366823 1.096155 11.000000
6.874224 20.426340 1.098190 40.000000
-13.769991 29.462587 1.091925 255.000000
-13.599140 29.458241 1.089374 255.000000
-13.478243 29.439024 1.087093 255.000000
-13.308916 29.434769 1.084609 255.000000
-13.157804 29.469839 1.083603 98.000000
6.646134 29.443512 1.013448 15.333333
6.535468 29.528364 1.015416 31.000000
6.463109 29.642494 1.018638 16.000000
6.385061 29.733006 1.021054 16.000000
-5.333296 -33.446365 1.137159 3.000000
-5.229428 -33.470856 1.137427 20.000000
-6.035240 -33.144016 1.131119 5.000000
-6.121122 -33.026623 1.127763 2.000000
-5.694082 -33.033958 1.125481 17.000000
-5.591607 -33.059566 1.125750 18.000000
-5.895892 -32.966049 1.124407 19.000000
-5.786772 -32.952908 1.123333 19.000000
-5.445842 -32.824566 1.117159 12.000000
-6.103346 -32.362957 1.105750 22.000000
7.793248 -22.154806 1.196712 37.000000
8.013950 -22.114178 1.198544 12.000000
7.590097 -22.018276 1.186738 17.000000
7.665802 -22.013187 1.187755 20.000000
7.802777 -21.888657 1.184091 25.666666
8.986143 -21.758894 1.199562 19.000000
8.867807 -21.665012 1.192844 10.000000
9.462437 -21.556032 1.199562 19.000000
8.649555 -21.516443 1.181649 5.000000
8.351810 -21.355179 1.168418 23.000000
8.252927 -21.299362 1.163939 26.000000
8.390988 -21.258236 1.164550 6.000000
7.992676 -21.219187 1.155390 1.000000
8.066399 -21.212641 1.156408 8.000000
8.726237 -20.399151 1.130556 12.000000
8.165791 -20.221148 1.111218 16.500000
8.254930 -20.167686 1.110404 18.000000
8.962616 -20.158737 1.124144 38.000000
9.062717 -20.043808 1.120887 4.000000
8.370328 -19.912224 1.100633 30.000000
7.137745 -15.727777 1.181098 15.000000
7.235299 -15.680144 1.180916 5.333333
7.324193 -15.487454 1.171547 12.000000
7.212795 -15.376708 1.161450 3.000000
7.335030 -15.385118 1.165543 4.000000
8.367094 -15.378256 1.197199 9.000000
7.959782 -15.310163 1.180007 15.000000
-6.411000 -15.023109 1.116967 3.000000
-5.932559 -15.068384 1.107416 10.000000
8.315003 -15.056391 1.176186 15.000000
-6.053351 -14.960012 1.103595 29.000000
7.295818 -14.938789 1.136889 52.000000
8.342862 -14.995320 1.173457 4.000000
8.608694 -14.971008 1.180962 12.000000
-6.310908 -14.918215 1.107689 3.000000
7.951711 -14.836094 1.151079 11.000000
8.725022 -14.901223 1.180825 13.000000
-7.139369 -14.761913 1.121334 1.000000
-6.363491 -14.782966 1.100593 11.000000
7.981215 -14.779436 1.148623 27.000000
7.081391 -14.674669 1.114238 2.000000
7.217132 -14.621743 1.115057 24.000000
-7.269045 -14.560350 1.112874 19.000000
9.324217 -14.479223 1.177687 16.500000
-7.295409 -14.386262 1.103050 26.000000
7.247661 -14.379099 1.101139 4.000000
9.373754 -14.406777 1.175367 0.000000
9.762304 -14.402614 1.189831 7.000000
8.573824 -14.229827 1.136070 39.000000
8.214308 -13.928447 1.105779 29.000000
8.760157 -13.793091 1.117377 49.500000
8.478657 -13.680002 1.100593 50.000000
9.348635 -13.159668 1.103868 15.000000
9.434967 -13.149494 1.106734 11.500000
-5.651732 -12.634575 1.188545 11.000000
-5.559592 -12.673626 1.188408 32.799999
-5.729326 -12.595201 1.188202 9.500000
-6.000853 -12.507933 1.191282 39.000000
-6.223192 -12.416625 1.192651 46.000000
-6.982346 -11.858405 1.181700 1.000000
-6.652098 -11.544876 1.144170 48.500000
-6.532929 -11.613836 1.144251 50.857143
8.274161 -11.072414 1.186948 52.666668
8.577647 -10.872888 1.189229 53.000000
8.246156 -10.797237 1.166642 4.000000
8.582026 -10.808433 1.185122 51.000000
8.767511 -10.761533 1.191967 5.000000
8.190167 -10.654371 1.153980 7.000000
8.378727 -10.689626 1.166300 42.000000
8.841922 -10.714648 1.192908 35.750000
8.174825 -10.565548 1.147135 48.000000
8.242259 -10.583835 1.151927 30.000000
8.563149 -10.578385 1.168696 61.000000
8.382307 -10.455372 1.150729 58.000000
9.157979 -10.282305 1.182384 0.000000
9.276880 -10.317604 1.191453 24.500000
9.342693 -10.112468 1.182248 14.400000
7.992397 -5.745209 1.192016 30.500000
7.729440 -5.047450 1.117958 39.750000
7.825969 -5.031782 1.126734 63.000000
7.916554 -5.037577 1.136352 7.000000
9.801243 -4.854724 1.131070 20.000000
8.304181 -4.578483 1.148375 44.000000
6.934769 -4.143802 1.121703 100.000000
7.101001 -4.160400 1.142745 37.500000
7.491552 -4.070967 1.183867 36.000000
7.612879 -4.029140 1.195970 46.500000
8.139568 -4.063560 1.101728 2.000000
7.071513 -3.968296 1.125920 78.000000
7.060724 -3.908985 1.120603 3.500000
7.376046 -3.849567 1.155260 33.000000
8.624700 -3.874284 1.145008 29.000000
8.770200 -3.857203 1.160277 52.250000
9.343690 -3.129959 1.193338 41.000000
6.837446 0.259055 1.195414 40.500000
7.227590 0.216980 1.133366 11.400000
7.255198 0.328322 1.138342 31.166666
7.304803 0.380272 1.146497 1.000000
7.392705 0.429130 1.160681 26.400000
8.319480 0.419975 1.156636 10.000000
6.548713 0.557975 1.148258 14.500000
6.629894 0.480667 1.191521 19.125000
7.515340 0.557200 1.181183 13.666667
7.605459 0.515821 1.194810 21.000000
6.550035 0.630697 1.149635 0.000000
6.616695 0.609200 1.160879 88.666664
7.425456 0.649648 1.168314 8.888889
9.582860 0.863678 1.165206 0.000000
9.385593 0.964940 1.142604 1.000000
9.424142 0.938994 1.146932 2.000000
9.537863 0.927547 1.160517 9.000000
7.976989 1.098491 1.118072 34.400002
7.929217 1.331457 1.116403 40.700001
9.343498 1.618941 1.148375 1.000000
7.987058 2.955290 1.182492 29.000000
7.996081 3.031738 1.187388 33.000000
7.328389 3.352091 1.118952 52.000000
7.303438 3.382492 1.117577 52.500000
7.404212 3.443206 1.133806 49.000000
7.931328 3.389544 1.197620 0.000000
7.106937 3.566656 1.104099 7.500000
7.841847 3.483186 1.191431 36.000000
7.673377 3.673728 1.181273 35.142857
7.054585 3.779465 1.111250 34.000000
7.653241 3.759938 1.183977 34.000000
7.296972 3.821254 1.143708 61.000000
7.337747 3.798685 1.147284 46.000000
7.441999 3.808264 1.160762 52.000000
6.487041 3.893190 1.185829 2.000000
7.012439 3.914302 1.115101 43.000000
6.925318 4.036309 1.112993 26.500000
8.254315 4.138892 1.118239 28.666666
7.029124 4.208511 1.137565 30.666666
8.936042 4.260358 1.198869 44.000000
8.062330 4.540406 1.120555 29.600000
-7.840611 5.506289 1.160277 3.000000
-7.780642 5.585660 1.159916 1.600000
7.679888 6.058671 1.184634 4.800000
7.670786 6.169675 1.192136 1.000000
9.506561 6.553241 1.194022 5.000000
9.436176 6.636816 1.192993 14.000000
8.824276 6.695562 1.145471 3.000000
9.366036 6.698009 1.190730 6.000000
9.148745 6.806852 1.179210 1.000000
9.354209 6.816245 1.196902 31.000000
9.320465 6.889233 1.198548 10.000000
6.328507 6.981819 1.141161 9.000000
7.995196 7.031372 1.101035 22.000000
8.060892 7.005252 1.104378 34.250000
8.325603 7.025756 1.126544 20.000000
8.438019 7.052777 1.137242 30.000000
8.518290 7.074532 1.145060 49.000000
9.087175 6.985502 1.185279 31.750000
8.601850 7.098385 1.153288 47.000000
8.713797 7.121914 1.163780 0.000000
8.821808 7.118294 1.172215 0.500000
7.926961 7.332741 1.116670 69.000000
8.168901 7.604307 1.154111 19.000000
8.136292 7.694203 1.158020 2.000000
8.108706 7.789564 1.162752 0.000000
7.966346 7.996994 1.167278 1.000000
7.884793 8.099622 1.168923 13.666667
6.718303 8.311233 1.105149 9.000000
6.393632 8.662613 1.113378 22.000000
7.373339 8.617789 1.172855 24.222221
7.531684 8.630691 1.184559 18.000000
7.623538 8.653318 1.192582 5.500000
6.451661 8.684002 1.118727 23.000000
7.376517 8.819065 1.188947 9.666667
6.322483 9.278847 1.161106 10.000000
6.746491 9.221283 1.181541 8.000000
6.917352 9.249980 1.194433 1.000000
6.328120 9.286976 1.162135 3.500000
6.226865 9.422058 1.167895 12.000000
8.272658 10.234130 1.130024 10.000000
8.468248 10.409037 1.152269 30.000000
8.489573 10.604339 1.166471 7.000000
7.949844 10.735832 1.147135 7.500000
8.483739 10.769301 1.177251 2.000000
8.515054 10.739473 1.176909 3.000000
7.934992 10.929568 1.159798 13.000000
6.594969 15.521626 1.153263 16.000000
7.144651 15.641321 1.175913 43.000000
7.510697 15.654992 1.187375 48.000000
6.382610 15.702805 1.159130 11.500000
6.499888 15.777725 1.166907 3.000000
7.225474 15.687667 1.181098 43.000000
7.615441 15.746282 1.196107 0.000000
6.267367 15.845755 1.165270 30.000000
6.583119 15.838299 1.172911 1.000000
7.177811 15.845444 1.189558 43.000000
7.331872 15.787950 1.190377 51.000000
7.542078 15.847872 1.200201 47.000000
6.099913 15.932359 1.166635 10.000000
6.170588 15.892253 1.165816 12.500000
6.669882 15.905863 1.179461 21.000000
7.144348 15.904318 1.192287 6.000000
6.429617 16.034595 1.181371 14.000000
6.840314 20.538801 1.103076 11.000000
6.832022 20.730921 1.112236 8.000000
6.607876 21.008718 1.122210 51.666668
6.760222 21.182573 1.132999 144.000000
6.927858 21.246025 1.138698 55.000000
7.279135 21.260571 1.145076 45.333332
7.375545 21.251308 1.146230 45.000000
7.607791 21.271130 1.151115 25.000000
7.512799 21.321777 1.151929 11.000000
7.694935 21.303480 1.154168 26.000000
6.964104 21.587042 1.155797 58.000000
5.720788 21.899754 1.153354 6.000000
5.836215 21.918859 1.155797 17.000000
6.148347 21.976509 1.162820 11.000000
6.736773 21.939175 1.169435 31.500000
6.004385 21.993502 1.161700 16.500000
7.259648 22.028502 1.181852 5.000000
6.497198 22.224455 1.179857 23.000000
5.777193 22.697931 1.193455 2.000000
5.880393 22.803453 1.199969 10.000000
8.087550 -24.199205 1.300119 14.000000
8.141397 -23.860573 1.284649 15.000000
8.765216 -23.493618 1.277728 22.000000
8.301995 -23.135658 1.252487 17.000000
9.233873 -23.180149 1.271417 26.000000
7.481857 -22.863747 1.225821 1.000000
7.249103 -22.632580 1.210961 1.000000
7.337397 -22.662903 1.213811 26.000000
8.321667 -22.520542 1.223378 9.000000
9.155592 -22.570101 1.241087 24.000000
8.587778 -22.163555 1.211164 15.000000
8.179993 -17.157415 1.299808 18.000000
8.202737 -17.066889 1.294896 31.000000
8.266751 -17.062586 1.296534 5.000000
8.920696 -16.644001 1.291348 2.000000
9.003288 -16.485857 1.284526 17.500000
7.039464 -16.181936 1.206750 1.000000
7.203046 -16.140381 1.208661 33.000000
7.229147 -16.063087 1.204567 3.000000
10.140645 -15.478835 1.265423 2.000000
10.118907 -15.340302 1.256691 11.000000
10.535058 -15.334335 1.272246 25.000000
10.649331 -15.191884 1.268698 0.000000
-5.654199 -13.663895 1.269823 25.000000
-5.482104 -13.671625 1.264861 3.000000
-5.533681 -13.614250 1.261952 32.000000
-7.263909 -13.174849 1.291896 35.000000
-6.397171 -13.121961 1.253567 41.000000
7.208739 -13.004961 1.276838 9.500000
7.333281 -12.969007 1.279371 51.000000
-6.239663 -12.901611 1.230638 5.000000
-5.492027 -12.869649 1.201549 0.000000
7.370103 -12.863719 1.273074 10.000000
-6.781305 -12.769906 1.241589 3.000000
7.579390 -12.760074 1.274443 2.000000
-7.059497 -12.709499 1.248434 10.000000
-6.861720 -12.711691 1.240449 21.166666
-6.000751 -12.660290 1.203089 43.000000
7.693495 -12.708582 1.275698 38.333332
-7.569572 -12.538313 1.257674 11.500000
-7.472282 -12.554814 1.254594 30.000000
-6.444826 -12.561808 1.212386 29.333334
-6.184301 -12.551661 1.201549 36.333332
-6.538401 -12.501489 1.211474 24.000000
9.543767 -10.514239 1.219345 24.000000
7.938951 -6.355750 1.231569 12.000000
7.975609 -6.303286 1.231088 23.500000
8.689669 -5.921026 1.273407 0.000000
8.128881 -5.747030 1.205601 3.500000
8.661652 -5.789675 1.261705 13.000000
9.146186 -5.541309 1.295047 1.000000
7.570634 -5.212891 1.276288 63.833332
7.673643 -5.171988 1.284906 12.000000
9.161860 -4.828457 1.254171 7.000000
7.568439 -4.751340 1.240805 35.000000
7.651709 -4.703682 1.247131 14.000000
7.568113 -4.587101 1.228794 47.333332
8.825689 -4.545530 1.202235 5.000000
7.654731 -4.107859 1.206239 62.333332
8.146373 -4.076880 1.264873 47.000000
7.922370 -3.851662 1.223146 10.600000
7.902088 -3.762333 1.215224 10.000000
7.951970 -3.740259 1.220175 3.000000
8.284206 -3.521544 1.249882 9.000000
8.023623 -3.515446 1.216324 40.000000
8.126802 -3.509987 1.229160 46.000000
8.264179 -3.467155 1.244380 2.000000
8.648634 -3.501300 1.295542 54.000000
9.556937 -3.470891 1.231329 13.500000
8.394839 -3.367898 1.255933 66.000000
9.546759 -3.399454 1.227241 13.500000
8.342789 -3.316626 1.246581 40.000000
8.452044 -3.298713 1.259784 22.000000
9.521084 -3.256110 1.218585 20.000000
9.466537 -3.096796 1.206202 16.500000
9.624452 -3.056754 1.222913 3.500000
8.493446 -2.921278 1.247131 52.500000
8.508560 -2.956381 1.250707 36.500000
8.441059 -2.829215 1.236129 29.000000
9.583823 -2.895295 1.212430 14.800000
9.635363 -2.844981 1.216662 0.000000
8.550886 -2.806425 1.249607 47.500000
8.724904 -2.802901 1.272437 65.000000
8.909253 -2.785161 1.296092 41.000000
6.596760 0.217721 1.272367 6.000000
7.187125 0.238421 1.256338 20.000000
6.747755 0.342845 1.218460 38.500000
6.648481 0.384472 1.232256 23.714285
7.701092 0.863816 1.214630 0.000000
9.063824 0.843977 1.263965 38.000000
9.141606 0.793356 1.274087 20.000000
7.740956 0.925863 1.221960 40.666664
9.063893 0.901502 1.264735 32.000000
9.192592 0.966854 1.283439 27.799999
7.982141 1.009782 1.261085 40.000000
7.976740 1.098419 1.262076 36.599998
7.940361 1.310231 1.261395 42.000000
7.947547 1.401591 1.264925 30.799999
8.073909 1.535214 1.288183 27.375000
8.102474 1.719278 1.298248 19.000000
7.846658 2.483031 1.289990 13.000000
7.850976 2.593300 1.295977 16.666666
7.797984 2.685061 1.292674 2.000000
7.159336 3.329331 1.237548 0.000000
7.982517 3.456008 1.207797 42.500000
6.839719 3.609226 1.212153 29.000000
7.060950 3.594574 1.241884 56.333332
7.072796 3.779702 1.256956 20.000000
6.966892 3.798473 1.243742 24.000000
6.782677 3.912817 1.227328 4.000000
6.984062 3.970724 1.259227 1.000000
7.304575 3.913396 1.298868 0.000000
7.182341 4.053650 1.292674 7.000000
7.927304 4.025231 1.234478 22.000000
9.584501 4.098026 1.262347 0.000000
9.022827 4.336576 1.212334 16.000000
9.240155 4.369775 1.237821 42.000000
9.472918 4.425306 1.266194 9.500000
9.434422 4.570940 1.269560 27.000000
9.403237 4.776727 1.277254 8.000000
9.432381 4.754312 1.279178 0.000000
7.034111 6.106043 1.293342 0.000000
7.282785 6.822265 1.208486 21.000000
7.318715 6.812881 1.210891 33.000000
7.728116 6.861322 1.251526 44.500000
7.663635 6.912503 1.249843 49.000000
7.716838 7.048912 1.265713 47.000000
7.761896 7.134930 1.276773 52.000000
7.765678 7.183548 1.281101 0.000000
6.739339 7.641613 1.233894 23.500000
6.687621 7.761365 1.240706 0.000000
6.599968 7.869707 1.243832 15.250000
6.326577 7.927939 1.228323 21.250000
6.542677 7.889093 1.241187 0.000000
6.326823 8.083414 1.243111 5.000000
6.262338 8.540751 1.282544 3.000000
6.468594 8.565437 1.299856 3.000000
7.837623 8.729149 1.213154 9.500000
8.551779 8.970842 1.281660 2.000000
8.399017 9.092371 1.280015 18.000000
7.545370 9.274649 1.236401 3.000000
7.601565 9.525726 1.260265 6.000000
7.919456 9.549199 1.282895 13.000000
7.564538 9.633671 1.266642 13.500000
7.511213 9.817137 1.278266 24.250000
7.453656 9.902119 1.281660 14.000000
6.717118 10.268744 1.268905 12.000000
6.587550 10.352342 1.268905 0.000000
6.634347 10.296824 1.266684 38.599998
7.175086 10.319751 1.299764 37.000000
6.500929 12.525507 1.211816 2.000000
6.564258 12.550931 1.216265 40.000000
8.127960 12.641096 1.290527 2.000000
8.367496 12.617970 1.300110 18.000000
6.722573 12.755891 1.238167 13.000000
7.757981 12.759663 1.282314 24.500000
7.820130 12.726367 1.282656 13.000000
7.505848 12.932656 1.284025 45.000000
6.982827 13.001115 1.267256 10.000000
7.492445 13.050810 1.292238 41.000000
7.420081 13.114988 1.293950 39.500000
8.401906 15.821667 1.225034 22.000000
7.730751 16.376719 1.238406 7.000000
8.046104 16.504269 1.255599 3.000000
8.378139 16.914698 1.290803 1.000000
7.928976 22.390736 1.210350 18.000000
6.764246 22.661316 1.205058 21.000000
6.826167 22.609358 1.203429 6.000000
6.883693 24.456745 1.294623 13.000000
8.737423 -25.873064 1.391516 17.000000
9.458880 -25.722382 1.396503 17.500000
9.865031 -25.224411 1.380117 5.000000
8.209915 -25.088615 1.345105 1.000000
8.405105 -24.889009 1.338591 13.000000
9.287471 -24.893429 1.353858 1.000000
9.420975 -24.774841 1.350601 5.000000
8.041589 -24.315521 1.305004 9.000000
8.116197 -18.110115 1.357117 4.000000
9.060025 -17.974766 1.376492 2.000000
8.241817 -17.714973 1.336104 2.000000
8.269360 -17.486069 1.322732 5.000000
9.106577 -17.250263 1.333920 3.000000
9.697199 -17.049368 1.341289 31.000000
9.909598 -17.046917 1.348384 6.000000
-5.759722 -15.043815 1.383270 0.000000
-5.917868 -14.825777 1.370779 11.000000
-5.802011 -14.873575 1.370950 5.000000
6.954902 -14.666804 1.393879 18.333334
-7.025694 -14.526872 1.385666 19.000000
-6.580853 -14.467047 1.364790 13.500000
-6.651531 -14.382013 1.360683 45.500000
-6.468492 -14.399772 1.355550 20.000000
-6.080786 -14.126219 1.320643 27.000000
7.095920 -14.151687 1.359429 25.000000
7.178340 -14.130941 1.361026 3.000000
-7.393343 -14.028660 1.361710 44.000000
-6.580649 -14.054570 1.332621 40.000000
-6.114025 -14.081455 1.318248 4.000000
-5.921228 -14.038183 1.308323 64.666664
8.370336 -13.991349 1.400039 5.000000
-7.559532 -13.917137 1.359999 0.000000
-7.249498 -13.861115 1.343230 1.000000
-6.803204 -13.735047 1.316194 1.000000
8.607244 -13.790526 1.395932 46.000000
-7.392760 -13.508753 1.322354 36.000000
7.847357 -13.499360 1.340834 44.000000
7.958338 -13.494415 1.345283 16.000000
-7.783102 -13.218361 1.317221 17.000000
8.007506 -12.919818 1.305243 18.000000
8.864349 -12.989779 1.350417 0.000000
7.945990 -12.910972 1.301821 44.000000
8.751657 -12.738499 1.327145 36.000000
8.859306 -12.765848 1.334332 14.000000
8.953101 -12.561020 1.324579 33.500000
8.978140 -12.430237 1.316708 5.000000
9.477471 -12.328990 1.335359 6.000000
9.156758 -12.107424 1.303532 11.000000
9.426067 -12.025828 1.312088 3.000000
-6.809144 -11.647790 1.395220 65.000000
-6.559463 -11.653380 1.382877 55.200001
-6.462475 -11.677917 1.380202 49.000000
-6.682813 -11.598384 1.384248 39.666668
7.614812 -10.754847 1.362715 0.500000
8.155323 -10.678304 1.389460 85.000000
7.991867 -10.532711 1.367241 18.000000
7.814541 -10.389072 1.344337 30.000000
8.383171 -10.372733 1.379173 46.250000
7.972664 -6.062577 1.390713 14.500000
7.972204 -5.947381 1.381047 43.142857
7.997501 -5.816681 1.373109 40.857143
8.068131 -5.725248 1.373660 29.000000
9.192227 -5.808924 1.316848 39.333332
8.010903 -5.646878 1.360897 3.200000
9.151733 -5.663271 1.303343 30.750000
8.240989 -5.448384 1.371734 30.500000
9.994073 -5.469328 1.379685 7.000000
10.014695 -5.439798 1.380166 4.000000
8.286724 -5.341226 1.368929 12.800000
7.963190 -5.318822 1.329650 42.000000
8.593950 -5.007806 1.381086 31.500000
7.447029 -4.866564 1.394378 7.200000
7.433965 -4.798211 1.386822 55.000000
7.521392 -4.749079 1.394254 18.666666
8.271716 -4.721841 1.322498 19.666666
8.370605 -4.651369 1.329650 25.000000
7.500374 -4.571854 1.376788 33.599998
8.326199 -4.592518 1.320298 12.000000
7.535768 -4.477867 1.373952 43.555557
8.561974 -4.428630 1.338452 20.500000
8.822637 -4.510887 1.375860 0.000000
8.532903 -4.328988 1.328549 65.000000
7.460063 -3.879512 1.317945 23.200001
8.769631 -3.582392 1.315346 22.000000
7.175148 -3.499553 1.394707 57.000000
7.862518 -3.422726 1.344084 3.250000
8.793392 -3.431970 1.310670 7.500000
7.111675 -3.401738 1.377300 50.857143
7.931696 -3.364445 1.350432 15.250000
8.895479 -3.359488 1.320298 20.000000
7.139616 -3.240151 1.369810 17.916668
7.999259 -3.238414 1.352667 25.571428
8.972105 -3.268129 1.325868 58.625000
7.135668 -3.139813 1.362008 15.500000
8.020323 -3.144738 1.350277 16.500000
7.202447 -3.085785 1.368960 11.000000
8.117908 -3.022249 1.357710 0.000000
8.109500 -2.961206 1.353168 14.666667
8.934460 -2.823883 1.301043 41.000000
9.569176 -2.876359 1.387413 1.500000
9.058590 -2.785095 1.315897 53.000000
7.007112 0.231225 1.351488 11.000000
8.824171 0.459367 1.384964 8.000000
6.748938 0.499213 1.304545 45.000000
8.395746 0.542928 1.318688 13.000000
6.789125 0.588002 1.313631 1.000000
7.645894 0.760467 1.342388 56.000000
7.582226 0.838456 1.332750 36.500000
7.840128 0.817123 1.377152 42.000000
9.420429 0.787745 1.312596 22.000000
7.664330 0.981824 1.349961 48.000000
9.323523 1.045801 1.302694 2.000000
9.434566 1.103302 1.318922 3.500000
7.874517 1.312092 1.394707 57.000000
7.909711 1.292430 1.400214 9.000000
7.883442 1.390136 1.398562 36.200001
9.376699 1.411422 1.316630 10.666667
9.456400 1.484215 1.329100 22.000000
8.151175 1.686813 1.304690 16.400000
8.140879 1.821181 1.307539 19.750000
8.583242 2.005278 1.381557 4.000000
8.939643 2.859882 1.303244 2.000000
7.851980 2.898305 1.311875 2.000000
7.993366 2.940869 1.334999 49.333332
9.046923 2.963208 1.321838 18.799999
9.004469 3.005864 1.318097 15.000000
9.129169 3.119430 1.339552 6.750000
8.926487 3.422983 1.327449 4.000000
9.292163 3.429903 1.375310 0.000000
9.226057 3.571143 1.373660 5.000000
7.586804 3.605775 1.316624 28.000000
7.626186 3.663790 1.326121 35.666668
9.236935 3.608762 1.376960 2.000000
6.862769 3.760370 1.367171 0.000000
6.928031 3.697656 1.371989 8.000000
7.600905 3.769815 1.329838 0.000000
7.616256 3.747663 1.330457 41.000000
6.836611 3.783349 1.365105 27.333334
6.732192 3.928206 1.361762 38.857143
6.663008 4.013042 1.358910 7.000000
7.795669 3.989246 1.372576 41.000000
7.859244 4.084321 1.388267 39.000000
8.827397 4.378118 1.368158 11.000000
7.099960 4.445140 1.312959 18.000000
7.217865 4.409180 1.325708 27.333334
7.053927 4.531365 1.314105 8.000000
7.561191 4.537759 1.382176 25.000000
-7.850793 5.497083 1.330750 2.166667
-7.774912 5.583604 1.329100 1.600000
7.674729 6.052454 1.357156 3.200000
7.765987 6.006568 1.363207 1.000000
7.660655 6.159326 1.364858 0.000000
9.128769 6.390612 1.349485 4.400000
9.035401 6.547752 1.351312 16.000000
8.586582 6.643650 1.314764 1.000000
9.200952 6.623737 1.372952 32.000000
7.220416 6.704940 1.368158 13.333333
7.117963 6.792550 1.366141 19.333334
8.824594 7.220283 1.380807 4.333333
6.614847 8.673802 1.321016 1.000000
6.442417 8.728710 1.313802 17.000000
6.680751 8.703379 1.328710 14.000000
6.710489 8.685490 1.329191 18.000000
6.473107 8.965224 1.339129 21.000000
6.394610 9.044895 1.341454 5.500000
6.415285 8.983944 1.336885 2.000000
6.328318 9.150826 1.347369 24.400000
6.682035 9.173444 1.374395 70.000000
6.469233 9.242455 1.366220 17.000000
8.640849 10.028197 1.368887 3.000000
7.224028 10.460101 1.314576 31.000000
8.515536 12.667678 1.310719 39.000000
8.307685 12.700311 1.303190 24.000000
8.519957 12.760656 1.317563 11.000000
8.710906 12.841895 1.332507 4.333333
8.419725 12.960287 1.327145 31.000000
8.584291 13.033605 1.340150 5.000000
7.701840 13.127419 1.306954 43.500000
7.821886 13.142119 1.313285 34.500000
7.942260 13.202477 1.323039 8.000000
8.406431 13.680505 1.378821 13.000000
8.590451 13.593941 1.380875 12.333333
8.510186 13.752307 1.388746 9.000000
8.770301 13.687406 1.395932 18.000000
8.837025 13.696623 1.399697 10.000000
6.057910 18.567116 1.335558 13.000000
7.859483 18.578857 1.379494 11.000000
6.024068 18.662010 1.341016 0.000000
6.186215 18.661423 1.344427 6.500000
6.346752 18.750740 1.353705 13.500000
6.888637 18.692560 1.362302 35.000000
7.231748 18.712334 1.371853 18.000000
6.502345 18.819836 1.361619 51.000000
7.057271 18.966299 1.383861 65.000000
6.874138 19.020710 1.383042 18.000000
6.698533 19.095949 1.383861 44.000000
6.985850 19.141476 1.393412 33.000000
6.777509 24.672859 1.303783 37.000000
6.866760 24.693781 1.306022 24.000000
6.733437 24.817402 1.310297 27.000000
7.090092 24.791256 1.313893 36.333332
6.309803 25.009483 1.314300 22.666666
6.225492 25.118443 1.318643 1.000000
7.548190 25.143341 1.337675 11.000000
7.971206 25.529806 1.362815 2.000000
-5.204025 -28.836128 1.493091 30.000000
-5.075692 -28.903648 1.495330 5.000000
-6.544996 -28.508358 1.490445 46.500000
-3.357786 -28.497635 1.462150 8.000000
-3.427142 -28.320379 1.453601 3.000000
-3.250957 -28.357227 1.454415 8.000000
-3.777978 -28.239443 1.451769 14.000000
8.732068 -27.262577 1.458690 1.000000
9.418361 -27.045851 1.459301 3.000000
9.493428 -26.196735 1.419811 2.000000
7.893342 -20.381895 1.494657 29.000000
7.965242 -20.283150 1.490154 19.500000
8.088034 -20.314013 1.495203 17.000000
8.089324 -20.132978 1.483741 35.000000
8.008587 -19.752432 1.457543 22.000000
-6.559250 -19.683416 1.418791 3.000000
8.105125 -19.635326 1.452631 5.000000
-6.678053 -19.560492 1.413424 1.333333
-6.589217 -19.568161 1.411969 2.000000
8.528523 -19.437735 1.451539 7.000000
8.123224 -19.333832 1.434074 2.000000
8.926820 -19.346001 1.456997 38.000000
8.515263 -19.242975 1.438986 22.000000
8.733149 -19.083651 1.435165 7.000000
7.494284 -15.592858 1.485595 21.000000
7.298218 -15.063533 1.437342 13.000000
7.265056 -14.875801 1.421599 20.000000
7.250253 -14.689180 1.406655 19.000000
-7.747659 -14.589653 1.418519 4.000000
8.457592 -14.444485 1.437342 31.000000
9.483631 -14.426426 1.482515 17.500000
9.632932 -14.259881 1.477724 0.500000
8.692937 -13.830904 1.402777 49.000000
8.750525 -13.777995 1.401579 52.000000
8.818599 -13.741652 1.402092 40.000000
-6.596669 -12.808223 1.489853 21.000000
-6.806703 -12.625575 1.483270 28.000000
-6.453161 -12.676064 1.470926 27.500000
-5.706263 -12.702944 1.440068 0.000000
-6.846106 -12.556668 1.478950 28.000000
-6.345114 -12.610367 1.459817 39.000000
-5.746984 -12.546807 1.427107 34.166664
-5.476431 -12.576905 1.418535 30.000000
-5.382805 -12.586219 1.415586 20.750000
-5.286763 -12.607499 1.413735 2.000000
-6.209496 -12.438008 1.437599 30.000000
-6.021529 -12.450582 1.430193 10.000000
-6.459427 -12.350490 1.441302 72.000000
-6.096096 -12.405325 1.429370 25.666666
-5.786073 -12.408230 1.415792 30.500000
7.408776 -12.384066 1.492322 4.000000
-6.398520 -12.234095 1.427724 32.000000
-5.822971 -12.285364 1.405918 9.000000
7.766652 -12.228837 1.498082 8.500000
-6.530487 -12.204868 1.431427 65.000000
-6.400673 -12.053138 1.411266 35.000000
-6.991057 -11.873199 1.424844 38.000000
8.533503 -11.469448 1.478332 70.000000
8.269409 -11.261333 1.444799 38.000000
8.195165 -11.160444 1.431839 72.000000
8.554988 -11.128956 1.451588 0.000000
8.603525 -10.858895 1.432662 24.666666
8.581906 -10.738830 1.421553 62.000000
9.068422 -10.780597 1.456800 7.000000
9.130428 -10.682852 1.453234 17.500000
9.168028 -10.524284 1.443359 16.000000
9.037741 -10.474020 1.430604 51.000000
9.262968 -10.367477 1.437702 16.000000
9.434723 -10.361338 1.449120 21.500000
9.470850 -9.983720 1.423061 5.000000
7.438691 -9.835715 1.493416 10.500000
8.026563 -6.284584 1.415469 1.000000
7.398573 -5.438776 1.439264 31.333334
7.430332 -5.372786 1.437199 27.500000
7.486283 -5.268304 1.434825 10.750000
9.429200 -5.085595 1.487535 19.000000
6.606840 -4.942533 1.441518 0.666667
6.951566 -4.998887 1.495902 40.000000
6.780069 -4.875423 1.459004 44.400002
6.912636 -4.856405 1.475939 51.000000
8.203177 -4.728475 1.484066 53.000000
8.211657 -4.733454 1.485615 48.500000
6.846239 -4.650972 1.445993 8.000000
8.247199 -4.624230 1.482002 46.222221
9.801960 -4.535371 1.499638 9.500000
8.176569 -4.164366 1.438231 4.500000
8.300950 -4.145938 1.454336 101.000000
8.602489 -4.195714 1.500171 43.000000
8.129025 -4.012333 1.420888 46.500000
7.318483 -3.814650 1.441862 9.500000
6.718553 -3.652465 1.474144 16.333334
7.257811 -3.716589 1.424584 26.799999
6.768171 -3.542827 1.472629 34.000000
6.614300 -3.502046 1.442722 32.000000
6.509174 -3.368349 1.412816 25.000000
6.659256 -3.353631 1.437296 57.666668
6.731831 -3.337318 1.448401 5.000000
6.911467 -3.345599 1.480201 40.000000
7.268270 -3.391092 1.401247 67.500000
7.318166 -3.344340 1.405721 33.000000
8.836088 -3.346621 1.480970 29.400000
6.650646 -3.271082 1.428715 38.000000
6.706779 -3.272563 1.438558 23.000000
7.025554 -3.185454 1.487015 91.000000
7.669826 -3.147188 1.448402 17.000000
6.737862 -3.106193 1.430230 18.000000
7.411155 -3.081931 1.402279 34.000000
7.728415 -3.065796 1.489890 16.250000
7.679551 -2.958467 1.437801 14.200000
7.842430 -2.933626 1.462859 25.500000
8.015116 -2.955343 1.492460 29.000000
8.458619 -2.953880 1.404320 8.500000
7.763294 -2.825602 1.443354 20.666666
8.025377 -2.826132 1.486494 29.666666
8.549239 -2.781133 1.409120 19.333334
8.062197 -2.706962 1.485806 5.000000
8.586133 -2.663026 1.409031 17.428572
8.662362 -2.618621 1.418411 8.000000
6.676697 -0.052440 1.409235 11.000000
6.727541 -0.052876 1.419974 12.500000
6.757120 0.050128 1.426228 26.142857
6.973309 0.120502 1.472015 16.000000
6.724191 0.184833 1.419767 5.750000
7.443283 0.762624 1.442344 57.000000
7.573584 0.751970 1.467140 60.750000
7.997318 0.770054 1.403656 57.000000
8.021622 0.721556 1.407098 6.000000
7.998895 0.973539 1.407786 44.333332
8.059671 0.929684 1.417424 40.000000
9.254716 0.979243 1.458671 3.000000
9.239808 1.007028 1.456813 9.000000
7.942388 1.106446 1.401017 49.166668
7.995213 1.526641 1.422071 30.500000
9.310209 1.491254 1.477872 0.000000
8.335733 1.913006 1.494181 22.750000
8.997882 2.605692 1.468272 14.666667
9.037714 2.756148 1.480970 35.666668
9.150447 2.738304 1.497074 21.000000
8.540009 2.865746 1.411907 2.000000
8.025103 2.905046 1.491083 10.000000
8.731667 2.884342 1.441328 17.000000
8.741336 3.238921 1.461149 33.799999
8.847287 3.202673 1.474776 27.000000
8.590860 3.348554 1.445199 21.500000
8.655866 3.303613 1.452168 40.500000
7.532014 3.416673 1.444960 3.000000
8.490694 3.430451 1.435341 33.166668
8.628500 3.433697 1.455574 28.000000
7.530585 3.522676 1.430973 10.000000
7.613354 3.569597 1.469054 72.000000
8.770487 3.650783 1.489022 5.333333
6.689296 3.746186 1.477929 8.000000
6.751518 3.719866 1.485955 12.400000
7.561141 3.705815 1.471120 33.000000
8.700226 3.772095 1.486338 26.666666
6.704861 3.782621 1.483986 17.000000
8.627759 3.783730 1.476634 33.000000
9.353888 3.824866 1.403183 18.666666
6.647049 3.959109 1.491431 11.333333
9.375335 3.948864 1.412535 20.666666
6.544828 4.053223 1.483986 4.000000
9.497666 3.988550 1.430322 7.000000
6.568722 4.096626 1.492315 0.000000
8.485443 4.092906 1.476634 14.500000
9.658222 4.127553 1.458379 2.000000
7.152410 4.277239 1.455975 3.000000
6.961941 4.445495 1.443125 14.666667
7.039642 4.438256 1.453910 17.500000
8.164912 4.676089 1.474776 16.000000
8.231093 4.679713 1.484066 20.000000
-7.813232 5.507525 1.498312 3.000000
7.326487 5.947715 1.479111 0.500000
7.275043 6.078568 1.485925 0.000000
7.284972 6.165001 1.495835 8.000000
7.076613 6.260859 1.480970 39.000000
7.008489 6.319336 1.479111 88.000000
6.777727 6.400420 1.461149 9.333333
9.660552 6.681803 1.422484 3.000000
7.690256 6.868628 1.431698 51.500000
9.515647 6.805001 1.416713 25.000000
7.645958 6.929097 1.432743 41.200001
7.798209 6.899272 1.445726 56.000000
8.031776 7.038674 1.482859 21.000000
9.552060 7.014093 1.435148 9.000000
9.583021 7.176845 1.449895 3.000000
9.611893 7.151444 1.450857 7.000000
9.544573 7.194963 1.447491 0.000000
7.770763 7.299802 1.480384 50.000000
6.596805 7.751162 1.413269 27.250000
6.558155 7.804633 1.415469 0.000000
6.520621 8.168241 1.451227 5.000000
6.625862 8.193757 1.463146 7.333333
7.651195 8.964714 1.427293 16.500000
7.624132 9.047541 1.432823 18.000000
7.236792 9.869739 1.482115 35.000000
7.518565 9.837241 1.499427 21.333334
6.006211 10.200595 1.433545 0.000000
6.306589 10.372530 1.470093 20.500000
6.476976 10.393562 1.483077 12.000000
6.111920 10.763299 1.498946 0.000000
6.078076 10.782447 1.498946 1.000000
8.295778 11.852001 1.496025 2.000000
8.344625 11.803022 1.494790 12.500000
7.995597 11.934593 1.485533 11.000000
6.305895 12.338744 1.432936 16.666666
6.481499 12.298459 1.437599 11.000000
6.505260 12.485878 1.455908 15.500000
6.233966 12.585809 1.452411 7.000000
6.309216 12.604621 1.457623 16.666666
8.485517 14.005737 1.406199 1.000000
6.986052 15.294109 1.443844 25.000000
7.060741 15.330004 1.449319 46.000000
6.963166 15.457636 1.455822 25.000000
7.637502 15.500978 1.483884 29.333334
7.346997 15.777150 1.494493 36.000000
7.056898 15.932274 1.496318 47.000000
6.999156 15.982403 1.498258 4.000000
7.203834 19.175650 1.400780 47.000000
7.517301 19.093552 1.403236 5.000000
6.865113 19.375732 1.405692 2.000000
7.282265 20.349768 1.478010 28.000000
