# This PCD file was generated using the MATLAB® pcwrite function
# from Computer Vision Toolbox®.
# .PCD v.7 - Point Cloud Data file format
VERSION .7
FIELDS x y z intensity
SIZE 4 4 4 4
TYPE F F F F
COUNT 1 1 1 1
WIDTH 1256
HEIGHT 1
VIEWPOINT 0 0 0 1 0 0 0
POINTS 1256
DATA ascii
9.255711 2.485255 1.847412 40.000000
9.144967 2.594673 1.832458 11.000000
9.378368 2.565660 1.874290 11.000000
7.593390 2.720322 1.852686 6.000000
7.678805 2.715892 1.870851 43.714287
9.058941 2.724691 1.823562 32.500000
9.107469 2.692569 1.830755 14.000000
6.948138 2.826875 1.862353 24.750000
8.276398 3.053324 1.861908 41.000000
8.039738 3.197805 1.826182 22.750000
8.395897 3.202730 1.896602 18.500000
7.084938 3.374789 1.802541 67.000000
7.937529 3.524054 1.832997 38.000000
7.514035 3.579086 1.807997 20.666666
7.927703 3.579519 1.835888 25.000000
8.739494 3.636111 1.824697 46.000000
8.825812 3.704593 1.845140 30.000000
6.292603 3.788456 1.823559 1.000000
6.454559 3.781811 1.857293 43.200001
6.603489 3.780323 1.889099 23.000000
6.923814 3.769643 1.810779 21.600000
8.015829 3.849147 1.876777 3.000000
7.712809 3.853872 1.819780 47.000000
7.816843 3.921242 1.845801 23.500000
8.000803 3.883250 1.877053 15.000000
6.794022 4.046911 1.816421 0.500000
8.056460 3.962524 1.894950 30.000000
6.837435 4.264211 1.850895 33.000000
8.576953 4.721016 1.887287 20.000000
8.570983 4.847255 1.898140 21.333334
7.228577 4.862898 1.838779 0.000000
7.356852 5.136078 1.893711 0.000000
8.994501 5.245420 1.819108 3.000000
7.050225 5.408513 1.875456 29.600000
8.795974 5.449485 1.807749 1.000000
8.836664 5.417233 1.810847 31.000000
9.186280 5.441432 1.865346 31.666666
9.179080 5.548106 1.873836 40.500000
6.435322 5.637668 1.805737 4.000000
9.282915 5.551310 1.889669 22.000000
8.646802 6.537129 1.893800 31.000000
8.606504 6.570653 1.891735 23.000000
9.474655 6.717118 1.820397 4.750000
9.553543 6.694434 1.828449 1.000000
7.022749 6.913293 1.899654 0.000000
7.387015 7.183472 1.800177 9.000000
8.103692 7.237909 1.898274 23.500000
8.911228 7.589414 1.834643 9.000000
7.751063 8.548232 1.808629 0.000000
5.943578 9.061889 1.893341 17.166668
7.603409 9.402843 1.895344 46.000000
7.530782 9.474354 1.896995 28.333334
9.137752 9.642655 1.844566 9.000000
9.564564 9.598008 1.881424 2.000000
9.150874 9.717465 1.853368 6.000000
9.443210 9.656567 1.875373 23.000000
8.700586 10.464994 1.889676 39.000000
7.056289 11.161947 1.833563 3.000000
7.231971 11.204671 1.851717 16.250000
7.585555 11.203818 1.878673 20.000000
7.762877 11.236139 1.896277 43.000000
7.419002 11.494406 1.899578 10.000000
6.063832 12.236954 1.896277 17.000000
8.586547 12.185747 1.805276 1.000000
8.346739 12.981384 1.868994 18.000000
7.632473 13.075061 1.833456 27.600000
8.307842 13.055782 1.874044 23.000000
7.583032 13.160706 1.839419 7.000000
8.454888 15.565488 1.831766 0.000000
8.730656 15.718154 1.859333 4.000000
8.367528 15.756929 1.844932 2.000000
8.842164 15.801756 1.872499 1.000000
9.075646 15.866229 1.890192 11.000000
6.181558 16.882610 1.859196 23.666666
6.348348 16.979338 1.874557 11.000000
6.257062 17.144571 1.887312 51.000000
6.542658 17.088764 1.892249 24.000000
6.777447 17.056965 1.898009 3.000000
8.170364 19.313742 1.800784 9.000000
8.256027 19.346628 1.806259 3.000000
8.461076 19.403542 1.817724 20.000000
8.551621 19.361658 1.817553 9.000000
7.927989 19.771330 1.829188 1.000000
6.345330 20.088133 1.808997 14.000000
6.468576 20.147144 1.817039 24.000000
6.357063 20.347620 1.830557 21.000000
5.970179 20.456175 1.829873 16.000000
7.499796 20.549706 1.878469 16.000000
6.073914 20.571095 1.841851 16.000000
5.729861 20.717096 1.845786 8.000000
5.871292 20.720957 1.849380 18.000000
6.188695 20.719933 1.856908 27.000000
6.291657 20.669434 1.855311 40.000000
6.409581 20.744455 1.864437 5.000000
5.625597 21.246981 1.887366 10.000000
6.113535 21.194723 1.894211 36.000000
6.946398 25.426624 1.802485 7.000000
6.626151 25.676878 1.813400 2.000000
-2.821366 -28.982956 1.991329 5.500000
-5.570589 -28.525284 1.987509 4.000000
-3.167509 -28.373064 1.952305 1.000000
-3.080507 -28.402714 1.953669 3.000000
-2.543900 -28.447781 1.953124 33.000000
-6.728768 -28.266287 1.986963 1.000000
-5.799900 -28.279959 1.974137 4.000000
-5.719709 -28.341068 1.977139 34.000000
-2.969115 -28.201908 1.939206 38.000000
-2.785185 -28.152494 1.934567 3.000000
-6.787574 -28.120872 1.978230 3.000000
-2.867529 -28.084055 1.930473 14.000000
-4.825957 -27.968409 1.940843 9.000000
7.963557 -28.030628 1.992694 24.000000
8.195820 -28.009378 1.995696 4.000000
-8.961326 -27.761353 1.994877 4.000000
7.696084 -27.751320 1.969361 4.000000
8.050139 -27.835640 1.981505 16.000000
-8.753060 -27.710562 1.987236 5.000000
-6.232995 -27.725649 1.943299 32.000000
-6.144135 -27.737301 1.942754 39.000000
-5.492307 -27.662157 1.928563 37.000000
-5.104613 -27.676771 1.924560 35.666668
-4.953766 -27.670416 1.922286 7.000000
-8.807297 -27.580284 1.979868 9.000000
8.160305 -27.566399 1.965950 16.000000
8.237710 -27.510040 1.963767 10.000000
8.600641 -27.461479 1.967860 14.000000
9.477678 -27.369789 1.980686 15.000000
-9.003041 -27.016901 1.947393 1.000000
-7.885571 -27.019068 1.924742 3.000000
-6.652691 -27.003597 1.901819 52.000000
-9.711685 -26.872194 1.953942 13.000000
-7.751990 -26.874996 1.912735 9.000000
-7.653299 -26.849323 1.909187 33.000000
-9.981219 -26.824352 1.957217 8.000000
-9.607053 -26.846210 1.949849 11.000000
-9.856878 -26.746986 1.949303 9.000000
-9.748175 -26.710344 1.944391 24.000000
8.460395 -26.719074 1.916555 11.000000
10.151227 -26.709255 1.953942 5.000000
-9.999480 -26.617283 1.944391 3.000000
10.018055 -26.610298 1.944391 5.000000
-10.050497 -26.499916 1.938114 7.000000
9.116175 -26.460297 1.913826 11.000000
8.421124 -21.543491 1.986269 20.000000
8.580699 -21.355928 1.976345 3.000000
7.871438 -21.109249 1.934593 9.000000
7.669772 -20.767498 1.901055 32.000000
9.899512 -20.432608 1.949651 33.000000
10.748559 -19.903942 1.942464 0.000000
7.679526 -17.552711 1.981259 25.666666
-6.579646 -17.185375 1.902947 2.000000
-6.796547 -17.105036 1.903358 6.000000
7.761025 -17.101152 1.942034 0.000000
9.368708 -16.715340 1.981533 33.000000
9.423127 -16.689291 1.981945 5.000000
8.923874 -16.279549 1.919816 11.000000
9.027678 -16.266193 1.923793 10.666667
-6.277022 -12.818697 1.981822 8.000000
-6.158761 -12.728665 1.963392 25.000000
-5.703876 -12.691704 1.932035 0.000000
10.109251 -12.731861 1.968780 4.000000
-7.340344 -12.372385 1.997500 21.000000
-5.950729 -12.397909 1.909480 9.000000
7.166721 -11.899187 1.928735 6.000000
8.117661 -11.860053 1.995575 12.000000
7.066269 -11.816231 1.911681 27.000000
-8.414635 -11.624363 1.992549 37.000000
-8.313307 -11.560675 1.977146 3.000000
8.066697 -11.473491 1.947439 21.500000
8.142301 -11.415099 1.946889 3.333333
-5.471592 -11.308455 1.969051 49.000000
8.700418 -11.322230 1.982647 20.000000
8.742708 -11.267025 1.980171 12.000000
-5.353127 -11.225035 1.949231 27.799999
-6.244623 -11.073379 1.992588 9.000000
-8.370790 -11.008163 1.920208 27.000000
9.203295 -10.771873 1.967243 10.500000
7.084455 -10.598634 1.998163 19.000000
7.074639 -10.476669 1.981439 16.000000
-6.264056 -10.408746 1.904118 14.666667
-5.575922 -9.960602 1.994307 38.000000
7.964651 -9.842550 1.984536 1.000000
-5.646999 -9.690835 1.959542 29.000000
7.999372 -9.746920 1.976360 15.600000
8.087707 -9.741688 1.984536 4.000000
-5.679608 -9.642061 1.955068 38.000000
-6.420246 -9.244457 1.966388 34.888889
8.667613 -9.226782 1.984227 1.000000
-6.726519 -9.110256 1.978473 59.333332
8.465903 -9.116878 1.950057 22.000000
-6.740412 -8.806540 1.937513 54.000000
7.660390 -8.506519 1.999952 50.599998
7.008398 -8.387900 1.909633 72.000000
8.252573 -7.674134 1.968836 53.000000
8.303102 -7.737367 1.982833 65.666664
6.715520 -4.071861 1.949820 12.666667
6.885426 -3.865491 1.960422 39.333332
7.345638 -3.801062 1.976308 5.000000
9.473405 -3.802524 1.967796 25.000000
9.653492 -3.717329 1.994107 17.750000
6.462820 -3.553024 1.971062 19.500000
6.434731 -3.463242 1.952989 32.333332
9.709931 -3.513029 1.990510 13.000000
7.836355 -3.289274 1.952081 27.000000
8.727087 -3.344774 1.972599 34.000000
7.955300 -3.077673 1.959245 36.000000
8.711070 -3.059109 1.948643 16.000000
8.587069 -3.045902 1.923036 11.000000
9.472299 -2.897780 1.909497 35.000000
8.032003 -2.686651 1.945365 39.500000
8.999127 -2.650311 1.980033 55.000000
8.936340 -2.641976 1.966816 56.000000
8.693317 -2.510841 1.909819 64.000000
9.586603 -2.349374 1.902682 12.000000
8.179611 -2.306889 1.952081 11.000000
9.231424 -1.967266 1.992148 44.666668
9.252367 -1.931235 1.994902 4.000000
8.945028 -1.648182 1.919732 22.500000
8.125501 -1.282690 1.991046 20.000000
7.060205 -0.993503 1.905481 103.000000
7.222478 -0.877813 1.944468 35.000000
7.853484 -0.891812 1.962350 13.500000
7.902779 -0.834799 1.972952 0.000000
7.213274 -0.704735 1.936980 16.000000
7.829001 -0.690472 1.951266 38.000000
7.903750 -0.659529 1.969096 39.000000
7.133973 -0.617869 1.913743 33.000000
7.749976 -0.551760 1.928977 36.000000
8.352526 -0.595513 1.923427 14.333333
8.554100 -0.565225 1.969095 50.500000
7.696198 -0.459916 1.914158 8.000000
8.358175 -0.414117 1.922196 26.000000
8.415777 -0.286663 1.934172 29.000000
9.039474 -0.156206 1.908167 0.000000
9.345487 -0.102800 1.972599 11.500000
9.412064 -0.103495 1.986641 5.000000
9.337235 -0.000008 1.970740 12.000000
9.175431 0.086445 1.936666 15.500000
6.961149 2.371124 1.965382 24.000000
9.057827 2.442293 1.980033 20.666666
9.010269 2.541158 1.975903 16.000000
7.264869 2.745149 1.928134 7.500000
7.559596 2.668081 1.990301 33.500000
6.830580 2.800053 1.972956 12.333333
7.234287 2.837965 1.929339 33.750000
7.355168 2.818967 1.955603 5.000000
8.054585 2.771844 1.956558 60.000000
7.962082 3.504995 1.998197 29.500000
7.550209 3.567356 1.918054 0.000000
6.792066 3.664800 1.916086 26.000000
6.217905 3.783480 1.945243 32.500000
6.326699 3.808983 1.973644 36.000000
6.641773 3.808971 1.973146 12.500000
6.797589 3.798673 1.933297 26.571428
6.820267 3.932923 1.954639 44.000000
7.499150 3.940461 1.945813 14.000000
6.746759 4.110191 1.961386 22.666666
7.471046 4.142951 1.962230 44.000000
6.612984 4.246431 1.951169 23.799999
6.841938 4.207541 1.994156 0.000000
7.458980 4.197826 1.965961 14.666667
6.510989 4.268117 1.932857 27.600000
7.983747 4.275466 1.911471 21.000000
6.575613 4.378781 1.961386 9.500000
7.887801 4.449990 1.911471 13.000000
7.985022 4.397918 1.924068 30.750000
7.935165 4.496464 1.925018 32.400002
7.842693 4.571708 1.916014 2.000000
7.948676 4.650416 1.943687 51.000000
8.081697 4.694224 1.972599 70.000000
7.219738 4.856951 1.998645 22.000000
8.562539 4.901827 1.901925 18.000000
6.663817 4.954403 1.907309 26.000000
6.785959 5.012010 1.937754 28.799999
7.104558 4.976513 1.992377 1.000000
6.696474 5.143957 1.939545 37.000000
6.791364 5.115802 1.952977 11.000000
6.788325 5.307127 1.979201 46.571430
7.324054 5.327088 1.911471 31.000000
7.293238 5.369199 1.911471 10.500000
8.546417 5.499360 1.959089 7.500000
8.473097 5.700127 1.968553 0.000000
8.513822 5.688754 1.973853 4.000000
7.290351 5.935279 1.984163 1.000000
7.266822 5.973295 1.985402 46.000000
9.157078 6.331218 1.944971 14.666667
7.978928 6.392343 1.970825 24.500000
9.135438 6.401456 1.948872 1.000000
9.425389 6.407941 1.991209 15.000000
7.633686 6.471611 1.929182 52.000000
7.765997 6.528002 1.955682 14.000000
8.717774 6.742723 1.925466 3.000000
9.206077 6.668986 1.986046 1.000000
6.987783 7.009770 1.907982 48.000000
7.023507 6.979533 1.908740 26.500000
8.892076 7.012464 1.978474 30.000000
8.920265 6.989354 1.979850 32.000000
7.242145 7.310724 1.983696 32.000000
8.649511 7.437087 1.992930 17.500000
8.635188 7.495877 1.997749 6.000000
6.961457 7.578487 1.983696 0.000000
7.017224 7.591190 1.992782 24.000000
6.823281 7.666361 1.978396 0.000000
-8.041112 8.013091 1.983292 4.000000
-7.911444 8.008651 1.966771 37.500000
-7.845205 8.092844 1.969180 8.000000
7.582576 8.576648 2.000043 32.666668
6.299811 8.937173 1.910321 0.000000
6.183872 9.059759 1.916379 10.800000
6.279949 9.059210 1.925811 12.500000
6.398267 9.137672 1.948872 7.000000
6.125754 9.171305 1.926843 87.000000
6.229297 9.263186 1.950249 35.000000
7.686389 9.414322 1.904944 38.500000
7.790416 9.430309 1.917229 15.333333
7.863162 9.357663 1.915784 21.666666
5.877351 9.527431 1.955756 10.500000
7.534098 9.498853 1.900299 0.000000
5.825814 9.566724 1.956903 7.666667
6.007672 9.636725 1.983981 0.000000
7.304897 9.700970 1.903396 9.000000
7.575018 10.125735 1.982059 1.000000
7.545527 10.152655 1.982678 39.000000
6.247431 10.418041 1.904015 22.000000
6.625233 10.407548 1.933746 11.000000
6.173404 10.518177 1.911603 11.250000
6.472893 10.544630 1.939321 17.200001
6.614000 10.498838 1.944895 1.500000
6.112904 10.643620 1.923836 3.000000
5.814806 11.028761 1.954186 13.000000
5.936564 11.174461 1.983297 93.000000
7.712208 11.314157 1.901229 4.000000
7.821249 11.295251 1.907647 44.666668
7.184935 11.826412 1.921400 38.666668
7.775505 11.801134 1.962292 0.000000
6.532360 12.142043 1.914431 28.000000
6.193232 12.207526 1.900678 1.000000
6.206512 12.329551 1.916632 1.000000
6.312006 12.281751 1.917366 28.666666
7.366254 12.269238 1.987048 57.333332
6.513562 12.354070 1.939187 27.000000
6.477805 12.475547 1.951840 24.500000
6.730788 12.669438 1.991999 18.000000
5.910311 12.933086 1.974395 46.000000
6.146807 13.015429 1.998600 0.000000
6.231893 12.983694 1.999701 0.000000
5.808179 13.144045 1.995300 1.000000
5.665029 13.191958 1.993466 9.666666
7.872853 14.173818 1.963490 3.000000
8.384526 14.171808 1.994107 6.333333
7.425576 14.417646 1.963971 9.000000
7.414580 14.508086 1.973108 41.000000
6.748608 17.141111 1.905004 30.000000
6.695278 17.324203 1.920639 2.000000
6.787264 17.399458 1.931337 45.000000
6.523674 18.050978 1.984825 63.000000
8.056755 20.847063 1.919193 2.000000
8.399656 20.758579 1.922958 18.000000
8.164454 21.527023 1.977029 2.000000
7.081581 21.627705 1.954214 50.000000
5.738235 21.950872 1.948282 27.000000
5.445977 22.105221 1.954956 17.500000
5.598703 22.077314 1.955811 31.000000
5.722024 22.173315 1.966420 77.000000
6.539440 27.092865 1.905913 3.000000
6.668154 27.250496 1.918466 35.000000
7.293669 27.201351 1.925834 23.000000
6.767181 27.283642 1.922286 40.000000
6.541163 27.478201 1.931565 34.000000
8.133148 27.545298 1.964040 2.000000
5.048545 27.697903 1.925288 20.000000
5.144998 27.732914 1.928836 4.000000
5.518732 27.795242 1.937841 34.000000
7.747624 27.842657 1.976320 9.000000
5.442857 27.871193 1.941935 8.000000
8.136016 27.877180 1.985871 1.000000
7.892397 28.021765 1.990783 7.000000
6.409704 28.098894 1.970862 14.000000
5.331292 28.242085 1.965404 2.000000
6.002260 28.360085 1.982324 0.000000
-2.890355 -30.183111 2.073471 1.000000
-3.744955 -30.109137 2.074836 4.000000
-3.923715 -30.005871 2.069378 5.000000
-2.773441 -29.953623 2.057097 16.000000
-6.823288 -29.911980 2.098032 14.000000
-2.391737 -29.922461 2.052731 4.000000
-6.901932 -29.824301 2.093393 11.000000
-4.175824 -29.750204 2.054368 2.000000
-3.417323 -29.762489 2.048638 9.000000
-2.526511 -29.837254 2.047682 8.000000
-5.797756 -29.688541 2.068559 14.000000
-4.267567 -29.725086 2.053550 5.000000
-3.509399 -29.739716 2.047819 9.000000
-3.584569 -29.577999 2.037449 10.000000
-4.728226 -29.420860 2.037722 38.666668
-4.601902 -29.420721 2.036357 31.000000
-8.862336 -29.334965 2.095576 2.000000
-4.864590 -29.289434 2.030354 6.000000
8.511862 -29.089458 2.072653 6.000000
-8.962830 -29.007994 2.076200 1.000000
-9.092029 -28.783670 2.064193 15.000000
7.632731 -28.746479 2.033901 1.000000
-8.458608 -28.647568 2.042634 1.000000
8.451421 -28.549818 2.036084 10.000000
9.163553 -28.626925 2.055460 4.000000
8.689734 -28.369690 2.028989 1.000000
8.951900 -28.271317 2.027897 1.000000
9.053189 -27.979103 2.010978 17.000000
8.899807 -22.352873 2.066007 9.000000
9.331018 -22.405313 2.084145 20.000000
9.532912 -22.103315 2.067034 4.000000
10.273264 -21.901215 2.077301 14.000000
9.720549 -21.418894 2.019807 4.000000
7.686566 -17.977407 2.021855 1.000000
7.684701 -17.817993 2.006631 9.000000
8.592534 -17.664219 2.031318 43.000000
8.953466 -17.421436 2.025558 39.500000
10.028027 -17.188454 2.057857 3.500000
9.872355 -17.106312 2.042428 1.000000
10.111960 -17.146168 2.058474 3.000000
7.580764 -15.158252 2.052455 18.000000
7.683752 -15.244288 2.067363 25.000000
8.889929 -13.981294 2.006450 29.333334
8.956285 -13.956204 2.008213 37.000000
9.297208 -13.903749 2.025525 10.000000
9.758156 -13.827942 2.049570 31.000000
7.337357 -12.905593 2.061315 7.000000
6.936398 -12.801897 2.021706 11.500000
7.023376 -12.770214 2.023631 13.500000
7.177651 -12.811436 2.039035 14.750000
8.171118 -12.649983 2.091021 28.000000
10.865666 -12.713085 2.025285 13.500000
8.200019 -12.607644 2.088271 3.000000
-7.479227 -12.427859 2.014004 2.000000
8.172204 -12.393798 2.061315 5.000000
-8.528581 -12.344432 2.083320 4.000000
-8.111201 -12.310631 2.047011 1.000000
-8.088511 -12.192643 2.031608 4.000000
-5.509896 -12.208698 2.099434 39.000000
-5.420925 -12.164165 2.087356 37.000000
-8.203061 -12.115871 2.031608 0.000000
-5.081805 -12.112801 2.058863 23.000000
-4.950151 -12.081767 2.046476 28.666666
-8.747438 -12.004532 2.062415 39.000000
-8.203148 -12.034387 2.022256 8.000000
-5.299627 -11.993177 2.055147 50.000000
-5.205272 -11.982745 2.047714 10.000000
-5.160419 -12.034367 2.052360 4.000000
-5.050490 -12.038017 2.046166 35.500000
-4.858329 -11.893102 2.013648 31.000000
-6.008569 -11.751887 2.068774 10.000000
-5.165184 -11.788973 2.017364 39.000000
-5.964852 -11.726751 2.062167 19.666666
-5.833246 -11.725224 2.052670 19.500000
-5.712513 -11.665831 2.035946 38.000000
8.604216 -11.568705 2.001901 18.500000
-6.378386 -11.478548 2.058244 4.000000
9.625422 -11.519954 2.084420 14.333333
9.746229 -11.516787 2.094872 22.000000
7.094594 -11.344943 2.097266 23.000000
7.128568 -11.267570 2.089833 7.000000
-7.142732 -11.194568 2.081368 19.666666
-7.014733 -11.212956 2.073110 19.000000
-6.992541 -11.138428 2.061341 1.000000
-6.419753 -11.137286 2.014887 19.000000
9.908742 -11.129148 2.069016 29.000000
-7.750215 -10.849368 2.089833 16.000000
-7.244029 -10.919669 2.053908 31.000000
9.684711 -10.946572 2.029408 4.000000
-7.266184 -10.805077 2.040901 48.000000
7.064529 -10.772861 2.019222 11.000000
7.655759 -10.780745 2.072490 14.666667
9.726424 -10.787135 2.016755 0.000000
-7.725540 -10.672416 2.065058 24.000000
-7.689666 -10.693425 2.064438 8.000000
7.819128 -10.687374 2.075587 4.500000
8.020880 -10.667294 2.091898 34.333332
7.250838 -10.629330 2.016745 2.000000
-5.418273 -10.435069 2.054198 37.000000
-5.954490 -10.330127 2.083111 3.000000
-5.655078 -10.290663 2.051444 22.000000
-5.549713 -10.289719 2.042495 0.000000
-5.420660 -10.320453 2.036644 30.000000
-5.563199 -10.237611 2.035611 15.000000
-5.916955 -9.973217 2.025973 30.000000
-5.640458 -10.002337 2.006206 26.571428
-6.762314 -9.920618 2.097567 3.000000
-6.070814 -9.875690 2.025285 6.000000
-5.984913 -9.909492 2.022532 38.500000
-6.574408 -9.843014 2.067966 2.000000
8.368309 -9.763473 2.015506 20.000000
8.451541 -9.839515 2.033056 11.333333
8.527926 -9.824101 2.039043 23.000000
-7.359794 -9.460881 2.094126 47.000000
-7.110730 -9.443114 2.065212 0.000000
-7.066867 -9.446476 2.061082 43.000000
9.053926 -9.369067 2.042140 2.000000
7.388218 -9.308255 2.076227 0.000000
8.909487 -9.277752 2.016125 27.000000
9.050253 -9.306581 2.034707 4.000000
9.145315 -9.257654 2.039662 4.000000
7.185495 -9.190383 2.038135 12.666667
7.458265 -9.216769 2.071408 25.000000
7.334104 -9.141375 2.047543 19.333334
7.487130 -9.076158 2.055575 11.000000
7.442616 -8.964672 2.035611 3.000000
7.465827 -8.878528 2.026662 11.000000
7.656199 -8.599173 2.011517 38.000000
8.399137 -8.396206 2.074850 39.500000
8.558981 -8.343653 2.088274 49.500000
6.698745 -8.175530 2.037453 7.000000
6.758096 -8.195281 2.047674 29.500000
6.917085 -8.176347 2.064520 13.250000
8.559276 -8.213902 2.072556 43.000000
8.791120 -8.072528 2.085176 18.000000
6.798183 -7.985013 2.021553 28.000000
7.316875 -8.041148 2.095752 30.500000
8.816437 -8.044869 2.085176 42.000000
7.388516 -7.867952 2.080609 18.500000
7.455234 -7.864421 2.088938 39.000000
8.390652 -7.901421 2.013582 63.000000
7.155420 -7.789644 2.038967 0.000000
7.252377 -7.796296 2.052595 1.000000
7.131867 -7.715211 2.025338 57.000000
7.398036 -7.658215 2.052595 7.000000
7.295550 -7.647707 2.037453 44.000000
7.341300 -7.647417 2.043510 16.000000
9.238219 -7.494359 2.078292 19.500000
7.290782 -7.406214 2.003381 0.000000
7.338058 -7.384296 2.006789 27.000000
8.856376 -7.289078 2.003944 22.250000
9.113734 -7.322395 2.042495 0.000000
9.037180 -7.190971 2.017713 4.500000
9.145655 -7.184009 2.031825 10.500000
7.111932 -3.953575 2.020179 21.000000
7.250081 -4.000609 2.055841 20.000000
7.323366 -3.996152 2.071262 15.500000
6.803917 -3.859633 2.090607 20.500000
7.364804 -3.944010 2.074153 7.000000
7.295026 -3.818612 2.044275 25.000000
8.245276 -3.707331 2.076549 15.000000
8.312838 -3.612800 2.081922 1.000000
6.863755 -3.138127 2.017021 20.000000
7.295670 -2.020532 2.023218 49.500000
8.190573 -1.986827 2.092466 35.750000
7.289238 -1.920499 2.014611 50.333332
8.204445 -1.928867 2.092466 45.000000
7.293175 -1.795510 2.007382 53.666668
7.316113 -1.780768 2.012373 38.000000
9.778705 -1.722490 2.095680 20.000000
8.840341 -1.187406 2.048790 0.000000
9.794353 -1.159238 2.081637 6.000000
8.245715 -1.133922 2.066443 0.000000
8.821057 -1.044041 2.040283 41.750000
9.023158 -1.010515 2.085503 0.000000
9.001256 -0.922251 2.078340 29.000000
7.722509 -0.717755 2.072791 27.000000
9.026890 -0.326268 2.074758 29.000000
9.531650 -0.344512 2.013075 7.000000
8.745077 -0.233580 2.009390 32.000000
9.139404 -0.215382 2.099831 21.000000
8.141219 2.131136 2.089360 33.555557
7.549316 2.167543 2.099127 20.500000
8.117857 2.255885 2.091824 33.333332
9.417854 2.323685 2.047356 15.000000
9.189045 2.436431 2.006467 22.000000
9.353765 2.401534 2.038270 17.500000
9.458092 2.428374 2.060986 5.000000
7.612427 2.646460 2.000903 32.000000
9.284502 2.650017 2.037856 0.000000
9.425716 2.610433 2.064290 17.000000
9.224720 2.706267 2.029045 38.333332
9.406664 2.748919 2.068420 27.000000
7.701190 2.813664 2.035600 18.000000
9.276340 3.062469 2.061812 29.000000
9.314938 3.107698 2.072550 0.000000
6.645449 3.505189 2.007984 18.500000
7.356113 3.532356 2.025962 43.000000
7.451874 3.520894 2.046202 1.000000
6.611332 3.567282 2.007726 1.000000
6.822397 3.598564 2.061431 0.000000
6.907532 3.560664 2.076922 10.000000
7.950013 3.589612 2.003570 26.000000
8.730322 3.685980 2.000134 36.000000
9.218290 3.700123 2.096506 15.000000
6.517747 3.896158 2.029414 8.000000
7.794909 3.940918 2.006256 29.250000
9.145494 3.906545 2.098984 3.000000
7.350111 3.995769 2.077045 5.000000
8.179774 4.044457 2.095950 27.666666
6.556593 4.070007 2.062464 17.333334
7.728633 4.118036 2.011479 19.666666
7.127522 4.260667 2.061624 9.000000
7.388838 4.705396 2.012076 11.000000
7.239950 4.903657 2.008495 3.000000
8.545305 5.071813 2.097332 1.000000
9.140676 5.100194 2.017767 3.000000
6.511794 5.233746 2.074153 8.000000
7.324541 5.176470 2.060132 24.666666
8.999630 5.189658 2.002624 17.000000
9.037623 5.249470 2.014739 57.000000
7.003913 5.345218 2.023717 26.000000
9.139741 5.347255 2.041238 16.000000
7.350420 5.429104 2.098935 11.000000
9.051922 5.372500 2.029124 0.000000
9.105977 5.365972 2.037453 5.000000
9.216730 5.788371 2.098023 0.000000
9.079701 5.943853 2.091966 0.000000
9.051147 5.965864 2.089695 12.000000
6.733809 6.111896 2.088817 38.099998
7.354557 6.103703 2.017205 67.000000
6.649791 6.185909 2.086100 26.333334
8.659925 6.209023 2.054110 29.500000
6.637325 6.252511 2.094458 7.000000
8.748273 6.335021 2.082124 11.000000
7.568980 6.423510 2.095267 41.000000
9.364090 6.649759 2.006526 15.500000
8.069808 6.697306 2.021553 12.000000
9.326127 6.711380 2.007386 6.000000
8.978022 7.126103 2.002568 35.000000
9.298181 7.145063 2.048691 0.000000
9.158776 7.316591 2.048002 17.000000
6.925946 7.732658 2.001110 77.000000
7.146721 7.658513 2.019281 0.000000
6.848472 7.825693 2.004643 14.500000
7.013317 7.780881 2.019281 1.000000
6.791842 7.957316 2.016707 23.200001
7.680744 8.524240 2.004633 23.666666
7.587336 8.691401 2.015647 3.000000
5.916084 8.914545 2.062438 16.000000
8.372053 9.682013 2.006215 23.500000
8.660525 10.111548 2.086736 11.000000
8.659450 10.174819 2.094169 22.000000
8.287998 10.449357 2.090453 8.000000
8.062241 10.545014 2.080542 7.666667
8.260022 10.481551 2.091691 1.000000
6.307335 11.782876 2.094788 14.000000
8.278732 11.823255 2.004102 14.000000
8.306704 11.784235 2.001901 7.000000
8.488133 11.961642 2.036559 3.000000
8.728334 12.218620 2.084970 0.000000
7.248051 13.091965 2.077818 27.500000
6.561086 13.319181 2.061590 13.250000
8.284969 14.483951 2.020716 37.000000
7.437151 14.897079 2.016388 0.000000
8.453157 14.886295 2.073134 0.000000
7.254016 15.242578 2.044280 45.000000
7.640982 15.185798 2.058707 2.000000
7.406644 15.438110 2.073615 26.000000
6.388438 15.646582 2.046685 23.000000
6.408822 15.556673 2.037548 17.000000
7.362048 15.595663 2.088522 45.000000
6.066622 15.697541 2.038028 9.000000
6.445004 15.927930 2.080828 11.000000
8.652851 17.608183 2.028850 6.000000
7.983879 17.773232 2.014860 47.000000
8.130135 17.798653 2.023501 15.000000
8.354858 17.843819 2.037490 1.000000
7.952288 17.852745 2.021032 5.000000
7.270802 18.132395 2.020209 51.000000
7.250367 18.331089 2.038519 27.000000
5.737957 18.502022 2.003203 12.333333
5.841146 18.491982 2.005397 25.000000
5.725901 18.740274 2.026381 1.000000
6.679215 18.726458 2.056005 32.333332
5.613110 19.120842 2.060737 12.000000
5.713938 19.130430 2.064646 7.000000
6.233447 19.310644 2.098384 0.000000
5.586317 19.366932 2.084395 18.000000
5.923612 23.565477 2.086541 8.000000
7.297021 28.648245 2.021621 4.000000
-5.678270 -31.152781 2.165437 1.000000
-6.623607 -30.353153 2.124503 2.000000
10.467022 -28.899075 2.101852 1.000000
-2.869942 -24.995188 2.160461 9.000000
-4.638857 -24.573957 2.147457 8.000000
-7.858506 -24.344921 2.196737 6.000000
-7.690981 -24.348215 2.192630 8.000000
-7.350362 -24.192959 2.171241 24.500000
-7.454312 -24.125710 2.168332 12.000000
-7.654689 -23.970861 2.160804 30.000000
-7.180984 -24.042147 2.154644 3.000000
-7.966671 -23.658823 2.143692 4.000000
-7.849467 -23.555182 2.132057 22.000000
-7.690184 -23.569937 2.128977 30.000000
8.294324 -23.592428 2.147457 1.000000
-7.760449 -23.534309 2.127950 29.000000
9.049372 -23.150717 2.134452 4.000000
9.472252 -23.153263 2.148141 41.000000
9.781488 -22.877031 2.136506 14.000000
10.388125 -22.700100 2.143692 0.000000
10.493657 -22.189482 2.107759 7.000000
7.874778 -19.688461 2.192811 9.000000
7.430992 -19.551949 2.162982 21.000000
7.243326 -19.518276 2.152901 12.000000
7.358315 -19.545408 2.159690 26.000000
7.613486 -19.477339 2.162570 0.000000
7.993812 -19.539474 2.183143 24.000000
7.523521 -19.426956 2.154341 41.000000
7.411143 -19.316765 2.139529 29.000000
7.824748 -19.299011 2.153518 28.000000
8.410983 -19.007322 2.149404 20.000000
7.955299 -18.851000 2.115871 16.000000
8.446333 -18.926302 2.143232 10.000000
8.706157 -18.764320 2.139118 20.666666
8.806629 -18.774548 2.144467 5.000000
8.840130 -18.393068 2.110316 4.000000
9.030414 -18.295935 2.109905 25.000000
9.967272 -14.605996 2.141421 12.000000
10.243478 -14.612912 2.161137 2.000000
10.699906 -14.381202 2.170755 0.000000
-5.950356 -12.599456 2.183981 2.000000
-5.880569 -12.553674 2.172832 8.000000
-5.658515 -12.382102 2.133810 44.000000
8.976529 -12.391480 2.124579 39.000000
9.380922 -12.367868 2.155386 28.000000
-5.705185 -12.330175 2.129474 30.500000
6.805935 -12.058900 2.170354 6.000000
6.924776 -12.091340 2.183981 3.000000
6.943043 -12.006341 2.173864 17.333334
7.064932 -12.013024 2.184394 2.333333
-7.214092 -11.902506 2.181503 2.000000
-6.782978 -11.940202 2.152392 3.000000
-6.889038 -11.822168 2.144650 9.000000
7.146515 -11.781731 2.159825 9.000000
7.208215 -11.799688 2.167257 4.000000
-7.144387 -11.704387 2.149295 36.000000
-6.997436 -11.668571 2.132571 16.500000
6.941805 -11.663448 2.127410 3.000000
7.023834 -11.661946 2.133810 33.000000
-7.611917 -11.552851 2.168496 0.000000
10.074581 -11.605835 2.133931 12.000000
-7.085926 -11.527023 2.120803 50.000000
7.897178 -11.499060 2.186459 0.000000
7.967079 -11.484402 2.190794 23.000000
9.955261 -11.541425 2.116327 5.000000
10.104367 -11.529886 2.128705 11.500000
-5.232570 -11.402683 2.191879 6.000000
-7.460475 -11.169608 2.105318 19.000000
8.095035 -11.248853 2.172212 3.000000
-5.699494 -11.061509 2.173980 9.000000
-5.833487 -10.897669 2.159524 8.000000
-5.682756 -10.696717 2.116154 49.000000
-6.925607 -10.475386 2.193944 6.500000
-6.339035 -9.359198 2.179037 2.000000
-6.368048 -9.275938 2.168942 38.833336
-6.741830 -9.097717 2.182823 25.500000
8.489344 -9.065564 2.169850 54.000000
8.377608 -9.002768 2.148509 28.000000
7.107533 -8.861990 2.189889 30.000000
8.694710 -8.912859 2.175357 7.000000
-6.728152 -8.758800 2.129066 18.000000
7.171715 -8.752769 2.181309 1.000000
-6.812824 -8.698092 2.129823 0.000000
-6.747683 -8.699051 2.122252 52.500000
7.556361 -8.543915 2.198723 14.000000
8.621367 -8.510754 2.116498 28.000000
6.984478 -8.362238 2.100295 12.000000
9.338104 -8.413973 2.196009 59.000000
7.481398 -8.300189 2.154052 29.000000
9.317219 -8.289561 2.178799 48.333332
9.458179 -8.230618 2.190502 44.500000
9.486748 -8.125382 2.182241 15.000000
6.968310 -7.730960 2.196733 25.333334
8.229386 -7.703619 2.172980 17.000000
8.222392 -7.624681 2.161623 46.000000
8.885165 -7.095475 2.191908 32.000000
6.835179 -3.991882 2.115522 3.750000
7.547976 -3.996461 2.120417 4.000000
6.943439 -3.917217 2.130627 54.000000
7.268313 -3.863004 2.199823 18.000000
8.655251 -3.665025 2.158930 29.000000
8.441526 -3.616296 2.109382 16.666666
8.701753 -3.117393 2.123112 9.000000
9.094475 -2.860508 2.189823 33.000000
7.984864 -2.827677 2.103068 58.833332
9.754082 -2.455486 2.122939 18.000000
9.738958 -2.419170 2.117983 17.000000
8.166079 -2.307131 2.106786 34.571426
9.776403 -2.249773 2.117363 27.000000
9.880337 -2.175930 2.135330 29.500000
9.349007 -1.936080 2.192957 29.000000
9.023870 -1.648052 2.106994 66.000000
9.334675 -1.298605 2.164751 17.500000
8.112831 -1.245786 2.193627 2.000000
9.481672 -1.197749 2.195196 15.500000
7.783791 -1.120275 2.101709 40.000000
7.926386 -0.486187 2.122365 12.000000
9.149852 -0.460316 2.104308 37.000000
9.200679 -0.153157 2.113621 1.800000
9.324883 -0.073239 2.141917 1.000000
9.319931 -0.014631 2.140723 9.000000
9.269928 0.189317 2.129679 9.000000
8.263487 2.080245 2.115598 8.000000
7.544580 2.204760 2.100676 2.000000
7.631971 2.152438 2.119266 16.000000
7.649174 2.308453 2.135378 37.200001
9.069960 2.328738 2.150871 16.500000
7.676936 2.431418 2.152186 27.250000
8.113177 2.426342 2.102426 7.333333
7.674055 2.542452 2.160578 19.333334
7.469450 2.609915 2.114619 27.000000
8.065380 2.595498 2.103550 42.500000
8.076876 2.689023 2.113477 34.400002
9.198683 2.656803 2.199225 21.000000
8.007439 2.868654 2.111743 28.000000
7.269819 3.509646 2.157479 44.000000
7.948440 3.505385 2.156767 34.428570
7.080867 3.607940 2.123914 85.500000
7.923784 3.577729 2.158488 15.500000
9.292116 3.775094 2.116882 39.000000
7.565715 3.869906 2.109815 36.000000
7.806025 3.931039 2.169894 48.000000
9.345827 3.853980 2.133678 16.000000
7.696279 3.997897 2.153187 10.000000
7.966827 4.594090 2.112367 30.000000
7.959804 4.677208 2.120605 19.799999
8.125972 4.892234 2.178630 32.000000
7.260755 5.035066 2.193668 7.000000
8.139279 5.005360 2.194748 79.000000
9.079296 4.972829 2.184893 1.000000
8.002598 5.149389 2.185794 31.000000
8.882991 5.122397 2.164241 16.000000
9.030689 5.132231 2.192327 27.000000
6.835803 5.208451 2.133670 1.500000
6.566088 5.345636 2.102104 36.000000
6.595246 5.386517 2.114152 63.000000
8.440744 5.412622 2.116331 26.000000
8.350063 5.466209 2.106418 2.000000
8.528139 5.497169 2.141525 31.500000
6.659196 5.562158 2.154151 25.500000
7.212412 5.649158 2.104308 1.000000
7.346853 5.570504 2.117739 22.000000
9.218417 5.829894 2.102566 25.000000
7.222368 5.898813 2.141917 24.000000
7.218558 5.952636 2.149080 0.000000
9.241804 6.133268 2.138152 11.000000
7.034385 6.201640 2.154005 16.000000
8.033904 6.265420 2.150336 18.666668
6.786794 6.474454 2.154453 23.333334
7.795226 6.531619 2.146482 5.000000
8.775144 6.524128 2.107866 31.000000
7.734733 6.648264 2.152677 22.000000
8.798629 6.584611 2.118466 33.000000
6.980832 7.241498 2.122939 51.333332
7.091599 7.226575 2.136982 22.000000
8.142338 7.304440 2.108624 11.000000
7.169338 7.374968 2.170850 20.000000
8.434850 7.412805 2.164651 59.000000
-7.913762 7.988701 2.167680 15.600000
-7.866501 8.117622 2.179037 5.500000
9.458399 8.236554 2.191190 4.000000
7.585775 8.523068 2.199480 19.000000
6.022572 9.231520 2.124776 20.500000
8.053149 9.283706 2.147133 0.000000
7.642059 9.420293 2.119252 38.500000
7.926172 9.402636 2.148509 9.000000
7.431046 9.531898 2.111565 25.333334
7.558741 9.456503 2.115053 37.599998
7.866924 9.452264 2.148509 21.000000
7.392685 9.565017 2.112024 40.000000
9.472664 9.656286 2.120183 11.000000
6.652365 10.027795 2.102386 8.000000
6.797387 10.039699 2.118220 0.000000
5.909024 10.529736 2.109500 3.666667
6.002547 10.474258 2.109133 23.799999
6.123429 10.546494 2.130611 38.000000
5.824707 10.718852 2.131299 8.000000
7.699013 11.069180 2.113370 14.000000
7.776338 11.081022 2.121835 8.333333
7.490160 11.368057 2.133810 0.000000
7.220931 11.582877 2.139385 6.000000
6.133276 12.112926 2.128081 12.500000
6.338618 12.068190 2.136597 24.000000
6.288095 12.156913 2.145269 16.000000
6.158873 12.331223 2.160444 13.000000
6.161777 12.583261 2.196059 9.000000
8.065466 12.937572 2.116877 9.000000
7.971529 12.967677 2.113576 13.000000
7.679239 13.517905 2.158687 11.000000
7.588347 13.555518 2.157036 5.000000
8.990601 15.603606 2.180854 3.000000
8.915914 15.701226 2.186625 11.000000
8.162262 15.766782 2.150077 31.666666
7.229233 15.958961 2.121704 33.000000
6.540434 16.689186 2.170755 24.500000
8.243388 18.663790 2.109905 7.000000
8.601252 18.830162 2.140764 9.000000
8.427318 19.243576 2.172445 5.000000
8.823486 19.157206 2.181085 6.000000
8.170886 19.314976 2.168742 23.000000
8.256512 19.347763 2.175325 9.000000
7.537272 19.873350 2.197955 23.000000
6.127262 20.281675 2.190960 35.000000
7.356556 23.546787 2.118368 6.000000
6.935300 24.043661 2.148826 7.000000
7.642965 24.196205 2.178941 3.000000
6.915448 24.260796 2.166279 32.000000
6.722406 24.455547 2.177915 30.000000
5.697630 24.620327 2.170043 44.000000
-2.367269 -26.472555 2.282293 11.000000
-2.280665 -26.440157 2.278871 1.000000
-2.067925 -26.393650 2.273395 3.500000
-1.946190 -26.438906 2.276475 2.000000
-4.450291 -26.283804 2.289138 25.000000
-3.769117 -26.253212 2.277502 15.000000
-2.600183 -26.282497 2.267920 16.000000
-2.415518 -26.087994 2.249782 11.000000
-3.851816 -25.959179 2.253546 17.000000
-3.096060 -25.887535 2.238831 16.500000
-6.919549 -25.806086 2.294271 32.000000
-6.653126 -25.781399 2.286400 2.000000
-3.248687 -25.788494 2.231986 18.000000
-6.547505 -25.705622 2.277844 38.000000
-2.465173 -25.743065 2.220693 9.000000
-7.207626 -25.590506 2.282978 11.000000
-6.949419 -25.595760 2.277502 39.000000
-6.256634 -25.568762 2.260391 11.000000
-4.460977 -25.612707 2.232500 37.500000
-7.874323 -25.485067 2.290506 16.000000
-7.278154 -25.533241 2.279897 14.000000
-6.331174 -25.525770 2.258337 2.000000
-4.145402 -25.453743 2.214533 25.000000
-4.024256 -25.465075 2.213848 19.500000
-2.643016 -25.488998 2.200501 10.000000
-5.993259 -25.353352 2.237119 14.000000
-3.894465 -25.420771 2.208373 14.000000
-6.352071 -25.269985 2.237462 5.000000
-6.065006 -25.127275 2.219666 16.000000
9.120012 -24.224888 2.222746 10.000000
9.562286 -24.238060 2.237462 3.000000
9.176250 -24.143961 2.217955 2.000000
10.363348 -23.619566 2.214875 1.000000
7.600192 -20.779736 2.288062 23.000000
7.487448 -20.672577 2.273661 9.000000
7.400974 -20.636074 2.267078 24.000000
9.000882 -20.168921 2.283947 36.000000
8.935198 -19.853912 2.251443 16.000000
9.289879 -19.804771 2.262141 20.000000
9.262401 -19.271660 2.211121 19.000000
-6.592311 -17.218456 2.232790 1.000000
-6.808158 -17.134258 2.232790 5.000000
-6.659114 -17.110664 2.223533 23.000000
8.929296 -16.289438 2.249622 27.000000
9.023329 -16.278387 2.253950 16.500000
8.537531 -14.008682 2.277880 21.000000
8.611360 -13.997564 2.281914 4.000000
8.292090 -13.899078 2.247257 4.333333
8.280244 -13.846243 2.240105 6.000000
8.932453 -13.317991 2.226627 4.500000
8.965809 -13.187902 2.214249 7.500000
-6.441198 -12.998487 2.273793 6.000000
9.078626 -13.042992 2.206547 25.000000
9.124105 -13.020896 2.207648 3.000000
-4.953299 -12.089371 2.282519 26.000000
7.910868 -12.079869 2.263263 17.000000
-4.890322 -11.971684 2.259342 34.333332
-4.783184 -11.976833 2.253147 36.500000
-5.017477 -11.854935 2.249016 28.000000
-4.677553 -11.929645 2.238690 34.500000
-8.423333 -11.713680 2.261405 16.000000
-5.960687 -11.658237 2.287567 22.000000
8.561375 -11.740574 2.277509 17.000000
-8.426950 -11.564710 2.242823 16.000000
-5.326614 -11.417782 2.201172 10.500000
8.685162 -11.302377 2.234152 18.000000
8.847352 -11.291565 2.248398 18.000000
8.722576 -11.241010 2.230126 50.500000
-7.006515 -11.121901 2.296516 34.500000
6.983571 -11.089786 2.289632 26.000000
-6.289931 -10.991734 2.212531 3.000000
9.502499 -10.877580 2.263883 76.000000
-6.998022 -10.718545 2.236396 13.666667
7.260942 -10.644141 2.251081 112.000000
9.325280 -10.607272 2.213712 1.000000
-5.433504 -10.459939 2.272165 33.000000
7.002643 -10.476239 2.201516 0.000000
7.220733 -10.514091 2.228364 24.000000
7.941474 -10.492902 2.299040 9.000000
9.769541 -10.498369 2.247778 4.500000
-5.515253 -10.377051 2.265351 68.000000
-5.297349 -10.437134 2.256265 2.000000
-5.124175 -10.418289 2.238094 31.000000
-5.783938 -10.252279 2.269136 34.000000
-5.677567 -10.289142 2.265351 39.000000
-5.310554 -10.342178 2.241122 35.500000
-5.211537 -10.348484 2.233551 47.000000
-5.116488 -10.293550 2.215884 20.666666
-7.950614 -10.154385 2.253147 8.000000
-5.699224 -10.214223 2.254751 40.000000
7.829318 -10.188630 2.244886 8.000000
-5.767600 -10.148689 2.250208 38.000000
-5.512903 -10.140450 2.224970 35.333332
-5.427302 -10.134613 2.216137 27.000000
8.790109 -9.565872 2.269668 6.000000
9.012486 -9.503821 2.288255 4.000000
9.004213 -9.435551 2.278618 1.000000
7.316710 -9.281203 2.278222 7.000000
7.132239 -8.931203 2.203265 16.000000
7.886073 -8.860472 2.286550 52.000000
9.409722 -8.917016 2.264850 21.000000
7.919111 -8.841504 2.288064 6.000000
9.474729 -8.755282 2.253835 4.000000
-6.688262 -8.465751 2.277134 30.333334
9.375844 -8.501497 2.211154 50.000000
8.243086 -8.408738 2.269893 15.666667
9.673932 -8.445058 2.243509 31.000000
9.545637 -8.280361 2.207712 13.000000
9.659261 -8.220676 2.215973 2.000000
9.720449 -8.194134 2.221136 3.000000
8.542830 -8.098346 2.269136 52.000000
8.496758 -8.004138 2.250208 69.000000
9.046299 -7.750812 2.296393 29.500000
7.080193 -7.699754 2.207747 11.166667
7.331558 -7.637269 2.234455 0.000000
9.052814 -7.609684 2.279736 20.000000
8.891816 -7.262251 2.213108 3.000000
9.008362 -7.287020 2.233551 12.000000
8.902630 -7.155342 2.201751 56.000000
8.993990 -7.113183 2.210458 23.000000
9.044408 -7.084076 2.214622 12.000000
7.348774 -3.876208 2.220479 22.000000
8.074553 -3.784116 2.213908 0.000000
8.239897 -3.504423 2.223064 12.000000
7.950766 -3.249513 2.295528 31.000000
8.624362 -3.336514 2.295833 29.000000
9.890391 -3.299685 2.200588 22.000000
7.928403 -3.153492 2.280380 3.000000
8.656547 -3.162708 2.288123 59.000000
7.834009 -3.087478 2.250430 0.000000
10.227614 -3.140604 2.258135 7.000000
7.791660 -2.972204 2.228741 36.000000
7.960654 -2.950984 2.269020 44.500000
9.322579 -2.740213 2.231909 38.000000
9.427152 -2.722790 2.253848 38.000000
8.185560 -2.476044 2.285544 0.000000
8.177664 -2.409716 2.278462 37.142857
8.891644 -2.208696 2.274629 54.000000
9.381741 -1.989017 2.202807 0.000000
8.216859 -1.749766 2.245265 34.000000
9.478086 -1.792596 2.215642 34.000000
9.807961 -1.759429 2.288770 35.000000
8.841708 -1.272534 2.217763 9.000000
8.497596 -1.059937 2.288642 2.000000
9.635292 -0.987195 2.224746 44.500000
9.694030 -0.885656 2.235939 2.000000
9.711597 -0.887246 2.239969 2.500000
8.964057 -0.833149 2.235112 35.000000
9.230968 -0.478928 2.294870 37.000000
9.739266 -0.535984 2.240416 3.000000
8.936595 -0.266793 2.219691 16.000000
9.121955 -0.301012 2.265955 7.000000
9.005659 -0.226327 2.236558 9.000000
8.909245 -0.069975 2.211981 4.000000
9.017004 -0.141870 2.238968 22.500000
9.228647 -0.144960 2.291496 21.500000
9.012341 -0.028304 2.237522 17.500000
8.085979 2.116721 2.233905 6.000000
7.977448 2.222842 2.213249 28.000000
8.042830 2.159584 2.225643 26.000000
9.462433 2.334669 2.238625 3.500000
9.424866 2.372609 2.232357 21.000000
9.236975 2.636451 2.206389 0.000000
9.354753 2.606615 2.230566 17.000000
9.480664 2.583965 2.257071 25.600000
9.194034 2.686781 2.200121 8.000000
9.410306 2.653980 2.245789 13.000000
9.364996 2.768706 2.243103 1.000000
9.456370 2.844225 2.268175 16.000000
7.967199 2.910852 2.266954 35.000000
8.637532 2.972455 2.267882 59.000000
9.449567 3.021122 2.278741 10.400000
9.175220 3.109217 2.225194 18.000000
9.285468 3.087047 2.247580 9.666667
9.207520 3.265980 2.243998 0.000000
9.377048 3.359315 2.287875 14.000000
7.678754 3.746838 2.283478 26.000000
8.894070 3.700423 2.212657 25.000000
9.248137 3.678411 2.286084 33.000000
9.629980 4.006602 2.201414 4.000000
7.977952 4.112440 2.228366 20.000000
8.006988 4.191291 2.243787 1.000000
7.980829 4.686155 2.297761 6.500000
7.313204 5.020590 2.202342 30.000000
8.210570 4.978376 2.205494 0.000000
6.515277 5.147319 2.219102 3.333333
6.812181 5.131436 2.279347 13.500000
8.124966 5.120530 2.205941 5.000000
7.352625 5.215027 2.238004 23.625000
6.364839 5.316172 2.216348 2.000000
6.562764 5.286041 2.252151 9.666667
6.366806 5.394763 2.230290 15.750000
6.440536 5.402111 2.246643 43.333332
9.148328 5.560078 2.259512 2.666667
8.896769 5.665683 2.226195 43.000000
6.998960 5.845816 2.264027 0.000000
7.149836 5.858327 2.294870 33.000000
8.802574 5.881692 2.234455 0.000000
8.712476 5.987794 2.231289 10.833333
6.580278 6.121196 2.231257 2.000000
6.611627 6.054235 2.225715 17.500000
8.728811 6.114250 2.249324 27.000000
7.545990 6.383567 2.270264 28.666666
9.373684 6.632030 2.213487 1.000000
9.373755 6.923563 2.246422 2.000000
6.585521 7.290926 2.256683 39.333336
6.734299 7.262236 2.274891 53.000000
9.060274 7.329014 2.246422 6.000000
9.144483 7.349726 2.261565 13.000000
9.341246 7.411747 2.298665 23.000000
8.682936 7.582618 2.222194 27.000000
8.891087 7.863402 2.288064 19.000000
7.686791 8.492198 2.208061 11.333333
7.569045 8.576367 2.205032 27.000000
6.075276 9.000205 2.291866 8.500000
5.660285 9.075964 2.257585 1.000000
6.388206 9.985104 2.285036 30.000000
7.476753 10.294645 2.222857 34.500000
7.377226 12.214853 2.236629 56.000000
7.313313 12.326822 2.246540 4.000000
6.244681 12.601911 2.204421 47.000000
5.765161 12.936608 2.219906 17.000000
5.867577 12.946851 2.227958 0.666667
5.739120 13.043201 2.233532 17.500000
7.496623 14.110977 2.218650 6.000000
6.864400 14.330263 2.206272 12.750000
6.666630 14.408091 2.204347 9.000000
6.784898 14.425052 2.213424 18.000000
7.465541 14.377913 2.249457 8.000000
6.279539 17.723040 2.277033 3.000000
6.227772 17.753920 2.278475 36.000000
6.176445 17.876884 2.290498 18.500000
8.489171 20.424061 2.287239 17.000000
7.112086 20.480659 2.241980 4.000000
5.694431 20.589098 2.209064 3.500000
5.882102 20.635609 2.218939 49.000000
7.226439 20.600885 2.257615 22.000000
5.675498 20.903723 2.239923 35.000000
5.655140 21.090544 2.258026 6.000000
5.575846 21.329679 2.279833 0.000000
5.999539 21.301220 2.288473 3.000000
5.861468 24.970894 2.202555 33.000000
7.467266 25.000626 2.240542 0.000000
6.025030 25.076750 2.214647 27.000000
8.088664 25.057940 2.261075 14.000000
5.424937 25.240583 2.216928 10.000000
5.754978 25.228703 2.222062 13.000000
5.537343 25.375271 2.230275 5.000000
-5.189851 -27.258183 2.382736 21.000000
-4.970316 -27.268723 2.380169 27.000000
-4.267470 -27.282640 2.371271 4.000000
-5.050144 -27.221624 2.377431 46.000000
-4.170873 -27.225002 2.365111 13.000000
-3.645870 -27.215830 2.357925 68.000000
-6.714940 -27.073021 2.395227 44.000000
-3.540720 -27.076984 2.344920 34.000000
-3.410624 -27.073563 2.343209 19.500000
-3.278176 -27.049807 2.339787 20.000000
-6.798018 -27.044062 2.394543 40.000000
-5.527103 -26.949821 2.362374 23.000000
-5.355334 -26.972290 2.361347 47.000000
-3.190377 -27.036224 2.337733 18.000000
-2.966750 -26.959406 2.329007 21.500000
-5.606052 -26.905012 2.359978 48.000000
-7.809130 -26.757153 2.393516 2.000000
-7.466941 -26.833971 2.391805 4.000000
-7.362531 -26.784285 2.385303 17.000000
-5.826233 -26.699129 2.346631 11.000000
-5.746513 -26.736784 2.348342 38.000000
-5.223212 -26.746473 2.340129 27.000000
-2.219376 -26.709318 2.301458 4.000000
8.171529 -26.677889 2.395911 28.000000
-7.659869 -26.555626 2.373325 45.000000
-7.587328 -26.617887 2.376747 6.000000
-5.951561 -26.344679 2.319253 30.000000
8.380975 -26.182150 2.360662 1.000000
8.267398 -26.109566 2.351765 31.000000
8.814133 -26.115248 2.366822 13.000000
9.000109 -26.123409 2.372640 49.000000
-6.846519 -26.023376 2.310698 50.000000
8.857538 -25.974270 2.356556 15.000000
8.660077 -25.927345 2.347316 14.000000
7.714507 -25.762793 2.309329 4.000000
9.250978 -25.794422 2.353133 4.000000
9.433402 -25.791929 2.358267 23.000000
-10.230736 -25.747942 2.379143 1.000000
7.797717 -25.746058 2.310013 3.000000
-10.527670 -25.554707 2.373325 2.000000
-9.253022 -25.603075 2.337733 14.000000
10.354837 -25.539238 2.366480 1.000000
-9.340672 -25.346241 2.319596 8.000000
8.486487 -21.511173 2.391335 8.000000
9.161134 -21.241299 2.392158 20.000000
9.671839 -20.451696 2.339493 23.000000
10.318840 -20.472208 2.370763 20.000000
10.119270 -20.394072 2.354305 12.000000
10.597308 -20.383287 2.375700 6.000000
10.439716 -19.926966 2.326327 0.000000
10.761140 -19.927238 2.341962 3.000000
8.495085 -17.818316 2.390524 42.000000
8.563583 -17.675247 2.378501 17.000000
8.465012 -17.612587 2.366479 44.000000
8.859703 -17.305929 2.354457 42.000000
8.885838 -17.091375 2.332816 42.000000
8.952896 -14.349915 2.348479 5.000000
8.936933 -14.175173 2.326749 9.500000
8.932995 -13.973528 2.302819 17.000000
9.009512 -13.947929 2.305570 4.000000
10.112577 -13.867804 2.383137 71.000000
9.858620 -13.699529 2.343528 10.000000
10.048252 -13.689047 2.357831 10.000000
8.146841 -12.743788 2.370728 23.500000
-5.431632 -12.612111 2.399088 3.000000
-4.840308 -12.576584 2.354342 16.000000
-5.410000 -12.454037 2.372241 19.000000
7.694583 -12.507365 2.301666 0.000000
7.740083 -12.493209 2.303524 6.000000
-8.777225 -12.369033 2.377232 1.000000
-5.896350 -12.384199 2.396335 46.000000
-5.628828 -12.385519 2.376830 36.666668
-5.283681 -12.375443 2.350900 12.000000
8.939690 -12.381501 2.393646 18.500000
-5.546687 -12.341943 2.363980 34.000000
-8.726457 -12.215990 2.353075 6.000000
-5.135696 -12.241255 2.319234 62.000000
-8.668639 -11.975257 2.317151 8.000000
-5.817049 -11.926653 2.318316 23.333334
-5.732329 -11.942888 2.314415 36.000000
-7.199966 -11.657586 2.393811 30.000000
6.916127 -11.664766 2.369212 18.400000
9.741709 -11.622017 2.376922 11.500000
-7.455371 -11.524091 2.397941 21.000000
-7.357355 -11.477874 2.381878 50.000000
7.151921 -11.463269 2.360538 14.000000
6.868846 -11.364281 2.319922 4.000000
-7.056201 -11.318638 2.330248 30.000000
6.923443 -11.254037 2.308449 21.333334
-7.926935 -11.208167 2.398400 2.500000
-7.515599 -11.201296 2.356637 22.333334
-7.143517 -11.221718 2.324052 43.000000
9.729919 -11.208787 2.326442 2.000000
-7.537433 -11.132743 2.348835 34.000000
-7.450308 -10.929936 2.310973 19.000000
-5.653954 -10.801234 2.350150 45.000000
-5.642045 -10.696568 2.331221 27.000000
7.877602 -10.591744 2.306154 0.000000
7.910838 -10.566943 2.306154 53.000000
-5.961418 -10.413438 2.313050 3.000000
-7.538933 -9.470930 2.333493 55.500000
-7.496649 -9.509457 2.334250 0.000000
-6.333127 -9.414038 2.394708 21.000000
-6.318583 -9.266278 2.367173 43.000000
-6.386394 -9.240341 2.370753 0.000000
8.070902 -9.242075 2.365293 78.000000
-6.800475 -9.087076 2.395535 2.000000
-6.741611 -9.127542 2.394984 47.333332
