# This PCD file was generated using the MATLAB® pcwrite function
# from Computer Vision Toolbox®.
# .PCD v.7 - Point Cloud Data file format
VERSION .7
FIELDS x y z intensity
SIZE 4 4 4 4
TYPE F F F F
COUNT 1 1 1 1
WIDTH 1258
HEIGHT 1
VIEWPOINT 0 0 0 1 0 0 0
POINTS 1258
DATA ascii
-6.872199 5.241075 1.046666 51.500000
-6.745038 5.279287 1.037288 42.000000
8.338784 5.265455 1.019842 28.333334
-6.839622 5.346307 1.051330 51.799999
-6.742136 5.397685 1.045944 26.500000
8.306078 5.348806 1.021625 18.500000
-7.098184 5.413241 1.081050 48.000000
-6.851543 5.502881 1.064218 42.000000
-6.781723 5.481939 1.056043 2.000000
7.187847 5.458447 1.093012 54.625000
7.043885 5.592930 1.089225 1.000000
8.295275 5.603625 1.035203 46.000000
8.062695 5.633008 1.017099 47.500000
8.235904 5.620259 1.031088 45.000000
7.858145 5.808481 1.010516 59.500000
8.077806 5.892596 1.033969 46.000000
7.877243 5.938120 1.020117 48.000000
7.905170 6.037403 1.028620 0.000000
-6.413899 6.191667 1.079607 38.000000
-7.576172 6.303267 1.019156 35.500000
-6.407790 6.237891 1.082973 27.333334
-7.524240 6.340497 1.017511 36.500000
-7.561388 6.453559 1.028003 39.000000
-7.544482 6.563007 1.034071 44.500000
-7.239410 6.687356 1.019156 41.000000
-7.501414 6.778082 1.045489 41.000000
-7.773387 6.891823 1.074291 33.500000
-7.634099 6.832866 1.059478 33.000000
-7.507102 6.869410 1.052278 28.500000
-7.341747 6.889656 1.041169 34.500000
-7.418777 6.961797 1.052072 41.500000
-7.329310 6.986927 1.047135 1.000000
8.878513 8.084500 1.031121 19.000000
8.733116 8.336845 1.036768 37.000000
8.878242 8.343017 1.046179 35.000000
9.029305 8.387597 1.058271 5.333333
9.107332 8.371688 1.062264 6.000000
8.031186 8.531433 1.006139 59.000000
8.113899 8.538206 1.011444 54.500000
8.835597 8.595243 1.058499 7.000000
8.137750 8.699232 1.022908 62.000000
8.293076 8.617762 1.027015 58.500000
8.737646 8.689123 1.058157 26.500000
8.140551 8.812654 1.030209 57.000000
9.093340 8.901749 1.092722 4.000000
8.864100 8.954154 1.081942 21.500000
9.082364 8.947052 1.094775 3.000000
8.379629 9.186521 1.067739 39.000000
8.888588 9.111752 1.093064 15.666667
8.467144 9.370801 1.084508 10.500000
7.841195 13.221842 1.051199 17.000000
7.937947 13.289646 1.058567 16.000000
7.898834 13.414914 1.064571 25.000000
7.854470 13.731344 1.081764 25.000000
7.956989 13.759828 1.086949 7.000000
7.923615 13.953754 1.097319 4.000000
7.708998 19.590483 1.072746 26.000000
7.692399 19.729984 1.079056 6.000000
6.564443 19.918985 1.068675 0.000000
6.996871 19.957594 1.077631 5.000000
7.104935 19.963879 1.079768 16.500000
7.241653 20.048567 1.086180 40.000000
7.329243 20.093271 1.089844 24.000000
6.471665 20.205330 1.081092 5.666667
7.439275 20.197598 1.096765 6.000000
6.385778 20.228474 1.080888 4.000000
7.555783 29.300413 1.015953 7.000000
6.542311 30.005749 1.031121 5.000000
6.840806 30.012918 1.033537 12.000000
7.238030 30.010086 1.036490 14.000000
6.762230 31.978420 1.097428 4.000000
6.669067 32.034733 1.098636 7.000000
-0.961653 -32.787418 1.101321 47.000000
16.022287 -30.337620 1.151924 17.000000
16.795734 -30.325209 1.163914 42.333332
16.444290 -30.211134 1.154876 45.000000
16.606401 -30.282009 1.159574 44.000000
16.670124 -29.730120 1.144407 8.000000
16.742828 -29.210978 1.130447 5.000000
15.295908 -29.183905 1.106287 99.000000
15.513607 -28.932753 1.102260 13.000000
16.271898 -28.807398 1.110850 18.000000
16.360344 -28.752661 1.110716 34.000000
16.856676 -28.571331 1.113804 3.000000
17.317974 -28.326910 1.114743 8.000000
17.432320 -28.214350 1.113535 17.000000
-6.757955 -15.699342 1.168818 58.000000
-6.813601 -15.692676 1.169909 10.000000
-5.618090 -12.437053 1.171890 10.666667
-5.861804 -12.267399 1.167498 28.500000
-5.774133 -12.231846 1.161509 14.000000
-5.673626 -12.242508 1.158685 25.500000
-5.340397 -12.142685 1.139093 9.500000
-5.288663 -12.180532 1.140291 10.000000
-5.513997 -12.071435 1.139606 31.000000
-5.696556 -11.778641 1.123522 23.000000
8.019898 -11.402796 1.197100 19.500000
8.049390 -11.107548 1.177936 27.000000
8.339927 -11.136049 1.194705 9.000000
8.025529 -11.001712 1.169380 53.000000
-3.668752 -10.838898 1.183324 7.500000
7.951547 -10.828678 1.153638 43.000000
-3.898743 -10.735032 1.181061 16.500000
-8.506492 -10.659713 1.171091 23.000000
-3.680690 -10.599277 1.160283 1.000000
8.041160 -10.597675 1.142344 15.000000
8.192257 -10.622564 1.151927 1.500000
-3.741036 -10.537572 1.156333 32.400002
-3.438295 -10.538163 1.146294 1.000000
8.067155 -10.562860 1.141318 1.000000
8.252737 -10.563004 1.151071 7.000000
8.611871 -10.095350 1.139470 49.799999
-3.929966 -10.027968 1.113790 7.500000
8.877335 -10.030463 1.150215 34.250000
-3.744398 -9.967087 1.101035 10.000000
8.942859 -9.977485 1.150558 32.000000
9.008924 -9.924992 1.151014 28.333334
8.569489 -9.868359 1.122324 53.500000
9.225925 -9.817736 1.156889 2.500000
8.502828 -9.791736 1.113598 65.000000
9.177546 -9.613827 1.141318 0.000000
-6.520844 -9.441919 1.186616 39.000000
9.222832 -9.451010 1.133960 34.000000
-10.327038 -9.314859 1.194248 19.000000
-10.207605 -9.383087 1.190598 7.000000
-6.719836 -9.327497 1.188810 25.666666
-6.558188 -9.307062 1.177399 53.400002
9.062841 -9.113528 1.103673 24.000000
9.173428 -9.138268 1.111886 15.000000
9.290165 -9.167675 1.120784 5.500000
-10.198985 -8.969496 1.166300 12.000000
-10.164095 -8.882339 1.159113 11.000000
-7.133508 -8.824883 1.173449 9.000000
9.293739 -8.831725 1.100935 10.000000
-10.132315 -8.715162 1.147649 9.000000
-10.044502 -8.722323 1.142344 4.000000
-7.175797 -8.708054 1.166866 50.599998
-10.420364 -8.599051 1.160140 10.000000
-7.285779 -8.673628 1.171392 15.000000
-10.344242 -8.591008 1.154664 19.000000
-10.259104 -8.574900 1.148162 12.000000
-10.141063 -8.585133 1.140975 8.600000
8.173541 -7.645991 1.157403 7.000000
9.050404 -6.969702 1.181267 1.500000
8.678975 -6.851821 1.143482 28.166666
8.640882 -6.532628 1.120190 21.666666
8.680580 -6.281384 1.108029 10.000000
8.768394 -6.137416 1.106795 20.000000
7.852314 -5.118959 1.135150 15.500000
7.966060 -5.097113 1.145297 33.400002
8.030083 -5.092119 1.151500 40.500000
8.119885 -4.989530 1.154145 4.000000
8.381562 -4.829351 1.171458 15.000000
8.522240 -4.839339 1.186846 6.000000
8.025745 -4.490953 1.113750 18.000000
8.129180 -4.481860 1.124170 19.333334
8.267734 -4.457240 1.137474 16.666666
8.575039 -4.416436 1.168091 3.000000
8.322257 -4.385972 1.139238 0.000000
8.692462 -3.839270 1.150779 27.000000
8.612143 -3.755463 1.137795 33.000000
9.123134 -3.791991 1.196464 5.000000
8.543974 -3.646103 1.124971 19.333334
8.962436 -3.692219 1.173862 2.000000
8.665176 -3.537958 1.133467 1.000000
6.834742 -3.320231 1.190990 29.333332
7.340076 -3.326517 1.118952 102.000000
7.738787 -3.275360 1.166813 37.000000
7.417781 -3.111876 1.116935 72.333336
6.862724 -3.006813 1.174370 5.000000
7.340228 -3.016435 1.101898 49.000000
6.843140 -2.972642 1.169415 1.000000
7.576330 -2.970677 1.129955 69.500000
7.623519 -2.947787 1.134906 71.000000
7.777036 -2.979097 1.156361 35.000000
7.837168 -2.903746 1.160487 43.500000
7.527058 -2.856255 1.117852 37.000000
7.684865 -2.847025 1.137932 48.000000
8.660151 -2.825555 1.103171 6.000000
7.103170 -2.644468 1.187996 21.000000
7.478341 -2.690914 1.103549 106.500000
7.105250 -2.575709 1.184590 70.750000
8.242486 -2.534174 1.197345 44.500000
9.227799 -2.536561 1.158954 5.000000
7.665134 -2.396232 1.115101 63.000000
7.918719 -2.393818 1.148659 45.000000
9.427895 -2.401388 1.178190 4.000000
7.863446 -2.336703 1.139032 26.500000
8.149924 -2.352355 1.177815 44.000000
7.872807 -2.112556 1.131825 11.400000
7.457329 -1.239902 1.184899 24.000000
8.392500 -0.885050 1.171764 62.000000
8.185447 -0.750707 1.141324 11.666667
8.442414 -0.617111 1.175370 46.000000
8.452126 -0.530260 1.175890 41.500000
8.507937 -0.493544 1.183317 2.000000
8.195419 -0.359250 1.139032 36.000000
8.218806 -0.321481 1.142057 0.000000
-7.187673 0.349021 1.127915 0.000000
-7.124539 0.435775 1.118801 2.571429
9.123260 0.505277 1.106537 14.000000
-7.160868 0.528373 1.125438 1.000000
9.157306 0.536025 1.110865 8.000000
8.429741 0.651593 1.173965 2.000000
8.380513 0.727302 1.168023 4.200000
8.410721 0.823240 1.173414 2.500000
7.264205 1.830060 1.174163 10.666667
8.388851 1.939824 1.195542 30.000000
9.612905 2.263569 1.195983 17.000000
9.592356 2.372598 1.196670 16.857143
6.998016 2.458900 1.162601 19.000000
6.683668 2.574996 1.122650 26.000000
6.792630 2.572141 1.138445 21.333334
7.117939 2.534601 1.184280 68.666664
9.551986 2.600589 1.198869 48.000000
6.637440 2.665543 1.121102 2.000000
9.547519 2.670408 1.200600 53.599998
6.942008 2.712161 1.168176 57.000000
9.368875 2.821462 1.184923 46.500000
9.473137 2.810652 1.196656 36.200001
7.584744 2.957828 1.130395 33.599998
6.893037 3.166075 1.188926 13.000000
6.818471 3.249254 1.183867 7.000000
7.612731 3.367142 1.155810 0.000000
7.810606 3.308972 1.177815 18.000000
6.746985 3.479355 1.189855 19.666666
7.271340 3.409234 1.115101 35.750000
7.339383 3.422470 1.124453 17.000000
7.578818 3.423567 1.154710 10.000000
7.924346 3.430816 1.198995 2.500000
7.446070 3.577152 1.147009 3.000000
6.526765 3.643206 1.171582 12.500000
6.623607 3.638267 1.184487 2.000000
6.720922 3.655241 1.199146 2.000000
7.568729 3.884413 1.181254 18.625000
7.582544 4.016489 1.191431 33.750000
7.986373 4.794934 1.128097 12.000000
7.966024 4.868209 1.130582 18.000000
6.988209 5.069030 1.198720 30.200001
8.292257 5.103425 1.179152 50.000000
6.882330 5.169243 1.195144 12.000000
8.355766 5.196983 1.191655 35.000000
-6.824029 5.291349 1.198995 54.000000
-6.542381 5.246735 1.164455 29.571428
-6.469479 5.281997 1.159661 14.500000
7.527732 5.253389 1.111666 24.333334
-7.260748 5.501228 1.103171 53.000000
7.773756 5.485814 1.152222 10.000000
8.209287 5.439803 1.192617 34.000000
7.905398 5.615998 1.174343 54.000000
7.127519 5.757380 1.109583 20.666668
-7.572536 5.812713 1.156069 0.000000
-7.211088 5.904310 1.128658 4.000000
-7.156047 5.953753 1.127336 51.000000
-7.635448 6.093115 1.182999 32.000000
-7.092556 6.091973 1.132265 38.500000
-7.159121 6.116827 1.140360 42.333332
7.739037 6.135061 1.195983 48.250000
-6.636289 6.286607 1.107018 9.000000
8.845348 6.283739 1.122018 1.000000
-7.211072 6.312912 1.160637 19.500000
8.764974 6.309872 1.116834 5.200000
-7.130603 6.436306 1.163282 18.333334
-7.308458 6.541403 1.187808 8.000000
-7.159680 6.582724 1.177829 31.250000
-6.406924 6.753826 1.127376 45.000000
-6.427223 6.882890 1.140440 17.500000
-6.646396 6.918703 1.161840 6.000000
-6.467009 7.005801 1.154626 20.666666
-6.059145 6.955563 1.117117 6.000000
-6.267338 7.036781 1.141161 2.000000
-6.540062 7.159772 1.174343 6.000000
-6.463030 7.165339 1.168572 0.000000
8.753029 7.339601 1.181267 12.500000
-7.243023 8.170869 1.129150 48.333336
-7.126830 8.365115 1.136419 10.000000
-7.004758 8.380526 1.129507 57.400002
-6.947710 8.473347 1.133128 40.000000
7.949804 8.444983 1.199371 56.000000
8.383165 13.804114 1.104414 18.000000
8.337601 13.859655 1.106051 0.000000
9.163998 13.837916 1.134979 14.800000
9.118382 13.939658 1.139072 0.000000
7.935170 14.180875 1.111236 13.000000
8.063945 14.305360 1.122971 45.000000
7.550165 14.547097 1.120788 49.000000
7.664299 14.542886 1.124154 5.333333
8.465817 14.516510 1.149169 56.000000
8.583224 14.577242 1.156810 4.000000
9.216999 14.790460 1.191741 0.000000
9.544302 14.725008 1.199973 10.500000
7.424122 14.870981 1.136616 52.000000
7.509433 14.866075 1.138936 58.500000
7.609348 14.889189 1.143438 45.000000
8.004288 14.847034 1.153445 55.333332
8.109612 14.818648 1.155173 47.000000
7.414565 14.969329 1.142347 41.000000
8.571692 14.985256 1.180552 24.500000
8.639124 15.103093 1.189831 17.000000
6.837900 15.481633 1.157356 14.000000
6.950521 15.472878 1.159949 1.000000
7.438197 15.503876 1.175913 6.000000
7.516388 15.479404 1.176732 39.000000
6.530990 15.574644 1.154900 11.000000
7.008622 15.602175 1.169636 13.000000
7.258846 15.566616 1.174549 29.000000
7.350857 15.571957 1.177550 5.000000
7.654386 15.576348 1.186829 18.000000
6.524916 15.698267 1.162541 12.000000
6.786556 15.630396 1.165270 6.666667
8.208143 20.113443 1.106943 19.000000
8.183857 20.235418 1.112236 36.000000
7.655864 20.585997 1.119157 55.000000
7.861382 20.640936 1.125467 47.500000
7.975839 20.648407 1.127910 21.000000
7.814582 20.812416 1.132795 62.000000
7.691209 22.160839 1.195287 14.000000
6.491363 32.193569 1.102663 4.000000
6.591667 32.169102 1.102529 10.000000
6.315752 32.371052 1.107361 10.000000
6.415862 32.343208 1.107092 6.000000
7.646359 32.600422 1.124273 3.000000
7.580832 32.783974 1.129776 2.000000
9.179317 -37.371498 1.292055 2.000000
9.307303 -37.385147 1.293531 3.000000
10.047267 -36.878300 1.283330 23.000000
9.776588 -36.334480 1.263331 12.000000
9.597713 -36.121601 1.254874 5.000000
10.424140 -36.020863 1.259035 17.000000
10.217487 -35.726723 1.247626 5.000000
9.946578 -35.624649 1.241855 17.000000
10.084540 -35.685551 1.245076 3.000000
10.619725 -35.442329 1.242257 10.000000
10.431117 -35.214867 1.233130 5.000000
10.675363 -35.225147 1.235814 24.000000
11.400209 -35.211647 1.242660 5.000000
10.821781 -35.111378 1.233600 7.500000
11.458547 -35.016083 1.237023 3.000000
19.662060 -33.326332 1.299169 48.000000
19.721733 -33.188786 1.296216 58.000000
19.778681 -33.047768 1.293129 40.000000
19.855579 -32.940956 1.291384 4.000000
19.892578 -32.769066 1.287089 20.000000
19.945383 -32.624546 1.283867 43.000000
8.320055 -23.891947 1.289127 15.000000
8.308909 -23.620739 1.275896 9.000000
8.746750 -23.670925 1.285870 27.000000
8.818279 -23.635843 1.285463 4.000000
8.353652 -23.511703 1.271417 26.000000
9.483965 -23.592102 1.295641 2.000000
9.564042 -23.577000 1.296455 21.000000
9.846590 -23.527504 1.299610 24.000000
10.059594 -23.313309 1.293809 13.000000
10.179020 -23.387815 1.299712 21.000000
10.352379 -22.992149 1.284852 1.000000
10.334204 -22.385780 1.256354 13.000000
8.864689 -15.249417 1.206205 17.000000
8.912550 -15.221495 1.206205 17.000000
-5.844125 -13.936656 1.297714 40.000000
-5.508497 -13.927057 1.286078 28.500000
-5.372911 -13.968103 1.285137 15.500000
-5.964181 -13.855334 1.295318 1.000000
-5.786518 -13.839728 1.288132 31.333334
-5.566649 -13.882470 1.284367 26.000000
-5.629269 -13.787230 1.278806 33.750000
-5.767332 -13.514780 1.261781 51.000000
-7.120186 -12.771484 1.255620 10.000000
-6.960368 -12.718644 1.245012 12.000000
7.828470 -12.198776 1.244669 17.000000
7.868836 -12.011111 1.233034 13.000000
8.361391 -11.614705 1.228927 4.000000
8.036728 -11.541832 1.207709 16.000000
-9.447136 -11.304320 1.265066 2.600000
-4.512057 -11.303829 1.258619 3.500000
-9.888063 -11.259309 1.286763 1.000000
-4.760324 -11.203703 1.258825 13.500000
-4.576253 -11.258668 1.256768 0.000000
-9.875573 -11.103631 1.276040 11.000000
-10.286534 -11.065756 1.297372 3.000000
-9.930080 -11.024602 1.274101 19.000000
-9.457543 -11.081165 1.251001 24.500000
-9.311308 -11.014545 1.238509 5.000000
-8.757705 -11.045513 1.210447 3.000000
-9.396494 -10.905165 1.236114 28.000000
10.042811 -10.959852 1.276496 12.500000
-10.298280 -10.802929 1.281630 4.000000
-10.218513 -10.820902 1.278036 1.500000
10.072732 -10.888993 1.273758 2.000000
-10.322845 -10.726948 1.278378 6.000000
8.988948 -10.754478 1.203602 20.000000
9.022691 -10.726184 1.203602 24.000000
-9.950979 -10.637568 1.250829 16.000000
-10.294267 -10.333869 1.252540 8.000000
-10.304188 -10.214757 1.245924 9.000000
-3.022651 -10.237097 1.292643 2.000000
9.704089 -10.229553 1.210789 9.000000
-10.397677 -10.178604 1.249460 0.000000
-10.366870 -10.021664 1.238167 1.000000
9.937130 -10.087416 1.215922 18.000000
-10.344872 -9.906549 1.229954 5.500000
-10.457428 -9.878807 1.235315 3.000000
-6.718305 -9.843220 1.232389 41.750000
-3.072734 -9.727704 1.235416 2.000000
-10.347966 -9.673270 1.216379 20.000000
-10.609672 -9.449552 1.220029 2.000000
-10.487942 -9.459972 1.212842 4.000000
-7.182495 -9.438690 1.226526 37.333332
-7.240669 -9.341259 1.222206 52.750000
-8.401132 -9.268408 1.293592 13.000000
-3.726871 -8.416426 1.278076 17.000000
-3.745199 -8.333447 1.268586 4.000000
-3.994825 -8.256335 1.273537 2.000000
-3.864637 -8.227651 1.262168 24.333334
-3.891719 -8.108111 1.248781 38.000000
-3.441085 -8.112745 1.223613 6.500000
-3.285532 -8.152513 1.220450 10.000000
-3.818537 -8.020135 1.233378 30.000000
-3.766389 -8.040382 1.232828 22.000000
7.495784 -6.946064 1.237581 27.500000
8.034420 -6.857194 1.279178 15.000000
8.092971 -6.783766 1.278857 20.000000
8.133924 -6.651360 1.272445 49.000000
8.570011 -6.242490 1.283987 0.000000
8.663573 -6.269077 1.295047 45.000000
8.424317 -6.190536 1.266033 34.333332
8.689038 -6.184103 1.291561 43.250000
8.820932 -6.010468 1.292643 29.000000
8.563085 -5.967072 1.263950 44.333332
8.630605 -5.940484 1.268839 57.500000
9.217059 -5.272254 1.285910 1.000000
7.827147 -5.028794 1.291783 26.333334
8.174320 -4.542316 1.298476 11.000000
8.021611 -3.706527 1.226960 34.000000
8.045814 -3.547037 1.220931 44.900002
8.395235 -3.398714 1.257583 32.000000
8.098430 -3.308206 1.214674 36.000000
8.409308 -3.358374 1.257308 63.500000
7.083714 -3.139022 1.214424 81.000000
8.530408 -3.004019 1.255750 46.666668
7.224315 -2.854384 1.217521 13.333333
8.304648 -2.885485 1.220725 33.000000
7.238368 -2.694623 1.210604 96.500000
6.938637 -2.533672 1.290528 10.666667
8.572568 -2.445195 1.237779 21.000000
7.962556 -2.298036 1.224552 64.000000
7.457440 -2.247935 1.220824 28.500000
8.847192 -1.300129 1.241630 1.000000
8.758814 -1.188974 1.227327 21.000000
8.716377 -1.085682 1.219625 1.000000
8.144859 -0.820129 1.283073 40.000000
8.242908 -0.869278 1.209924 20.799999
8.038866 -0.377700 1.261395 23.000000
8.139792 -0.331225 1.276879 21.000000
8.220957 -0.144921 1.288751 37.666668
8.249319 -0.034483 1.293018 33.777779
8.290510 0.066561 1.299487 0.000000
-7.178680 0.348584 1.255649 1.000000
8.989080 0.326493 1.248965 10.000000
-7.119654 0.435459 1.246208 2.857143
8.982842 0.467668 1.248965 11.666667
-7.171583 0.529164 1.256338 1.000000
8.930569 1.358639 1.254283 3.000000
8.736830 1.489632 1.230627 13.000000
8.856756 1.432873 1.245756 31.000000
8.974969 1.408652 1.261434 11.000000
8.713664 1.601035 1.230156 22.714285
8.781828 1.856211 1.246306 12.500000
8.824914 1.814705 1.250982 4.000000
8.441069 2.084229 1.207247 8.500000
6.855247 2.145677 1.254961 12.000000
9.707449 2.189449 1.205120 3.000000
6.909178 2.210255 1.267352 30.333334
6.834645 2.341352 1.262189 21.000000
9.598892 2.532533 1.202235 14.500000
6.620139 2.610411 1.243258 22.000000
6.631602 2.760469 1.254961 6.000000
9.619211 2.765517 1.212093 28.000000
6.815081 2.811757 1.288004 16.000000
7.337844 2.893412 1.236309 49.000000
8.438079 2.895569 1.238696 19.333334
7.372778 2.933985 1.243742 38.000000
8.379299 2.950177 1.233488 57.400002
8.383766 3.064705 1.239429 46.000000
6.462862 3.180123 1.258403 10.000000
6.490997 3.270574 1.269876 13.333333
8.607561 3.269706 1.278488 18.000000
6.468290 3.361442 1.273548 11.000000
8.656436 3.319428 1.287290 15.000000
6.579871 3.445724 1.297642 40.000000
6.902613 3.504926 1.213392 35.000000
7.056301 3.430947 1.229805 15.500000
7.254262 3.583750 1.268208 13.500000
7.323302 3.680007 1.284622 46.000000
9.525153 4.054952 1.253690 21.500000
9.756499 4.099252 1.281582 12.000000
7.592668 4.191407 1.204221 37.400002
7.627126 4.132616 1.204497 46.000000
9.535116 4.112389 1.257538 15.000000
9.641125 4.212203 1.274128 15.000000
7.577559 4.387244 1.215774 40.000000
7.676708 4.311732 1.222559 31.666666
7.580739 4.436928 1.219625 0.000000
8.022137 4.527623 1.279038 29.000000
7.887590 4.649855 1.271337 0.000000
8.121534 4.617424 1.297192 2.000000
-7.438839 4.975337 1.242620 27.200001
7.290283 4.984278 1.226226 23.333334
7.310797 4.942358 1.225309 24.333334
-7.414533 5.020015 1.243280 54.000000
7.036134 5.063538 1.203671 42.000000
9.112418 5.069824 1.262827 0.000000
7.042546 5.169480 1.213023 136.000000
7.282228 5.125638 1.236495 14.000000
-7.035868 5.402716 1.231728 24.000000
-6.801544 5.342698 1.200921 61.000000
-7.404190 5.466820 1.277938 34.000000
-7.300528 5.443608 1.264460 50.500000
-7.258043 5.501188 1.264552 50.666668
6.909508 5.448972 1.221825 21.000000
6.760511 5.576900 1.216874 23.000000
6.901164 5.528504 1.227798 30.714285
8.263546 5.563477 1.206403 52.000000
6.771431 5.621546 1.222009 20.500000
6.909084 5.626884 1.237229 33.000000
8.195560 5.630547 1.204158 30.000000
8.275529 5.647300 1.213295 49.000000
-8.145061 5.758538 1.208005 12.500000
8.074658 5.805273 1.204351 34.799999
-6.960937 5.905361 1.267486 34.500000
-7.094847 5.961727 1.286740 48.000000
-7.087449 6.089728 1.297467 55.000000
-7.075150 6.137336 1.300493 40.000000
-6.417667 6.158625 1.235028 50.000000
-6.328804 6.130903 1.223476 29.000000
-6.158513 6.117795 1.205322 32.500000
7.841470 6.146287 1.206563 64.000000
8.043869 6.183438 1.228684 17.000000
-6.525870 6.223194 1.252082 41.000000
-6.401829 6.260386 1.243280 35.000000
-6.314357 6.213771 1.230077 42.000000
-6.816934 6.359196 1.294442 43.000000
-6.712185 6.360726 1.283989 52.000000
8.535425 6.329757 1.286872 5.500000
8.261766 6.433926 1.268117 40.000000
-7.435791 6.592466 1.203437 5.500000
-6.448219 6.589302 1.280138 27.333334
-6.499365 6.683444 1.294442 79.000000
-6.067553 6.686884 1.253733 31.000000
-6.068969 6.868523 1.272657 32.799999
-5.990892 6.879584 1.266660 29.500000
-7.330257 7.031923 1.230127 18.000000
-7.209707 7.047953 1.220990 54.000000
-7.733559 7.188984 1.278697 47.000000
-7.664862 7.192706 1.272926 48.500000
-7.199878 7.149780 1.228804 36.750000
-7.714470 7.307976 1.286872 12.000000
-7.106937 7.351738 1.238302 12.000000
-7.334130 7.445121 1.265617 20.400000
-7.237985 7.440384 1.257057 34.000000
9.094685 7.998317 1.252447 7.000000
9.163673 7.944866 1.254196 4.500000
8.992414 8.110970 1.252310 0.000000
9.300726 8.389119 1.295238 8.000000
7.974027 8.491998 1.204637 35.200001
7.889697 8.576987 1.205131 10.666667
8.170176 8.570539 1.224469 64.000000
8.294821 8.592424 1.235029 59.333332
8.422839 8.589104 1.244013 11.000000
7.964551 8.854795 1.231601 37.555557
7.987796 9.066820 1.249567 30.000000
9.623720 15.606472 1.253825 9.000000
9.756915 15.584008 1.257327 4.666667
9.021258 16.362225 1.277704 14.000000
9.121060 16.421017 1.284526 1.000000
8.681476 16.599073 1.280978 18.000000
8.707531 16.522293 1.277158 28.000000
8.809930 16.590017 1.284526 3.000000
7.696832 22.404020 1.207093 8.000000
7.825552 22.321289 1.205261 24.000000
7.498860 23.244658 1.244548 36.000000
6.636919 23.579994 1.248212 22.000000
6.788534 23.550566 1.248890 16.666666
6.498155 23.655897 1.250044 2.000000
6.967751 23.613508 1.254522 1.000000
7.864460 23.696630 1.272232 44.666668
7.282154 23.848625 1.270603 16.000000
7.215078 24.033770 1.278644 19.500000
7.467832 24.184425 1.289738 31.000000
7.097434 35.199348 1.205614 29.000000
7.793318 35.211548 1.210849 16.000000
7.508259 35.506374 1.218499 45.000000
9.494144 -37.630939 1.303061 12.000000
9.607368 -37.581558 1.302390 20.000000
18.152048 -37.449173 1.397288 13.000000
18.215197 -37.280617 1.393127 23.000000
18.275707 -37.108440 1.388832 16.000000
18.335316 -36.936253 1.384536 20.000000
18.395815 -36.767639 1.380375 24.000000
18.442833 -36.574017 1.375275 13.000000
18.514168 -36.430367 1.372053 32.000000
18.572033 -36.261719 1.367892 31.000000
18.630856 -36.096619 1.363866 54.000000
18.705427 -35.963428 1.361047 3.000000
18.807796 -35.611881 1.352188 20.000000
18.872631 -35.464386 1.348832 12.000000
18.917835 -35.281612 1.344134 31.000000
18.977278 -35.127037 1.340510 57.000000
19.205265 -34.505047 1.325880 32.000000
19.268600 -34.364338 1.322793 44.000000
19.335167 -34.230537 1.319974 23.000000
19.375393 -34.051491 1.315410 15.000000
19.438540 -33.914146 1.312457 53.000000
19.497017 -33.769821 1.309236 59.000000
19.572866 -33.656563 1.307222 2.000000
8.564927 -25.627592 1.376860 1.000000
9.037085 -25.435253 1.375435 10.000000
9.326609 -25.362411 1.376962 18.500000
9.650997 -25.379742 1.383577 33.000000
10.007291 -25.353075 1.388870 51.000000
8.688904 -25.205828 1.358540 9.000000
8.490741 -25.142593 1.352230 13.000000
8.570977 -25.119574 1.352433 31.000000
7.975354 -24.900023 1.332281 7.000000
9.053804 -24.983612 1.354062 44.000000
9.751540 -24.934217 1.364239 16.000000
10.314318 -24.974913 1.376860 49.000000
10.762310 -24.941866 1.384188 33.000000
8.033853 -24.814034 1.329024 1.000000
9.606765 -24.793381 1.354876 11.000000
10.926842 -24.892040 1.385206 26.000000
9.866615 -24.768543 1.358540 60.000000
8.855191 -24.677284 1.335945 12.000000
11.562506 -24.638521 1.386834 7.000000
9.226217 -24.494028 1.333706 28.000000
11.160164 -24.375912 1.366071 30.000000
11.515136 -24.338467 1.371975 36.000000
11.818933 -24.383434 1.380728 37.000000
9.924074 -24.245588 1.334927 59.000000
11.894242 -24.151009 1.371771 3.000000
12.040001 -24.159006 1.375435 15.000000
10.704465 -24.042513 1.341034 47.000000
10.928283 -24.068932 1.346937 16.000000
11.584738 -24.092821 1.362204 38.000000
10.105718 -23.623934 1.309279 35.000000
9.972184 -23.515810 1.301544 14.000000
-6.918210 -14.078264 1.346994 10.000000
-6.192721 -14.020888 1.316194 2.000000
-6.234569 -13.957221 1.312658 10.000000
-6.896535 -13.706269 1.317563 19.000000
-6.588698 -13.733214 1.307981 3.000000
-6.742239 -13.683596 1.309920 21.000000
-7.005684 -13.549913 1.309863 8.500000
-6.905888 -13.565281 1.307125 8.500000
-6.773336 -13.567413 1.302163 47.000000
-5.655961 -12.179155 1.388637 10.000000
-5.437493 -12.003591 1.362715 1.000000
-5.640636 -11.949019 1.366419 10.000000
-5.586301 -11.833946 1.353252 24.000000
7.657470 -10.997165 1.385757 55.000000
7.536701 -10.933184 1.373207 15.000000
7.396496 -10.838792 1.356955 0.000000
-8.061401 -10.639770 1.380408 14.000000
-3.907916 -10.604268 1.368624 12.000000
-3.505622 -10.631135 1.355640 12.000000
-3.365774 -10.655415 1.353235 0.000000
-3.933717 -10.538216 1.362212 11.666667
-3.647112 -10.556110 1.352514 1.000000
-8.409411 -10.492955 1.390557 18.666666
-3.965438 -10.455580 1.354197 25.000000
-3.336501 -10.467405 1.330473 10.500000
7.072197 -10.433819 1.303467 63.000000
-3.455387 -10.315144 1.317409 25.000000
-3.352729 -10.275908 1.308993 3.000000
8.562563 -10.200958 1.377253 53.000000
-3.933714 -10.178585 1.321496 22.000000
8.601450 -10.095925 1.371562 55.500000
-3.951040 -10.035431 1.306108 0.000000
-3.854862 -10.068514 1.305627 6.000000
8.489234 -9.964241 1.353664 45.000000
8.473959 -9.758656 1.336520 50.666668
9.192005 -9.750915 1.385757 0.666667
9.250376 -9.690119 1.385345 10.000000
-8.467627 -9.550756 1.319925 10.000000
-6.455438 -9.473970 1.388341 25.000000
-6.650665 -9.313572 1.385936 25.000000
-6.553134 -9.299943 1.377761 58.666668
-6.454616 -9.346076 1.375517 56.333332
9.112419 -9.163490 1.336383 8.500000
8.758360 -9.031614 1.300998 8.500000
9.173939 -9.024750 1.330787 8.400000
-10.126647 -8.981459 1.399746 23.666666
-10.063363 -8.962979 1.393574 28.000000
-9.679421 -8.953834 1.363538 4.000000
-9.142278 -8.763905 1.309639 2.000000
-7.164445 -8.712894 1.366059 37.666668
9.285135 -8.740693 1.318691 5.000000
-7.188271 -8.612337 1.358525 60.333332
-10.163697 -8.567714 1.374647 6.666667
-7.286397 -8.575393 1.362757 36.799999
9.256040 -8.550205 1.303056 28.000000
-4.154290 -8.472450 1.310212 3.666667
-7.859834 -8.375724 1.390986 0.500000
-5.194837 -8.391489 1.370359 4.000000
-3.383749 -8.209589 1.391777 8.000000
-3.428842 -8.101455 1.378873 17.666666
-3.605288 -7.995195 1.374682 15.200000
8.454233 -6.703146 1.306589 2.000000
8.590335 -6.745392 1.322699 20.000000
8.583218 -6.631684 1.313562 9.500000
9.310243 -5.924429 1.336404 13.000000
9.208309 -5.758512 1.315245 2.500000
9.648867 -5.620313 1.352274 10.000000
9.488691 -5.348784 1.319092 10.000000
9.629094 -5.308970 1.331595 0.000000
7.946345 -5.164361 1.315897 2.000000
8.218952 -4.499745 1.301043 116.000000
8.737274 -4.134740 1.342165 12.000000
7.789882 -3.925684 1.367267 36.285713
7.964183 -3.415057 1.358226 33.500000
8.195454 -3.438322 1.393016 7.000000
6.802714 -3.300901 1.366206 4.333333
7.005168 -3.362331 1.357533 0.000000
8.067071 -3.325011 1.367621 22.666666
6.949122 -3.241986 1.339703 60.400002
7.009220 -3.176574 1.344453 3.000000
7.836437 -2.973653 1.313733 4.000000
6.928061 -2.885422 1.333519 11.500000
7.022673 -2.855883 1.324490 13.500000
8.142715 -2.800582 1.349658 26.000000
8.320519 -2.891000 1.380628 14.000000
7.047383 -2.718583 1.319671 35.500000
8.140839 -2.757113 1.347181 51.000000
8.216144 -2.725176 1.356781 7.000000
9.440667 -2.406396 1.352755 1.000000
8.155513 -2.367884 1.331076 18.000000
8.118635 -2.272550 1.321432 21.428572
7.724204 -2.085555 1.397805 46.000000
8.812514 -1.182103 1.393635 6.000000
8.388668 -0.937975 1.323024 51.000000
8.623744 -0.772683 1.357091 58.000000
8.413158 -0.614945 1.322198 50.444443
8.446942 -0.521916 1.326493 30.200001
7.771093 -0.414072 1.359598 3.000000
7.825785 -0.343087 1.368547 28.000000
7.950358 -0.285969 1.389888 7.000000
7.796747 -0.133370 1.362352 0.000000
7.622672 -0.041474 1.331767 16.857143
7.573238 0.025101 1.323113 15.500000
7.517355 0.107594 1.313475 2.000000
8.446664 0.191690 1.324263 11.666667
8.618795 0.258873 1.351516 3.500000
-7.186998 0.350245 1.387073 1.000000
8.681687 0.328974 1.361736 15.500000
-7.118044 0.436602 1.374742 3.142857
-7.168093 0.530164 1.385559 1.000000
8.419780 0.650823 1.323644 1.000000
8.373821 0.726712 1.317450 2.800000
8.420452 0.824199 1.326121 1.000000
8.514883 1.695261 1.360807 10.000000
8.511571 1.731698 1.361427 31.000000
8.243109 1.844079 1.323953 15.500000
6.501199 2.248852 1.357132 7.750000
6.463895 2.355656 1.388915 16.250000
6.648108 2.405269 1.362845 8.000000
8.135710 2.462514 1.332315 67.000000
6.559953 2.561577 1.357545 1.000000
7.160861 2.832249 1.345371 36.833336
8.188263 2.809869 1.356884 23.000000
8.308312 2.890009 1.378770 20.000000
9.546791 2.840592 1.383012 3.500000
8.411777 3.015152 1.400603 39.250000
6.416569 3.168507 1.379502 15.000000
7.034008 3.338475 1.360286 10.000000
7.100924 3.438875 1.378415 5.666667
6.603320 3.511048 1.306591 7.000000
6.798322 3.929002 1.371817 15.250000
6.896861 4.046262 1.397002 40.000000
7.583369 4.011859 1.344703 10.333333
10.086594 4.015982 1.314764 18.000000
6.773430 4.196446 1.392091 8.800000
7.279501 4.138694 1.312495 9.000000
7.309612 4.176182 1.319514 14.000000
7.746003 4.118623 1.375053 19.000000
6.717967 4.264985 1.390232 1.500000
7.373427 4.284549 1.336651 41.000000
7.032693 4.464849 1.305681 0.000000
7.686047 4.509328 1.396732 16.333334
7.140812 4.666911 1.337084 25.799999
7.405029 4.652373 1.370718 0.000000
7.518105 4.641418 1.384860 10.333333
7.134332 4.736450 1.342225 7.000000
6.738067 4.995001 1.314662 29.000000
7.037717 4.940932 1.347800 34.428570
8.343270 4.980463 1.349179 10.250000
-6.819155 5.068060 1.331696 35.666668
-6.705128 5.049009 1.315591 41.000000
6.774415 5.088356 1.327979 6.000000
6.922409 5.081295 1.345942 95.000000
7.046794 5.037572 1.357710 0.000000
7.268073 5.025149 1.384964 36.000000
8.380702 5.083533 1.361007 26.000000
-6.975165 5.116275 1.355852 57.000000
-6.837253 5.182238 1.344703 36.000000
8.433064 5.197203 1.375448 8.500000
-6.749311 5.267325 1.341916 49.500000
6.803844 5.211329 1.343309 8.750000
8.131317 5.242027 1.343324 21.714285
-7.003167 5.342712 1.380628 31.000000
-6.933063 5.323774 1.370098 31.000000
8.110567 5.311451 1.346153 0.000000
6.812297 5.442016 1.366629 26.200001
-8.117863 5.570911 1.367058 0.000000
-7.839702 5.556915 1.334280 28.416666
-7.648674 5.573339 1.314063 35.333332
6.775185 5.531950 1.370965 40.200001
8.382950 5.603425 1.400066 0.000000
-8.130268 5.629684 1.373109 26.333334
8.288474 5.682668 1.395389 35.750000
7.569717 5.741564 1.319197 13.000000
-6.090508 5.808003 1.319101 22.000000
-6.169614 5.995532 1.348419 27.000000
7.641512 5.929397 1.342990 19.000000
7.762635 5.926400 1.356056 23.000000
8.096940 5.982677 1.397865 17.000000
-7.320027 6.053555 1.318922 45.500000
-6.165659 6.067441 1.355852 26.000000
-7.583539 6.191550 1.359356 15.500000
-7.167415 6.296727 1.324699 32.000000
-7.563648 6.315225 1.368158 39.000000
9.036106 6.355395 1.337847 5.500000
-7.065016 6.446728 1.327999 17.000000
-6.916759 6.452432 1.313421 61.500000
-6.116147 6.429185 1.390848 30.500000
-6.026848 6.415718 1.379699 39.000000
7.644263 6.414264 1.385579 13.333333
-7.143950 6.560001 1.346704 22.000000
-6.024834 6.598035 1.400448 0.000000
9.102926 6.596686 1.361411 18.000000
-7.340855 6.614379 1.372009 30.000000
-6.596734 6.698964 1.305444 78.500000
7.183215 6.663413 1.360457 13.500000
9.089354 6.652397 1.364056 16.000000
-7.460016 6.721769 1.394289 23.500000
6.986648 6.772889 1.351104 0.000000
7.137407 6.747177 1.363757 5.000000
9.096719 6.812646 1.376318 3.000000
9.132348 6.884217 1.384974 5.000000
-6.901768 6.921065 1.357156 78.000000
-6.347672 6.951588 1.307095 34.000000
-6.498156 7.071646 1.333501 0.000000
8.622564 7.070062 1.350350 28.000000
-6.757690 7.171086 1.368158 41.000000
-6.126788 7.193888 1.312046 37.666668
8.588120 7.155343 1.353716 12.500000
8.743249 7.123199 1.365739 28.000000
8.968201 7.166913 1.390264 2.000000
-6.935580 7.313690 1.399515 29.000000
-6.156644 7.345038 1.330750 58.500000
-6.002178 7.369895 1.319747 8.000000
8.748797 7.359345 1.384494 1.000000
-7.794948 7.430813 1.304184 40.000000
-6.412564 7.434274 1.363207 46.000000
-6.150102 7.464818 1.342963 34.200001
-6.016963 7.483607 1.333317 52.666668
-7.289940 8.133307 1.322699 41.750000
-7.192809 8.199585 1.320919 42.000000
-7.099990 8.333612 1.325824 35.000000
-6.999234 8.347195 1.319212 52.000000
-6.914557 8.405976 1.318130 57.500000
7.909732 8.402414 1.397478 47.000000
-6.910006 8.481565 1.324863 19.000000
7.848036 8.455875 1.397117 28.750000
9.174125 8.980749 1.327605 8.333333
9.090191 9.011208 1.323628 9.000000
8.779703 9.444780 1.333503 14.000000
7.729470 13.222104 1.315168 15.000000
7.731904 13.322152 1.322696 16.000000
7.585916 13.556726 1.333990 14.000000
7.693049 13.647394 1.345283 67.000000
7.667140 13.803464 1.355892 2.000000
7.877586 13.771756 1.362394 23.000000
8.430983 13.752704 1.385209 14.666667
8.512283 13.755695 1.389088 6.000000
7.964585 13.822910 1.369923 5.000000
7.954325 14.007836 1.383270 81.000000
7.277092 14.275932 1.375969 28.333334
7.484730 14.384167 1.392396 4.000000
7.448753 14.462648 1.396959 6.000000
7.674905 25.712172 1.367293 2.000000
6.793352 26.516064 1.394773 15.500000
7.077684 38.187767 1.304001 16.000000
7.457181 38.221386 1.307491 17.000000
6.905172 38.609272 1.316887 17.000000
7.461348 38.892437 1.329638 53.000000
7.341349 38.927471 1.330041 11.000000
7.126698 39.138023 1.335678 13.000000
17.254501 -39.987644 1.462253 51.000000
17.313038 -39.779285 1.456615 25.000000
17.380075 -39.592915 1.451783 3.000000
17.454206 -39.424801 1.447622 27.000000
17.512785 -39.223751 1.442253 33.000000
17.581753 -39.048252 1.437824 35.000000
17.644842 -38.861778 1.432992 53.000000
17.706934 -38.675301 1.428160 52.000000
17.778082 -38.510586 1.424133 31.000000
17.843311 -38.334942 1.419703 23.000000
17.900806 -38.144794 1.414737 20.000000
17.959007 -37.958275 1.409905 1.000000
18.024815 -37.789810 1.405744 11.000000
18.088011 -37.617702 1.401449 17.000000
-14.362690 -25.677952 1.499198 2.000000
-14.260617 -25.684526 1.496959 19.000000
-14.005012 -25.601894 1.486984 15.000000
-13.848264 -25.505335 1.478842 13.000000
-13.747228 -25.510031 1.476603 3.000000
-14.291046 -25.177252 1.475178 9.000000
-6.763082 -15.711253 1.468826 39.000000
-6.812408 -15.689929 1.468826 1.000000
-4.920871 -13.288557 1.465372 2.000000
-5.871937 -13.182390 1.492322 4.000000
-6.880339 -12.762162 1.499316 15.000000
-6.745899 -12.703234 1.487384 10.000000
-6.791406 -12.692502 1.488618 37.000000
-7.200184 -12.436030 1.486013 33.000000
-7.228817 -12.365687 1.481212 17.000000
7.696249 -12.118008 1.484504 12.000000
7.867481 -12.133402 1.495407 0.500000
7.845295 -11.853031 1.469898 39.000000
7.924333 -11.850649 1.474218 0.000000
7.917084 -11.759685 1.465989 11.000000
8.291070 -11.403257 1.457966 7.500000
7.879255 -11.240212 1.419495 24.000000
-9.046949 -11.192005 1.488207 4.000000
-4.856849 -11.186003 1.476825 7.000000
-4.435505 -11.112031 1.448933 3.000000
7.882902 -11.096418 1.407563 11.000000
9.245446 -11.132238 1.496436 25.000000
-4.559594 -11.018729 1.444124 11.000000
-4.320677 -11.076250 1.439796 0.000000
7.973386 -11.075732 1.411266 34.000000
-9.522518 -10.912023 1.497670 28.000000
-9.443876 -10.890782 1.490676 9.000000
-9.998547 -10.455544 1.496025 21.000000
-9.924536 -10.476576 1.492322 36.000000
-10.150933 -10.318853 1.496848 14.000000
-10.090652 -10.322241 1.492733 18.000000
-10.186100 -10.289739 1.497259 11.000000
-3.237350 -10.242817 1.491570 10.333333
-3.051890 -10.095609 1.464430 5.000000
-3.012216 -10.078574 1.460579 6.000000
-4.164570 -9.926515 1.494687 4.000000
-10.411043 -9.814301 1.479567 11.000000
-6.629444 -9.861976 1.439075 24.500000
-3.200602 -9.803843 1.431973 11.000000
-3.178312 -9.840240 1.435824 0.000000
-10.592133 -9.736554 1.487796 1.000000
-10.248257 -9.539949 1.447885 29.000000
-10.145645 -9.504093 1.437599 7.000000
-7.204812 -9.447404 1.438835 44.000000
-7.306375 -9.346871 1.436719 42.799999
-7.220160 -9.375589 1.433064 46.000000
-10.634171 -9.156589 1.451177 4.833333
-10.104346 -9.113975 1.407152 0.000000
-10.636602 -9.062062 1.445005 0.000000
-4.136527 -8.380615 1.464865 21.500000
-4.026462 -8.355156 1.453716 20.500000
-3.950170 -8.330307 1.445045 15.000000
-4.098264 -8.205495 1.437612 24.000000
-3.960116 -8.119442 1.415933 22.000000
-3.817005 -8.148437 1.410359 3.000000
-3.774421 -8.157352 1.408810 6.500000
-3.553716 -7.802012 1.497830 24.000000
-3.448041 -7.802813 1.490395 6.666667
-3.702449 -7.713826 1.494870 27.500000
-3.870949 -7.571013 1.485576 27.000000
9.011735 -7.521626 1.421522 7.000000
9.277002 -7.498973 1.444605 11.000000
9.244019 -7.400575 1.434026 4.500000
7.813214 -6.995641 1.456178 55.000000
7.755876 -6.988327 1.449577 52.000000
7.898571 -6.983150 1.463880 53.000000
-9.504857 -6.887955 1.421522 0.000000
8.004740 -6.769435 1.455628 38.000000
8.329526 -6.313293 1.451227 68.000000
8.270359 -6.214088 1.436374 29.333334
8.719980 -6.167198 1.482997 39.250000
8.890018 -5.978350 1.487535 6.000000
8.898706 -5.891809 1.481877 41.428570
8.459449 -5.740420 1.419503 29.333334
8.929128 -5.605576 1.463880 14.000000
9.061007 -5.648760 1.482584 3.000000
9.194202 -5.651889 1.498538 10.000000
9.022026 -5.546034 1.470481 10.500000
7.658210 -5.398272 1.468582 7.000000
9.186436 -5.450171 1.483134 11.000000
9.446767 -5.210595 1.497988 6.000000
9.493038 -5.120173 1.497621 11.666667
9.488385 -5.002602 1.489369 4.666667
8.339513 -3.653849 1.427082 46.000000
7.784843 -3.469247 1.489018 30.000000
8.547432 -3.444767 1.444425 42.500000
6.783981 -3.298905 1.493588 20.285715
8.526876 -3.389809 1.438231 6.000000
6.928066 -3.246818 1.474901 57.000000
6.806448 -3.163780 1.446887 42.000000
8.573401 -3.100143 1.428940 24.000000
8.480972 -3.006602 1.410359 64.000000
8.517586 -3.009632 1.415933 60.333332
6.750475 -2.944043 1.419693 14.000000
7.663587 -2.894273 1.431192 36.000000
6.742143 -2.761695 1.404487 19.500000
8.031060 -2.696536 1.480069 5.333333
8.009765 -2.620474 1.472359 32.400002
7.284534 -2.564587 1.488719 18.750000
7.219064 -2.408566 1.467026 13.600000
7.314012 -2.389174 1.483229 65.000000
8.198002 -2.352297 1.490051 42.000000
8.224007 -2.303913 1.492116 38.000000
7.163525 -2.240794 1.446887 3.000000
8.698601 -2.231812 1.407571 3.500000
7.826344 -2.099670 1.415703 38.500000
7.987236 -2.116286 1.443583 59.000000
8.817122 -2.115192 1.421198 8.000000
7.775281 -2.007929 1.402968 19.000000
8.760967 -2.043587 1.410049 10.500000
7.980401 -1.901200 1.433257 29.000000
8.056324 -1.972860 1.449091 35.000000
8.189636 -1.923878 1.469743 23.000000
7.794371 -1.882777 1.400902 40.000000
7.974165 -1.794119 1.427980 12.666667
8.084110 -1.765577 1.445649 65.000000
7.429219 -1.611712 1.465436 34.000000
7.573148 -1.605578 1.492315 33.000000
8.946507 -1.603283 1.424605 7.000000
7.594864 -1.554164 1.494397 14.750000
8.882334 -1.534473 1.412836 8.000000
8.846637 -1.394821 1.403752 12.666667
8.142595 -0.897512 1.431192 27.000000
8.031569 -0.830017 1.410655 18.500000
9.031124 -0.852130 1.421817 31.500000
7.524574 -0.758996 1.457865 32.500000
7.621081 -0.720435 1.475658 1.500000
8.101482 -0.713081 1.420866 5.500000
9.170669 -0.778124 1.442567 6.000000
7.674661 -0.680931 1.485248 42.333332
8.112618 -0.675533 1.422243 5.000000
8.408529 -0.593637 1.472726 42.000000
8.281617 -0.584917 1.450468 42.000000
8.459813 -0.517425 1.480757 36.000000
8.119164 -0.470992 1.420866 60.000000
7.383779 -0.345295 1.424930 10.375000
7.483238 -0.231262 1.443227 27.500000
7.528393 -0.272107 1.452187 40.000000
8.042191 -0.251368 1.405721 26.000000
8.398891 0.093833 1.467448 15.333333
8.194121 0.168781 1.431881 32.000000
8.231506 0.169557 1.438421 32.000000
8.240166 0.221533 1.440141 12.000000
8.423967 0.349673 1.473013 11.650000
8.411129 0.650154 1.473873 0.000000
8.369999 0.726405 1.467815 2.600000
8.405891 0.822746 1.475594 0.500000
8.142283 1.383011 1.442895 22.000000
8.159760 1.477480 1.448771 27.071428
8.098295 1.559486 1.440830 6.000000
8.175025 1.768342 1.461310 21.250000
8.987289 2.099699 1.446593 7.000000
7.766746 2.113073 1.406238 34.250000
6.568107 2.214242 1.462928 89.000000
8.822480 2.281648 1.428321 40.000000
9.045316 2.225809 1.460065 17.000000
6.558322 2.361200 1.471189 39.500000
8.120380 2.346888 1.476765 66.000000
9.132557 2.392474 1.479731 30.000000
9.079062 2.454781 1.474156 26.000000
9.197489 2.471343 1.492738 28.000000
9.993136 2.450851 1.428672 53.000000
10.032834 2.416082 1.432890 17.000000
7.868309 2.599148 1.447714 31.000000
8.579006 2.552616 1.402926 30.000000
9.969594 2.544924 1.428672 2.000000
10.023643 2.525206 1.435274 29.000000
8.003778 2.616038 1.471120 23.000000
8.981619 2.626409 1.466723 21.000000
7.941883 2.762548 1.469054 10.000000
8.132948 2.714934 1.497967 10.000000
8.531811 2.709758 1.403132 24.666666
10.029213 2.745554 1.443800 2.000000
7.010667 2.878146 1.460894 22.500000
8.847580 2.815089 1.455265 80.500000
9.088916 2.844810 1.492738 54.000000
10.163105 2.833766 1.464980 2.000000
10.258562 2.947435 1.482034 13.500000
8.412919 3.090364 1.404784 16.000000
6.572664 3.388039 1.425434 15.666667
6.528066 3.417144 1.420387 1.000000
8.793727 3.499449 1.483447 1.000000
7.112657 3.753252 1.405033 24.000000
6.647877 3.842787 1.480201 15.333333
7.060779 3.955846 1.413982 33.000000
10.001859 3.980223 1.494687 8.000000
9.743480 4.019948 1.463513 15.666667
9.785736 4.182047 1.477633 5.000000
9.868713 4.199268 1.489186 26.000000
7.883413 4.255436 1.404165 9.000000
9.639045 4.215145 1.460763 19.666666
7.236243 4.321259 1.472497 27.000000
7.072000 4.599632 1.473873 11.000000
8.209677 4.531986 1.469820 10.000000
7.141646 4.709048 1.494525 0.000000
6.871075 4.847010 1.469054 6.000000
-7.457045 4.956581 1.403457 29.571428
-6.861908 4.927741 1.475938 18.600000
-6.740975 4.944599 1.460564 33.000000
-6.412997 4.988790 1.419489 37.000000
6.649158 4.961628 1.449435 40.000000
6.947473 4.927140 1.488054 42.000000
8.910812 4.992338 1.418220 2.000000
-7.392669 5.039158 1.402307 3.000000
-6.429000 5.055533 1.428898 35.333332
6.564003 5.076884 1.449779 13.000000
-6.826221 5.140308 1.492919 49.000000
-6.716413 5.140577 1.477659 55.500000
-7.571546 5.301652 1.448761 34.000000
-6.502789 5.224642 1.457352 31.000000
-6.387626 5.225253 1.441794 30.200001
-7.792943 5.402086 1.486234 19.500000
-7.535472 5.311754 1.445045 30.000000
-6.421306 5.361433 1.461482 48.000000
-7.608497 5.417154 1.463936 36.500000
-7.483047 5.452734 1.451239 32.000000
-6.544256 5.429291 1.485576 56.000000
6.626264 5.466156 1.500721 4.000000
-7.636894 5.509812 1.476014 32.000000
7.018876 5.535222 1.401068 27.000000
7.618442 5.555463 1.477872 2.000000
7.001542 5.702184 1.415314 42.000000
-6.983158 5.761880 1.419030 14.571428
-7.427557 5.891233 1.485925 57.000000
-6.903658 5.863117 1.419649 32.333332
-6.061502 5.822014 1.468366 17.000000
8.360393 5.819284 1.414369 3.000000
-7.430573 5.950835 1.492119 20.500000
-7.328586 5.945127 1.479111 18.000000
-6.986705 6.003178 1.443806 12.000000
-6.829156 5.961722 1.420888 27.666666
6.994802 5.957254 1.440090 22.000000
7.054526 5.950947 1.446593 31.500000
7.129482 5.956945 1.456194 7.000000
-6.716536 6.090148 1.421095 35.000000
-6.624812 6.083297 1.409739 28.000000
7.081068 6.069210 1.461768 110.000000
-6.943961 6.178153 1.456813 53.000000
-6.848609 6.112744 1.438851 45.000000
-7.927938 6.288115 1.405017 27.000000
-6.789063 6.313206 1.453097 49.000000
-6.394904 6.453207 1.423985 1.000000
-6.274962 6.452774 1.410772 18.666666
-6.573371 6.509439 1.450000 17.000000
-6.102778 6.599717 1.408913 29.666666
6.820786 6.550047 1.482208 14.000000
6.923105 6.585961 1.497693 44.000000
-6.720841 6.697422 1.487163 59.000000
-6.556214 6.615968 1.459910 63.500000
-6.399502 6.664021 1.448142 63.000000
-7.787085 6.797897 1.435274 41.000000
-7.571901 6.715560 1.405292 38.500000
8.362174 6.810307 1.497437 3.000000
-6.304655 7.058817 1.483447 38.000000
-6.972201 7.306195 1.402266 9.000000
-5.893941 7.283610 1.468582 33.000000
-6.080230 7.394271 1.500480 44.000000
-5.942840 7.391403 1.486544 22.000000
8.940280 7.377664 1.403729 24.000000
-7.177648 7.458671 1.437291 18.000000
-5.930610 7.471923 1.495216 3.500000
-5.871424 7.493494 1.492119 7.000000
-7.167577 7.999621 1.491386 78.000000
8.540717 8.448755 1.454864 39.333332
7.916262 8.515932 1.408057 6.000000
8.188125 8.562483 1.434747 49.000000
8.293249 8.590911 1.446048 44.000000
8.225570 8.683105 1.448452 40.000000
8.660737 8.859507 1.500389 33.000000
7.542264 9.094384 1.430820 35.333332
7.645563 9.053638 1.435068 4.333333
7.997307 9.164274 1.472978 25.000000
8.067914 9.128745 1.475383 2.000000
7.385707 9.760753 1.482307 14.200000
7.343759 9.820178 1.485000 0.000000
8.933816 13.657503 1.401408 26.000000
9.612978 13.642439 1.433121 23.666666
8.916918 13.725605 1.405515 20.000000
9.491626 13.743493 1.434262 45.000000
9.627016 13.753618 1.441619 30.500000
9.771950 13.775913 1.450346 29.000000
9.904837 13.778963 1.457191 0.000000
9.511527 13.865264 1.443844 37.000000
9.512804 13.960946 1.450688 12.000000
9.036375 14.054094 1.434775 45.500000
9.467083 14.083255 1.457191 19.666666
9.095260 14.293209 1.454795 46.000000
8.679111 14.393186 1.443273 34.333332
8.632371 14.452245 1.445555 15.000000
9.130774 14.499464 1.471393 40.000000
9.585507 14.454700 1.489360 19.000000
8.396340 14.572241 1.444186 25.000000
9.073968 14.560939 1.473275 6.000000
7.263120 14.839018 1.418690 52.000000
7.973956 14.902577 1.451373 53.000000
8.015634 14.812243 1.446239 54.000000
8.104487 14.809283 1.449662 41.000000
6.740187 14.941762 1.407568 3.500000
7.388711 14.917132 1.429470 4.000000
7.947660 14.966273 1.455137 0.000000
7.251013 15.053122 1.434775 28.500000
8.758157 15.090397 1.498258 18.000000
8.829123 15.048962 1.498257 17.000000
8.413236 15.221639 1.493466 21.666666
7.023569 15.902005 1.492782 35.000000
6.979971 15.938595 1.494151 27.000000
6.382438 16.062836 1.484226 6.000000
6.504769 16.039429 1.486280 31.000000
6.633979 16.055479 1.491755 30.333334
6.751646 16.030138 1.493637 19.500000
6.187271 16.160295 1.485937 19.000000
6.292974 16.132322 1.486964 12.000000
6.035551 16.220406 1.486166 8.333333
6.660981 19.644985 1.418519 13.333333
6.545246 19.744816 1.422476 19.500000
6.796358 19.771681 1.429707 14.000000
6.484960 19.875996 1.429707 1.000000
6.900330 19.870867 1.438440 29.000000
8.599859 19.891966 1.481967 10.000000
8.446609 19.931915 1.480357 26.799999
7.080287 20.184240 1.462728 31.000000
7.805742 20.197557 1.480739 42.000000
7.211634 20.353735 1.476646 36.000000
7.330541 20.417223 1.483468 16.666666
7.963424 20.414597 1.498477 48.000000
7.702455 26.563919 1.409327 23.000000
7.825859 26.521612 1.409022 17.000000
8.083559 26.774040 1.425103 1.000000
9.291798 26.772648 1.444034 2.000000
9.216729 26.828154 1.445459 10.000000
7.718923 27.097490 1.435688 31.000000
6.473113 27.598259 1.444441 4.000000
8.714001 27.603676 1.474974 10.000000
6.112852 27.618914 1.441388 10.000000
6.574574 27.639969 1.447698 4.000000
6.680108 27.696848 1.451769 7.000000
8.627237 27.630915 1.474974 33.000000
6.440379 27.851986 1.456654 11.000000
6.274009 27.930878 1.458690 2.000000
6.125624 28.094646 1.465204 10.000000
6.412328 28.133039 1.470293 4.000000
7.430159 28.443398 1.497976 10.000000
-7.724276 -30.347786 1.595684 2.000000
