# This PCD file was generated using the MATLAB® pcwrite function
# from Computer Vision Toolbox®.
# .PCD v.7 - Point Cloud Data file format
VERSION .7
FIELDS x y z intensity
SIZE 4 4 4 4
TYPE F F F F
COUNT 1 1 1 1
WIDTH 1225
HEIGHT 1
VIEWPOINT 0 0 0 1 0 0 0
POINTS 1225
DATA ascii
-5.678429 -21.133175 -1.545930 40.000000
-5.547176 -21.129505 -1.543299 53.000000
-5.370914 -21.132408 -1.540387 39.333332
-4.915545 -21.139912 -1.533293 42.500000
-4.631551 -21.118168 -1.527373 49.500000
-4.491296 -21.111729 -1.524836 38.000000
-4.392161 -21.134640 -1.524977 29.000000
-4.223786 -21.099735 -1.520185 42.333332
-4.006615 -21.103466 -1.517507 46.500000
-3.738056 -21.134453 -1.516239 16.500000
-3.592414 -21.082796 -1.510883 39.500000
-3.469983 -21.097904 -1.510507 50.666668
-3.253172 -21.087336 -1.507360 31.000000
-3.122970 -21.123146 -1.508487 29.000000
-3.023111 -21.135679 -1.508346 28.000000
-2.852798 -21.127104 -1.506091 36.000000
-2.683294 -21.122696 -1.504231 25.400000
-2.545190 -21.094049 -1.501017 37.000000
8.042886 -21.128607 -1.597139 34.000000
8.132790 -21.032833 -1.593099 38.666668
8.268904 -21.024002 -1.596011 36.500000
8.420749 -20.989447 -1.597703 32.333332
8.623274 -20.859596 -1.594602 36.000000
3.067164 -14.630648 -1.580404 3.000000
2.995459 -14.515548 -1.566946 3.000000
2.926091 -14.407939 -1.554330 3.000000
2.857429 -14.300038 -1.541714 6.000000
2.790241 -14.195754 -1.529518 3.000000
2.723740 -14.091188 -1.517322 3.000000
2.657920 -13.986346 -1.505126 3.000000
4.275404 -10.245790 -1.566416 15.000000
4.250711 -10.097239 -1.545739 38.000000
4.240610 -9.985403 -1.530650 42.000000
4.248426 -9.874361 -1.516680 83.000000
3.929816 -7.545890 -1.505221 5.000000
3.858111 -7.159412 -1.586012 101.500000
3.845851 -7.004424 -1.558321 123.666664
3.865569 -6.885705 -1.539946 5.000000
3.870287 -6.720032 -1.512319 4.750000
-0.771553 -26.623117 -1.417753 11.000000
-3.344530 -26.326836 -1.412650 3.000000
-2.167315 -26.249392 -1.402019 3.000000
-2.375875 -21.081642 -1.498762 52.500000
-2.243345 -21.096157 -1.498762 56.000000
-2.076566 -21.102491 -1.498011 46.333332
-1.909194 -21.100973 -1.496789 41.500000
-1.775582 -21.100624 -1.495944 39.000000
-1.641424 -21.091475 -1.494534 53.000000
-1.476298 -21.112965 -1.495192 49.000000
-1.309082 -21.100716 -1.493547 55.000000
-1.175815 -21.096571 -1.492702 43.000000
-1.042665 -21.093584 -1.491997 47.500000
3.655776 -15.709764 -1.421079 7.000000
3.729262 -15.690414 -1.420903 8.000000
2.592787 -13.881232 -1.492931 3.000000
0.640957 -13.796149 -1.460128 0.000000
2.529058 -13.779759 -1.481155 3.000000
0.676807 -13.643096 -1.444147 3.000000
0.716312 -13.577345 -1.437419 9.000000
2.408539 -13.603387 -1.460549 6.000000
0.796750 -13.491795 -1.428868 9.666667
2.308213 -13.532047 -1.451297 5.000000
0.877008 -13.416436 -1.421438 10.000000
0.956874 -13.349784 -1.414990 11.000000
1.055830 -13.267863 -1.407140 12.000000
2.226954 -13.307758 -1.426485 3.000000
1.135266 -13.215389 -1.402303 13.500000
2.140684 -13.172802 -1.410924 4.000000
4.268413 -9.710157 -1.496562 29.333334
4.293882 -9.603588 -1.484267 6.000000
4.319457 -9.539948 -1.477561 6.500000
4.393529 -9.426492 -1.467390 7.000000
4.462169 -9.342541 -1.460796 7.000000
4.540564 -9.280774 -1.457778 8.000000
4.654008 -9.217385 -1.456884 8.000000
4.723551 -9.175283 -1.456046 8.000000
4.813208 -9.206856 -1.465826 6.500000
-2.494098 -7.857633 -1.458531 20.000000
-2.502845 -7.772141 -1.444594 3.000000
-2.498358 -7.634859 -1.421249 29.500000
-2.520231 -7.502007 -1.471482 4.500000
3.924218 -7.477703 -1.494071 6.000000
3.794981 -7.149517 -1.432050 2.000000
3.773524 -7.002422 -1.407312 1.000000
3.879354 -6.544219 -1.483608 9.750000
3.947294 -6.403905 -1.467065 18.714285
4.076901 -6.299483 -1.463346 41.714287
4.228001 -6.259044 -1.473011 12.727273
3.642722 -5.306138 -1.491120 1.333333
3.628277 -5.220604 -1.472913 0.500000
3.586620 -5.058177 -1.436576 1.750000
3.610215 -4.951381 -1.495740 26.333334
3.566551 -4.707363 -1.477872 0.500000
3.544206 -4.602345 -1.453597 0.000000
4.538108 -4.212646 -1.434544 5.000000
4.978834 -3.891090 -1.463976 1.000000
5.128322 -3.885402 -1.490618 2.888889
6.622179 -1.277597 -1.438468 21.000000
6.781914 -1.275328 -1.471843 10.000000
7.138804 -1.272900 -1.414127 3.000000
9.760101 1.951994 -1.404354 14.000000
9.725694 2.318787 -1.410687 12.333333
9.699638 2.452585 -1.411618 7.000000
9.733109 2.420439 -1.415111 22.250000
9.677081 2.609259 -1.414133 6.500000
9.738414 2.571332 -1.421119 50.333332
19.925493 2.789679 -1.421386 23.500000
19.858219 2.907614 -1.417862 92.500000
19.829697 3.030825 -1.417158 141.000000
-1.007710 -26.231489 -1.397342 10.000000
-0.883756 -26.225931 -1.396810 46.500000
10.099388 -23.792665 -1.375867 10.000000
10.161508 -23.731443 -1.374166 7.000000
3.498603 -15.251245 -1.378601 4.000000
3.427830 -15.161112 -1.369474 5.000000
3.360253 -15.082355 -1.361399 3.000000
3.280391 -14.944944 -1.348059 9.000000
3.204794 -14.822762 -1.336123 18.000000
3.132486 -14.711943 -1.325240 22.000000
3.060093 -14.596917 -1.314007 20.000000
2.990866 -14.493292 -1.303826 23.000000
1.233735 -13.149935 -1.396346 16.666666
1.333047 -13.100949 -1.392210 19.500000
1.412342 -13.064631 -1.389266 24.000000
1.531067 -13.014137 -1.385376 29.250000
1.670411 -12.967948 -1.382328 34.666668
1.814338 -12.958598 -1.383379 31.250000
1.966151 -13.000175 -1.390038 16.000000
2.056210 -13.041317 -1.395785 9.000000
4.317710 -10.291713 -1.376695 2.000000
4.295185 -10.118821 -1.355965 1.000000
4.477720 -10.104549 -1.363310 12.000000
4.345176 -10.017376 -1.346905 2.250000
4.331268 -9.691744 -1.309443 4.000000
4.376331 -9.589647 -1.300262 7.500000
4.485582 -9.549666 -1.301445 27.000000
5.141571 -9.402833 -1.321931 17.500000
5.020688 -9.285566 -1.302098 16.000000
-2.524045 -7.782238 -1.300187 1.666667
3.937540 -7.619052 -1.362968 0.000000
-2.520528 -7.450901 -1.344225 2.666667
3.906715 -7.501532 -1.344134 2.000000
3.860506 -7.356297 -1.320277 3.000000
-2.543293 -7.303700 -1.368287 1.750000
3.844815 -7.270797 -1.307093 3.000000
-2.608206 -7.232688 -1.360273 3.000000
-2.587326 -7.175278 -1.349472 2.500000
-2.606251 -6.952234 -1.313584 12.000000
-2.587767 -7.003233 -1.320901 6.000000
3.786530 -6.870662 -1.352522 2.750000
3.795555 -6.711690 -1.364176 2.600000
3.834941 -6.586516 -1.348427 2.333333
3.865493 -6.520617 -1.341110 6.000000
3.928164 -6.417999 -1.331304 19.857143
3.986821 -6.333418 -1.324037 47.000000
4.069407 -6.287871 -1.325132 90.714287
4.202103 -6.253220 -1.332922 31.250000
4.326038 -6.254641 -1.345484 10.111111
3.615637 -5.240872 -1.334567 0.000000
3.566569 -5.063683 -1.321029 148.250000
3.547306 -4.871737 -1.396176 255.000000
3.542441 -4.773191 -1.355189 204.000000
3.550138 -4.601880 -1.328586 125.066666
3.551270 -4.473475 -1.323275 0.000000
3.583744 -4.287859 -1.333580 2.500000
4.404411 -4.012250 -1.344065 4.666667
4.580415 -4.029743 -1.301213 11.000000
4.378712 -3.916534 -1.347574 3.625000
4.683188 -3.903078 -1.300295 1.200000
4.832794 -3.900795 -1.324659 1.000000
4.979771 -3.891855 -1.348021 1.000000
5.139180 -3.878484 -1.329067 1.000000
-9.517893 -2.028302 -1.373059 3.000000
-9.298560 -2.012119 -1.342323 3.000000
-9.079425 -1.994578 -1.311587 2.000000
-8.065417 -1.958681 -1.319021 2.000000
-5.966063 -1.750133 -1.326105 3.666667
9.252167 -1.477774 -1.321972 56.916668
19.338140 -1.474414 -1.370131 5.333333
5.870503 -1.347700 -1.321363 1.666667
6.023982 -1.339844 -1.316231 1.000000
6.166119 -1.330862 -1.345435 1.500000
6.325933 -1.317531 -1.331004 1.400000
6.623364 -1.288517 -1.315870 7.333333
6.814034 -1.270236 -1.351727 18.000000
7.075505 -1.276881 -1.315074 7.000000
9.325542 -1.332100 -1.329134 17.200001
9.402935 -1.252949 -1.338411 9.000000
19.330587 -1.321223 -1.368815 7.500000
9.487877 -1.203557 -1.349401 7.000000
9.649944 -1.162645 -1.371382 7.000000
19.342983 -1.169510 -1.369003 13.000000
19.352940 -1.017631 -1.369097 7.000000
19.385542 -0.866698 -1.370882 3.000000
19.421234 -0.746088 -1.373043 2.000000
19.451397 -0.686055 -1.375016 1.000000
19.504242 -0.595868 -1.378540 1.500000
19.732222 -0.509815 -1.394466 4.000000
9.453859 -0.094128 -1.333940 21.000000
9.394947 -0.004919 -1.325558 30.000000
9.452222 0.032352 -1.333661 11.750000
8.661770 0.403933 -1.378035 255.000000
8.400998 0.484246 -1.337332 51.500000
8.385811 0.589341 -1.335972 40.000000
8.539750 0.667656 -1.361294 71.333336
9.251820 0.810875 -1.310376 70.500000
8.368690 1.904745 -1.363993 2.166667
10.611206 1.913082 -1.330011 6.000000
9.694778 2.034176 -1.397648 15.000000
9.716637 2.006913 -1.399883 10.000000
9.662183 2.084468 -1.394630 20.000000
7.027411 2.206298 -1.303131 3.000000
7.233451 2.233491 -1.339368 8.500000
7.364482 2.236096 -1.361667 5.000000
7.508331 2.238548 -1.329308 6.400000
9.532651 2.634682 -1.395412 1.000000
9.536200 2.700279 -1.398393 2.333333
-3.870968 19.060322 -1.374030 2.000000
-3.715419 19.060841 -1.371916 1.000000
6.261205 -22.126631 -1.224056 1.000000
6.357115 -22.068062 -1.222461 85.500000
-7.205536 -21.660641 -1.215126 47.000000
-7.221370 -21.482662 -1.206409 53.000000
8.023100 -21.277422 -1.210448 43.000000
8.396086 -21.055637 -1.206621 34.000000
9.253531 -21.060154 -1.224481 7.000000
8.513190 -20.965458 -1.204495 10.000000
8.691328 -20.931139 -1.206409 24.500000
8.885963 -20.842743 -1.206090 23.000000
8.749634 -20.794237 -1.200880 46.000000
9.011159 -20.773682 -1.205345 29.000000
9.198277 -20.757092 -1.208535 34.000000
9.281370 -20.768206 -1.210874 40.000000
9.519955 -20.774221 -1.216402 34.000000
9.690780 -20.800894 -1.221505 43.000000
9.829828 -20.757645 -1.222568 51.000000
9.908759 -20.755497 -1.224269 37.000000
9.344925 -20.735306 -1.210661 54.000000
9.419937 -20.727663 -1.211937 51.000000
9.580146 -20.733335 -1.215764 53.000000
9.735698 -20.726965 -1.218953 52.000000
2.922321 -14.389375 -1.293645 15.000000
2.851335 -14.269544 -1.282060 5.000000
2.783437 -14.161139 -1.271529 22.000000
2.720033 -14.072008 -1.262752 23.000000
2.655725 -13.974792 -1.253274 23.000000
2.590592 -13.869478 -1.243093 23.000000
2.529024 -13.779572 -1.234317 22.000000
0.724662 -13.735617 -1.211849 4.000000
2.471581 -13.709023 -1.227295 13.000000
0.803316 -13.603469 -1.200615 9.333333
2.406969 -13.595088 -1.216413 3.000000
2.318271 -13.462923 -1.203599 3.500000
4.546376 -9.408903 -1.288999 27.000000
4.586028 -9.266939 -1.275410 11.500000
4.675402 -9.227675 -1.276022 8.750000
4.751853 -9.198667 -1.277124 8.000000
4.839039 -9.154783 -1.277320 7.400000
-2.528189 -7.604839 -1.273610 3.000000
-2.551602 -7.439907 -1.249963 3.000000
-2.576375 -7.324613 -1.233953 4.500000
-2.623445 -7.169224 -1.213236 6.000000
3.843586 -7.159517 -1.291398 4.666667
3.838048 -6.990213 -1.267332 6.333333
3.837035 -6.784984 -1.238767 6.833333
4.048779 -6.756985 -1.251846 2.000000
3.919198 -6.611161 -1.221397 25.500000
4.044122 -6.537813 -1.221711 20.000000
4.028646 -6.399999 -1.201831 13.333333
4.582476 -6.441024 -1.256241 11.000000
4.527989 -6.308392 -1.234058 1.333333
4.356264 -6.225883 -1.207586 19.750000
3.654414 -5.190705 -1.205074 2.000000
3.739891 -5.221897 -1.252578 2.000000
3.739614 -5.052099 -1.225781 18.000000
3.707762 -4.943665 -1.205109 2.000000
3.560949 -4.906815 -1.293119 138.199997
3.564701 -4.722017 -1.261913 0.000000
3.518913 -4.340845 -1.294611 0.000000
4.171905 -3.946554 -1.224867 3.000000
4.536512 -3.903252 -1.298273 2.600000
5.230882 -3.872046 -1.269166 0.666667
-7.670012 -2.179300 -1.267182 3.857143
-7.685176 -2.085131 -1.265501 7.000000
-10.059393 -2.010065 -1.265371 2.000000
-9.823489 -1.995039 -1.236479 3.000000
-9.657765 -1.992998 -1.216402 7.000000
-9.523237 -1.996447 -1.200242 4.000000
-8.879821 -1.979995 -1.283645 2.000000
-8.685028 -1.979523 -1.256821 2.000000
-8.429483 -1.977072 -1.221614 5.500000
-7.881629 -1.953398 -1.290456 4.500000
-7.751925 -1.998871 -1.272250 3.250000
-6.144559 -1.760762 -1.285151 4.666667
-5.642476 -1.751964 -1.287251 6.250000
6.418077 -1.301088 -1.277078 2.000000
6.766409 -1.283347 -1.218462 7.500000
9.793915 -1.150521 -1.216402 7.000000
9.951306 -1.137327 -1.235500 6.000000
10.215027 -1.118725 -1.267575 14.000000
11.450777 -1.017925 -1.215372 5.000000
11.790798 -1.010828 -1.251118 7.000000
12.007990 -0.991456 -1.273827 9.000000
9.725237 -0.312424 -1.200242 2.000000
9.650519 1.243108 -1.200242 2.000000
10.218447 1.359807 -1.271574 9.333333
8.371354 1.908118 -1.211444 2.100000
9.864319 1.890617 -1.238927 7.000000
10.083857 1.883500 -1.265371 4.000000
10.253721 1.881910 -1.285938 24.000000
9.675447 2.044209 -1.219829 18.500000
9.779870 1.970087 -1.230603 24.250000
11.559685 1.971781 -1.239763 2.000000
9.658332 2.098826 -1.219176 10.000000
6.915325 2.194999 -1.283619 2.000000
7.246905 2.225286 -1.204761 7.000000
7.393457 2.232178 -1.227362 6.000000
9.556076 2.318902 -1.212974 27.333334
9.533060 2.440615 -1.213855 255.000000
9.519481 2.581067 -1.216646 255.000000
9.512156 2.724010 -1.220515 255.000000
9.508116 2.859105 -1.224726 153.199997
3.360190 16.694757 -1.203069 52.000000
3.695785 16.725861 -1.210116 17.000000
3.306006 16.835690 -1.212089 37.000000
3.261230 17.031357 -1.225056 22.000000
3.235017 17.186602 -1.235485 19.000000
3.210764 17.357544 -1.247042 15.000000
3.199024 17.603090 -1.263955 5.000000
2.988995 22.401476 -1.203007 1.000000
9.063702 -31.671459 -1.180326 1.000000
9.364061 -31.592297 -1.180612 16.000000
9.463265 -31.562723 -1.180612 13.000000
9.634634 -31.592293 -1.183405 23.000000
9.163582 -31.459509 -1.174024 51.000000
9.753205 -31.449226 -1.179753 42.000000
10.102854 -31.523399 -1.186055 56.000000
9.926175 -31.424370 -1.180755 36.000000
10.156258 -31.350801 -1.180755 55.000000
10.294497 -31.440310 -1.185338 39.000000
10.394477 -31.411608 -1.185482 46.000000
10.498180 -31.393961 -1.186055 62.000000
10.702978 -31.350077 -1.186914 43.000000
10.580121 -31.311594 -1.184193 50.000000
10.800105 -31.312523 -1.186771 48.000000
10.916839 -31.331285 -1.188776 14.000000
1.102348 -22.221176 -1.184296 0.000000
1.206509 -22.205736 -1.183764 45.000000
0.504941 -22.080933 -1.175685 2.500000
0.643788 -22.081316 -1.175897 2.000000
1.362040 -22.117069 -1.179533 52.799999
-0.826776 -21.521635 -1.146450 30.000000
-7.228444 -21.282112 -1.196415 45.000000
-2.158739 -21.252401 -1.137094 70.000000
-7.471312 -21.227684 -1.197904 39.000000
-7.314349 -21.206240 -1.194077 43.000000
-5.682096 -21.146900 -1.165585 40.333332
-5.410215 -21.147999 -1.161971 41.500000
-4.021001 -21.179127 -1.147513 41.500000
-2.641240 -21.145491 -1.134330 32.333332
-5.536942 -21.090397 -1.160695 43.500000
-5.252145 -21.080797 -1.156443 41.000000
-5.077692 -21.085106 -1.154458 40.666668
-4.900011 -21.073158 -1.151659 54.000000
-4.760914 -21.074306 -1.150064 50.500000
-4.625387 -21.090153 -1.149320 47.500000
-4.483658 -21.075821 -1.146981 52.000000
-4.344313 -21.070320 -1.145174 39.000000
-4.186271 -21.072933 -1.143643 37.000000
-3.861197 -21.058605 -1.139646 35.500000
-3.732199 -21.102133 -1.140709 33.500000
-2.539792 -21.049314 -1.128589 31.000000
-2.339093 -21.052465 -1.127526 35.000000
-2.239667 -21.061241 -1.127420 38.000000
-2.011535 -21.122396 -1.129440 41.000000
-1.906806 -21.073929 -1.126357 52.000000
-1.785167 -21.082579 -1.126251 28.333334
-1.640873 -21.084282 -1.125719 35.500000
-1.440547 -21.076895 -1.124550 48.000000
-1.306906 -21.065592 -1.123487 37.000000
-1.175079 -21.083359 -1.124018 41.500000
-1.008763 -21.077999 -1.123274 32.000000
-0.875476 -21.063969 -1.122211 57.000000
-3.570945 -21.023336 -1.135110 33.666668
-3.444818 -21.013336 -1.133480 40.000000
-3.278465 -21.031803 -1.133054 40.666668
-3.108223 -21.023361 -1.131247 42.000000
-2.972415 -21.016769 -1.129865 53.000000
-2.839768 -21.031073 -1.129653 36.500000
-2.736512 -21.012558 -1.127952 45.000000
-2.436202 -21.023327 -1.126570 38.500000
-2.069273 -21.028521 -1.124762 56.000000
-1.537553 -21.038027 -1.122849 50.000000
-1.072943 -21.034836 -1.121148 44.000000
-0.940576 -21.037170 -1.120935 48.000000
7.998955 -21.013201 -1.196841 47.000000
8.059200 -20.973051 -1.195990 30.000000
8.130386 -20.864101 -1.191950 37.500000
8.265315 -20.918453 -1.197266 10.000000
8.393601 -20.858698 -1.196841 33.000000
8.541154 -20.846205 -1.199179 32.000000
3.580148 -15.606718 -1.131189 1.000000
3.480948 -15.396053 -1.115122 2.000000
3.394384 -15.235553 -1.102719 2.000000
0.925014 -13.499885 -1.192190 14.000000
1.044105 -13.387241 -1.183062 255.000000
1.204740 -13.289770 -1.175690 255.000000
2.177867 -13.270384 -1.184818 5.000000
2.232039 -13.338146 -1.191488 4.000000
1.283268 -13.230420 -1.171126 255.000000
1.383216 -13.183203 -1.167879 255.000000
2.099995 -13.184070 -1.176217 7.000000
1.560957 -13.091443 -1.161589 42.833332
1.933565 -13.062517 -1.163403 13.000000
2.004448 -13.114292 -1.168844 10.000000
1.679533 -13.038638 -1.158254 166.000000
1.825168 -13.035776 -1.159717 58.000000
4.407610 -10.293645 -1.183831 1.000000
4.383144 -10.148284 -1.168691 1.000000
4.383829 -10.020018 -1.156285 1.500000
4.405800 -9.858776 -1.141636 2.000000
4.447877 -9.686142 -1.126847 2.000000
4.507908 -9.558357 -1.117280 2.750000
4.583698 -9.448278 -1.110236 17.333334
4.679371 -9.381229 -1.108343 54.250000
4.733984 -9.307026 -1.103927 8.000000
4.813011 -9.245666 -1.101993 9.200000
4.942507 -9.209989 -1.105049 7.000000
5.023920 -9.187776 -1.107082 7.000000
5.127281 -9.170336 -1.110761 8.000000
5.268912 -9.151716 -1.116439 8.000000
5.415442 -9.138679 -1.123062 10.500000
-2.696527 -7.943714 -1.183614 1.000000
-2.621246 -7.642972 -1.140024 1.000000
-2.620698 -7.488040 -1.119347 3.333333
3.965602 -7.470971 -1.193393 0.500000
-2.640717 -7.359100 -1.103141 6.500000
3.939224 -7.309904 -1.171599 1.000000
3.935146 -7.167071 -1.153623 2.000000
-2.762357 -6.966259 -1.190949 3.000000
-2.698419 -7.029960 -1.196704 6.666667
3.943080 -7.023739 -1.136485 2.000000
3.968134 -6.865060 -1.118789 2.400000
3.914637 -6.698819 -1.198069 6.750000
4.042306 -6.698414 -1.187565 4.200000
4.088264 -6.295357 -1.192937 103.166664
4.225806 -6.246044 -1.198483 48.500000
4.706002 -6.233750 -1.102024 0.000000
3.704793 -5.277260 -1.140762 0.000000
3.664106 -5.065648 -1.162419 0.666667
3.609531 -4.734879 -1.161085 1.000000
3.604485 -4.598800 -1.186944 0.888889
3.598581 -4.458294 -1.163625 0.555556
3.622719 -4.326166 -1.159087 0.142857
3.743659 -4.284661 -1.109596 0.750000
3.675511 -4.200061 -1.190419 0.000000
3.745872 -4.142853 -1.156826 3.166667
3.803158 -4.041443 -1.183670 8.000000
3.939479 -3.976619 -1.182432 2.111111
4.078289 -3.963700 -1.157232 2.769231
4.351033 -3.975798 -1.149409 2.250000
4.140769 -3.929443 -1.113232 1.000000
4.226454 -3.932503 -1.191830 2.250000
4.366376 -3.914752 -1.179137 2.333333
4.527885 -3.908128 -1.166444 1.666667
4.671518 -3.905883 -1.187499 1.000000
4.824817 -3.897832 -1.193474 1.000000
4.975584 -3.881672 -1.168381 0.909091
5.110940 -3.870844 -1.172845 1.000000
5.224246 -3.855263 -1.148706 0.800000
-7.678185 -2.200234 -1.126948 3.800000
-7.738342 -2.047367 -1.129407 1.000000
-7.692547 -2.126104 -1.126054 4.000000
-10.548864 -2.039029 -1.135889 2.000000
-10.276992 -2.019993 -1.107292 1.000000
-9.334422 -1.987501 -1.177226 1.000000
-9.211726 -1.991646 -1.162535 0.000000
-8.987113 -1.987372 -1.135357 0.000000
-8.797584 -1.989075 -1.112586 0.000000
-8.158150 -1.954082 -1.183614 3.000000
-8.048050 -1.954464 -1.168525 3.000000
-7.908048 -1.959898 -1.149525 1.000000
-7.798878 -1.971970 -1.134995 0.000000
-6.103394 -1.773552 -1.155980 6.272727
-5.978370 -1.774371 -1.178082 4.000000
-5.808737 -1.753693 -1.183288 4.000000
-5.679441 -1.753660 -1.159170 2.500000
-5.494882 -1.747850 -1.166448 1.200000
-5.381618 -1.756085 -1.177674 0.571429
9.296519 -1.758555 -1.167082 14.142858
9.307026 -1.615944 -1.165228 33.500000
9.338695 -1.455717 -1.165865 14.400000
5.563697 -1.360909 -1.158807 1.000000
5.703510 -1.353432 -1.196480 2.500000
9.380680 -1.341726 -1.168901 14.666667
5.845675 -1.338791 -1.169507 3.500000
5.997689 -1.333980 -1.198218 4.000000
6.165464 -1.330697 -1.192163 2.000000
6.299583 -1.318283 -1.138672 1.500000
6.456471 -1.298251 -1.165152 1.666667
6.634625 -1.290842 -1.195814 6.000000
6.933862 -1.281329 -1.152218 7.750000
9.434223 -1.273861 -1.174288 10.500000
6.961462 -1.241279 -1.123773 0.000000
9.505042 -1.222652 -1.182123 8.000000
9.607112 -1.174455 -1.193876 6.000000
10.408724 -1.090327 -1.106451 5.000000
10.582269 -1.074908 -1.124534 5.000000
10.755818 -1.058408 -1.142618 5.000000
10.945207 -1.042337 -1.162383 7.000000
11.102908 -1.022168 -1.178784 4.000000
9.603949 -0.248208 -1.185061 7.000000
9.509389 -0.126265 -1.173113 10.400000
9.445092 0.023026 -1.165082 20.200001
9.411998 0.111709 -1.161066 21.000000
9.380271 0.199717 -1.157344 20.600000
9.347413 0.345986 -1.153818 20.600000
8.401247 0.484330 -1.187339 43.500000
8.408775 0.598974 -1.189425 36.200001
9.291399 0.695362 -1.149313 30.000000
9.312822 0.785308 -1.152839 27.200001
9.329355 0.934538 -1.156561 15.000000
9.372953 1.058022 -1.163514 11.000000
9.431378 1.139677 -1.171839 7.000000
9.488940 1.192003 -1.179674 3.000000
10.698490 1.446492 -1.141356 8.000000
-8.097939 1.713283 -1.167854 30.799999
-7.187182 1.669905 -1.172638 2.333333
12.488119 1.728427 -1.110744 3.000000
-8.080332 1.770653 -1.167128 55.000000
10.297651 1.889972 -1.106871 10.000000
10.440553 1.882315 -1.121590 6.000000
10.830273 1.917466 -1.162804 2.000000
11.161527 1.939969 -1.197709 1.000000
-8.077391 1.997471 -1.174002 55.799999
6.652388 2.165334 -1.153726 4.000000
6.763225 2.170132 -1.128796 2.000000
6.914659 2.182763 -1.152339 1.000000
7.126696 2.212898 -1.185926 3.000000
7.506179 2.202073 -1.103700 0.000000
7.526299 2.259477 -1.108730 7.333333
3.495091 16.556890 -1.195458 88.000000
3.597394 16.526854 -1.194894 89.000000
3.400627 16.625483 -1.198841 67.000000
3.175395 21.477772 -1.155699 2.500000
3.312408 21.471212 -1.156443 4.000000
3.423598 21.518507 -1.159845 6.000000
3.093096 21.624985 -1.162821 1.000000
3.520623 21.689013 -1.169625 21.000000
3.625427 21.687912 -1.170476 21.000000
3.731649 21.694233 -1.171751 12.000000
3.049482 21.808653 -1.172177 1.000000
3.010693 22.035793 -1.183871 2.000000
9.283258 -26.642916 -1.010889 31.000000
12.892352 -26.374804 -1.051852 4.000000
11.160029 -26.304144 -1.023780 4.000000
11.313989 -26.207817 -1.022777 3.000000
11.418611 -26.223454 -1.024782 6.000000
12.837340 -26.054476 -1.040680 3.000000
10.737599 -25.986986 -1.007452 10.000000
11.428606 -26.022751 -1.018337 2.000000
13.007951 -25.987600 -1.041253 2.000000
3.318273 -15.117532 -1.093417 2.000000
3.241251 -14.991384 -1.083551 3.000000
3.167547 -14.876610 -1.074531 3.000000
3.069774 -14.758535 -1.064947 3.000000
2.955730 -14.553882 -1.049162 2.000000
2.847270 -14.366043 -1.034645 2.000000
2.747255 -14.212842 -1.022665 4.000000
2.682477 -14.115565 -1.015054 3.000000
2.618337 -14.018024 -1.007443 2.000000
2.556998 -13.931993 -1.000678 3.000000
4.851194 -10.412906 -1.012097 1.000000
4.848307 -10.321877 -1.004725 1.000000
-2.805298 -8.010673 -1.046967 2.000000
-2.819686 -7.931914 -1.038398 2.000000
-2.791744 -7.737416 -1.014647 1.000000
4.276499 -7.639440 -1.079940 0.666667
4.233530 -7.461630 -1.058230 1.000000
-2.667164 -7.288431 -1.095038 6.000000
4.219164 -7.302102 -1.040275 1.000000
-2.716875 -7.178997 -1.083023 7.200000
4.223234 -7.152606 -1.024604 1.000000
-2.765884 -7.105114 -1.075758 9.000000
-2.835303 -7.021428 -1.068414 6.285714
4.242269 -7.007836 -1.010485 1.250000
4.031745 -6.657225 -1.098112 3.500000
4.088368 -6.563449 -1.091033 4.666667
4.165545 -6.403544 -1.077854 6.500000
4.262921 -6.301042 -1.073383 8.500000
4.380133 -6.259979 -1.077994 19.166666
4.536039 -6.256712 -1.050851 14.000000
4.656203 -6.250550 -1.002696 10.100000
5.248796 -6.193485 -1.001426 13.666667
5.348115 -6.181608 -1.008281 9.000000
5.426448 -6.202950 -1.016606 1.000000
3.952781 -5.458505 -1.071038 2.666667
-2.176385 -5.379912 -1.026756 1.200000
3.905685 -5.346224 -1.052204 0.000000
3.836976 -5.200628 -1.027091 0.000000
3.818114 -5.057888 -1.007127 0.000000
3.664193 -5.015662 -1.098950 0.000000
3.659884 -4.928288 -1.086058 0.000000
3.660537 -4.786219 -1.066059 0.000000
3.654883 -4.611763 -1.041111 0.000000
3.738582 -4.523991 -1.038324 0.000000
-2.132050 -4.363734 -1.035880 5.250000
-2.224555 -4.300741 -1.005114 13.615385
3.839814 -4.289402 -1.018579 6.583333
-2.344711 -4.151131 -1.038700 52.666668
-2.267712 -4.208002 -1.048594 21.666666
3.787394 -4.159157 -1.097045 8.000000
3.880844 -4.150135 -1.030766 2.750000
3.845828 -4.073964 -1.092560 1.000000
-2.654309 -3.951264 -1.024953 20.888889
-2.514211 -3.980806 -1.041256 31.523809
-2.387219 -4.039013 -1.065225 33.250000
3.908207 -4.025964 -1.082817 0.111111
-2.956950 -3.933857 -1.049648 9.400000
-2.821840 -3.931043 -1.032126 12.777778
-2.652132 -3.934867 -1.081747 35.599998
4.419472 -3.925104 -1.045757 0.000000
4.532872 -3.916622 -1.041771 0.000000
4.687708 -3.915166 -1.043722 0.333333
4.800102 -3.899416 -1.071970 0.200000
5.130716 -3.868896 -1.021232 0.000000
5.269115 -3.870550 -1.039020 0.000000
-18.506758 -3.577239 -1.003356 1.000000
-18.478662 -3.511627 -1.001230 3.000000
-10.145772 -2.027325 -1.093835 1.000000
-9.960033 -2.022769 -1.074489 0.000000
-9.770530 -2.016268 -1.054724 0.000000
-9.588953 -2.010223 -1.035799 0.000000
-9.423075 -2.006377 -1.018557 0.000000
-9.253429 -2.000663 -1.000894 1.000000
-8.651993 -1.984752 -1.094957 0.000000
-8.463984 -1.969631 -1.071942 0.000000
-8.246038 -1.959902 -1.045498 2.000000
-8.024529 -1.947268 -1.018565 0.000000
-7.897850 -1.969087 -1.004037 0.000000
-6.097191 -1.767937 -1.008885 0.000000
-5.671850 -1.748077 -1.014021 0.333333
-5.533768 -1.756395 -1.027174 0.666667
-5.372975 -1.763597 -1.025932 0.000000
-5.218818 -1.765344 -1.024559 0.000000
-5.093814 -1.763357 -1.002281 0.000000
-4.929124 -1.758455 -1.020591 0.000000
9.388971 -1.698661 -1.008744 18.916668
9.408397 -1.587933 -1.008744 9.666667
19.443680 -1.595162 -1.038474 0.833333
9.433692 -1.516080 -1.010146 8.500000
9.563539 -1.444655 -1.022552 20.000000
19.436283 -1.451191 -1.037482 1.000000
5.008785 -1.390001 -1.013700 0.000000
5.125924 -1.384333 -1.035444 0.400000
5.424676 -1.361494 -1.034386 0.222222
5.569839 -1.349500 -1.013933 1.000000
5.702814 -1.343812 -1.036581 0.500000
5.884580 -1.337932 -1.040533 0.500000
6.008419 -1.331447 -1.005751 0.250000
6.332999 -1.321817 -1.028138 0.000000
6.489686 -1.304892 -1.051994 0.333333
6.641824 -1.292215 -1.035119 1.333333
9.612525 -1.313374 -1.025706 31.600000
19.435055 -1.328363 -1.036950 4.500000
9.667983 -1.228209 -1.030332 10.000000
9.786068 -1.180669 -1.042108 9.000000
19.436872 -1.175203 -1.036525 1.333333
9.931637 -1.135079 -1.056827 4.000000
10.077479 -1.119686 -1.071966 3.000000
10.266827 -1.108083 -1.091732 5.000000
19.443937 -1.053046 -1.036525 1.000000
11.418565 -1.015062 -1.009991 2.000000
11.723417 -1.005052 -1.036672 2.000000
12.099796 -0.999036 -1.069671 3.000000
12.226008 -0.970797 -1.080554 3.000000
12.435596 -0.948134 -1.098809 2.000000
19.451139 -0.992159 -1.036737 1.000000
19.478210 -0.870845 -1.037871 2.000000
19.576960 -0.721241 -1.042797 16.500000
19.570185 -0.628694 -1.042266 35.000000
19.639938 -0.569176 -1.045880 2.000000
19.885204 -0.513767 -1.058850 1.000000
9.944381 -0.288194 -1.051780 3.000000
9.763199 -0.213958 -1.032435 12.750000
9.641543 -0.112869 -1.019398 20.250000
9.540720 0.015708 -1.008674 13.083334
9.471950 0.171898 -1.001567 18.200001
8.557839 0.397590 -1.056761 40.000000
8.403547 0.482984 -1.038316 44.166668
8.421157 0.598407 -1.041385 32.200001
9.519489 0.938416 -1.011303 30.000000
9.544516 1.016645 -1.014772 25.000000
9.600398 1.098912 -1.021606 14.000000
9.653803 1.197366 -1.028440 6.500000
9.748676 1.255752 -1.039164 2.000000
9.886653 1.305114 -1.054303 3.000000
-8.126032 1.595718 -1.021503 0.500000
-7.182297 1.656831 -1.039993 2.800000
-8.097815 1.682876 -1.020230 78.599998
-8.077342 1.771478 -1.020034 57.500000
8.361355 1.900122 -1.057691 2.750000
9.900544 1.913713 -1.066079 8.000000
9.941678 1.889284 -1.069863 7.000000
10.002308 1.868268 -1.075751 3.000000
11.437852 1.950999 -1.022278 1.000000
-8.072797 2.003836 -1.026019 67.222221
9.792321 1.988663 -1.056406 9.200000
11.805477 1.975559 -1.054575 1.000000
12.232346 2.007509 -1.092139 1.000000
-8.074718 2.133494 -1.030220 65.599998
6.022324 2.121832 -1.014744 1.000000
6.201930 2.130601 -1.042159 1.000000
6.320414 2.138112 -1.060365 2.000000
6.445668 2.146626 -1.019098 3.000000
6.601853 2.156462 -1.020874 1.666667
9.815129 2.100549 -1.061172 5.666667
-8.112539 2.225429 -1.037663 0.000000
6.898773 2.177748 -1.020713 0.500000
7.078835 2.185777 -1.045302 1.000000
9.630133 2.304877 -1.046874 27.333334
9.608310 2.427726 -1.047743 33.200001
8.325663 2.612296 -1.076349 0.000000
9.588963 2.583734 -1.049930 28.000000
9.574724 2.741933 -1.052958 20.000000
9.571872 2.865157 -1.056322 12.000000
19.986492 2.915703 -1.075151 255.000000
19.951702 3.049463 -1.074371 161.000000
19.916367 3.172267 -1.073521 156.500000
-4.150436 19.051521 -1.037907 7.000000
-4.024879 19.049862 -1.036418 4.000000
-3.867841 19.044966 -1.034469 1.000000
-3.740905 19.032377 -1.032485 1.000000
3.568132 19.634163 -1.062252 2.000000
3.539419 19.830088 -1.072245 3.000000
3.513646 20.049631 -1.083514 2.000000
3.496009 20.324320 -1.097759 1.000000
-8.779068 -26.375477 -0.995994 1.000000
-8.678655 -26.349771 -0.993989 32.000000
-8.550699 -26.378929 -0.993559 33.500000
-8.362448 -26.361637 -0.990909 36.500000
-8.219643 -26.341650 -0.988689 58.000000
-7.231598 -26.343933 -0.978807 58.000000
-0.769694 -26.399836 -0.946294 39.000000
-8.077248 -26.320820 -0.986469 53.000000
-7.900802 -26.334675 -0.985108 60.500000
-7.764168 -26.329479 -0.983533 50.000000
-7.628333 -26.325420 -0.982029 57.500000
-7.451344 -26.332443 -0.980525 57.000000
-7.319676 -26.340342 -0.979523 53.000000
-4.871089 -26.307669 -0.958612 6.000000
-0.933290 -26.330559 -0.944003 12.000000
9.254108 -26.293112 -0.998715 51.000000
-0.847596 -26.241467 -0.940708 50.000000
9.579654 -26.163486 -0.998285 39.000000
9.322758 -26.094837 -0.992843 60.500000
9.470158 -26.118294 -0.995421 50.000000
9.657643 -26.122013 -0.997856 42.000000
9.743856 -26.102779 -0.998285 4.000000
10.180951 -23.788324 -0.927102 2.000000
9.958446 -23.678637 -0.920370 1.000000
0.815830 -13.813442 -0.977564 1.000000
2.464721 -13.794599 -0.989967 2.500000
0.854268 -13.731163 -0.971926 3.000000
2.375021 -13.664570 -0.979819 3.000000
0.934075 -13.632603 -0.965349 4.000000
2.318661 -13.593298 -0.974181 3.000000
1.074032 -13.497505 -0.956564 3.000000
2.234080 -13.480053 -0.965302 3.000000
1.173328 -13.411219 -0.951067 2.000000
1.253545 -13.361168 -0.948060 4.333333
2.126123 -13.348028 -0.954872 3.500000
1.374098 -13.297163 -0.944396 4.666667
1.474833 -13.252939 -0.942047 6.000000
2.047611 -13.257372 -0.947685 4.000000
1.555985 -13.225578 -0.940778 5.000000
1.676753 -13.180578 -0.938664 6.000000
1.822194 -13.165326 -0.938946 9.333333
1.953622 -13.197559 -0.942517 3.333333
4.845496 -10.190977 -0.994194 1.000000
4.861001 -10.019955 -0.981204 1.000000
4.885714 -9.872538 -0.970497 1.000000
4.904561 -9.794180 -0.965056 1.000000
4.931595 -9.695694 -0.958386 1.000000
4.976616 -9.578465 -0.951014 1.000000
5.023748 -9.468235 -0.944343 1.500000
5.077076 -9.389925 -0.940482 2.000000
5.146708 -9.307951 -0.937088 2.666667
5.266203 -9.247515 -0.937603 7.000000
5.563785 -9.245051 -0.950662 0.000000
5.392090 -9.231130 -0.941886 4.000000
5.626799 -9.132091 -0.945046 6.000000
5.731765 -9.066522 -0.945046 5.666667
5.689358 -9.041546 -0.941184 7.000000
-3.179419 -8.125468 -0.922463 1.500000
-2.799082 -7.607957 -0.999956 1.333333
4.735615 -7.569571 -0.943981 1.166667
-2.823356 -7.456237 -0.983470 2.000000
4.709428 -7.466928 -0.933327 1.000000
4.723887 -7.352563 -0.923935 1.000000
-2.902474 -7.249362 -0.963229 3.000000
-2.865948 -7.324610 -0.970208 2.750000
-2.946675 -7.163649 -0.955492 3.000000
4.687754 -7.172095 -0.905851 1.500000
-3.017724 -7.051207 -0.946090 3.000000
-3.062550 -6.973399 -0.939479 3.000000
4.275466 -6.866336 -0.997753 2.000000
4.298561 -6.783912 -0.990652 2.000000
4.329398 -6.692424 -0.983209 3.200000
4.400173 -6.550787 -0.973431 8.000000
4.449956 -6.469886 -0.968616 4.000000
4.502787 -6.395097 -0.964780 3.833333
4.822148 -6.225499 -0.971358 16.200001
4.971928 -6.214695 -0.981740 14.200000
5.128605 -6.208058 -0.993297 13.600000
6.172140 -6.142049 -0.920570 0.000000
-2.335336 -5.356243 -0.928615 0.857143
4.090466 -5.394871 -0.955236 0.000000
4.080788 -5.300884 -0.943873 0.000000
4.114883 -5.249239 -0.941079 0.000000
-2.334311 -5.206356 -0.906762 2.000000
-2.170820 -5.210159 -0.998602 2.750000
5.799027 -5.152238 -0.956863 0.000000
5.833041 -5.149759 -0.959801 1.000000
-2.173057 -5.058116 -0.973980 3.000000
4.110819 -5.071189 -0.921073 0.000000
5.840293 -5.091290 -0.955721 3.666667
-2.189987 -4.946869 -0.957139 3.000000
-2.208086 -4.863244 -0.944944 3.000000
4.104214 -4.919223 -0.903916 0.000000
-2.233450 -4.759635 -0.930194 3.500000
3.850945 -4.750432 -0.971844 0.000000
-2.276877 -4.641695 -0.914700 4.000000
3.836184 -4.694795 -0.963526 0.000000
-2.164665 -4.575391 -0.987094 3.000000
3.883503 -4.602956 -0.957091 0.000000
-2.226189 -4.467657 -0.973462 4.666667
3.910442 -4.525497 -0.950499 0.000000
3.955286 -4.376707 -0.937524 0.000000
-2.351211 -4.312946 -0.929808 5.000000
4.004132 -4.281931 -0.931665 1.000000
-2.394904 -4.178626 -0.939280 9.000000
3.990218 -4.213658 -0.922248 0.000000
-2.540029 -4.053931 -0.932968 11.888889
4.061566 -4.117239 -0.919109 0.000000
-2.980012 -3.956585 -0.984171 9.700000
-2.856464 -3.966371 -0.953215 10.000000
-2.685029 -4.025935 -0.904539 10.777778
4.532353 -3.974766 -0.958033 0.000000
-18.471413 -3.420157 -0.999954 3.500000
-18.453093 -3.267077 -0.997544 6.666667
-7.680053 -2.251634 -0.987224 1.666667
-4.737582 -2.308633 -0.932401 0.000000
-7.704753 -2.180230 -0.987714 3.666667
-7.753859 -2.062968 -0.989743 1.285714
3.905288 -2.062690 -0.901635 2.350000
-10.627889 -2.019691 -0.953120 0.000000
-10.480654 -2.025844 -0.940482 0.000000
-10.290479 -2.022644 -0.923982 0.000000
-10.135595 -2.025292 -0.910642 0.000000
-9.107226 -1.999020 -0.985755 0.000000
-8.953362 -1.994753 -0.969774 0.000000
-8.807374 -1.991289 -0.954634 0.000000
-8.614972 -1.976259 -0.934448 0.000000
-8.449875 -1.966348 -0.917206 0.000000
-8.312027 -1.961815 -0.902908 1.000000
-5.967558 -1.760805 -0.988795 0.000000
-5.793497 -1.752410 -0.997972 0.333333
4.111677 -1.519255 -0.902809 7.700000
4.558263 -1.442566 -0.915024 0.000000
4.935413 -1.403036 -0.907778 0.000000
5.002328 -1.388209 -0.918463 0.000000
5.265709 -1.374711 -0.999860 0.375000
5.576432 -1.360300 -0.912203 0.000000
5.725359 -1.349166 -0.934804 0.000000
6.314982 -1.342221 -0.910902 0.000000
6.148103 -1.330336 -0.999677 0.000000
6.466820 -1.332109 -0.931579 0.000000
6.593400 -1.325870 -0.948903 4.000000
6.741670 -1.300641 -0.968741 0.000000
6.885911 -1.294884 -0.988580 0.000000
10.272747 -1.141382 -0.910642 3.000000
10.403052 -1.122785 -0.921876 3.000000
10.533341 -1.103381 -0.933110 3.000000
10.671537 -1.083975 -0.945046 3.000000
10.833507 -1.066052 -0.959088 2.000000
11.015300 -1.049012 -0.974885 2.000000
11.208995 -1.031935 -0.991736 3.000000
9.426710 0.334071 -0.997250 18.166666
9.385302 0.702390 -0.995007 25.000000
9.396532 0.762638 -0.996689 15.333333
9.416025 0.838711 -0.999422 12.000000
10.420877 1.375636 -0.926089 2.000000
10.839008 1.465491 -0.963652 2.000000
-6.071817 1.623531 -0.998840 3.000000
-5.824679 1.606517 -0.960230 13.500000
-5.720055 1.606759 -0.944221 17.000000
-7.180593 1.664331 -0.909229 2.636364
8.384158 1.845792 -0.907618 2.000000
8.347416 1.914914 -0.905431 3.333333
10.078791 1.931695 -0.904147 4.000000
10.226830 1.910205 -0.916610 2.000000
10.393465 1.907557 -0.931003 1.000000
10.583710 1.908125 -0.947503 3.000000
10.856453 1.922101 -0.971375 2.000000
11.141163 1.936430 -0.996300 1.000000
5.558191 2.110217 -0.909503 0.000000
5.853745 2.114342 -0.989109 0.000000
6.022285 2.132550 -0.901402 0.000000
6.746994 2.164924 -0.999757 0.000000
7.082616 2.197856 -0.914750 0.000000
7.223904 2.204365 -0.931644 0.000000
7.392004 2.217708 -0.951966 1.000000
4.070379 3.174654 -0.913287 0.000000
4.093658 3.329404 -0.933562 0.500000
4.116177 3.434332 -0.948428 4.500000
4.138092 3.508208 -0.959810 2.000000
4.703370 4.329517 -0.901960 0.000000
3.763832 16.539749 -0.902928 89.333336
3.929399 16.544992 -0.905196 87.666664
3.605211 16.562782 -0.902290 190.666672
4.070331 16.558914 -0.907677 88.000000
4.212098 16.572845 -0.910228 89.666664
4.384421 16.594204 -0.913630 93.333336
4.526147 16.601688 -0.915969 94.000000
3.462128 16.659920 -0.905763 115.000000
3.366020 16.860935 -0.915225 37.500000
3.315992 17.027563 -0.923411 30.000000
3.288774 17.175205 -0.930852 21.000000
3.267311 17.358170 -0.940208 14.000000
3.289776 17.784687 -0.962745 22.000000
-17.425066 -39.827541 -0.802838 8.000000
-17.258476 -39.786694 -0.800918 60.000000
-17.128656 -39.829697 -0.800696 47.000000
-7.209286 -21.888536 -0.825698 10.000000
-7.209844 -21.660963 -0.817964 28.000000
-7.248549 -21.551064 -0.814670 44.000000
-8.188107 -21.408888 -0.821258 40.000000
-7.634624 -21.357914 -0.812664 41.000000
7.951522 -21.404060 -0.818107 17.500000
-8.256365 -21.286182 -0.818035 31.500000
-7.842483 -21.303768 -0.813381 36.000000
-7.497363 -21.289942 -0.808726 34.500000
-7.345260 -21.283703 -0.806720 30.000000
-7.232606 -21.282171 -0.805360 29.000000
-8.044329 -21.232647 -0.813524 34.000000
-7.908525 -21.174797 -0.809871 41.000000
-7.724856 -21.189342 -0.808081 41.000000
-7.646033 -21.179667 -0.806792 51.000000
7.945234 -21.082067 -0.807222 42.000000
8.963309 -21.126482 -0.822261 25.000000
8.010858 -20.956650 -0.803856 40.000000
8.278783 -20.963280 -0.807556 32.000000
8.430758 -20.961599 -0.809513 31.000000
9.048339 -20.959646 -0.817964 32.000000
10.362098 -21.030760 -0.840021 30.000000
8.100224 -20.894436 -0.802925 32.000000
8.561459 -20.843721 -0.807365 33.000000
8.715030 -20.905659 -0.811519 31.000000
9.191106 -20.927999 -0.818966 30.000000
9.247096 -20.877092 -0.818107 37.000000
9.656007 -20.907095 -0.825125 33.000000
9.713205 -20.858536 -0.824409 35.000000
10.791502 -20.899200 -0.842742 42.000000
8.457485 -20.838705 -0.805790 44.000000
8.760518 -20.830273 -0.809657 30.000000
8.919538 -20.840967 -0.812235 36.000000
9.074244 -20.839489 -0.814383 34.000000
9.334719 -20.809555 -0.817176 33.000000
9.485243 -20.794115 -0.818895 33.000000
10.065802 -20.757347 -0.826557 33.000000
10.340828 -20.767664 -0.831236 31.666666
10.530437 -20.792471 -0.835079 35.000000
10.671104 -20.826271 -0.838445 43.000000
10.798059 -20.751719 -0.838159 38.000000
10.965578 -20.754152 -0.841023 33.000000
9.773897 -20.732950 -0.821258 37.000000
9.931593 -20.728817 -0.823550 43.000000
10.115160 -20.693304 -0.825268 37.000000
10.857633 -20.707073 -0.837729 32.000000
11.006306 -20.673731 -0.839161 44.000000
11.125401 -20.662077 -0.840808 48.500000
11.292400 -20.660160 -0.843601 45.500000
11.430230 -20.680227 -0.846609 54.000000
3.153658 -15.043228 -0.818164 2.000000
3.087007 -14.959176 -0.813061 2.000000
5.570585 -10.601369 -0.846051 0.666667
5.117135 -7.606180 -0.807687 0.272727
4.689682 -7.005514 -0.891273 1.000000
4.692374 -6.891729 -0.881460 0.500000
4.763163 -6.653114 -0.865059 0.000000
4.877578 -6.400449 -0.850760 1.500000
4.884896 -6.327157 -0.845083 5.500000
4.978848 -6.283839 -0.847606 12.666667
5.106152 -6.260721 -0.854124 7.000000
5.142440 -6.126464 -0.845644 6.833333
5.217827 -6.079149 -0.846975 0.000000
5.132403 -5.612824 -0.804080 0.000000
-2.550538 -5.360545 -0.837583 1.000000
4.682167 -5.369233 -0.878757 0.500000
5.850143 -5.297147 -0.834359 0.000000
-2.540181 -5.219890 -0.819067 1.000000
4.654999 -5.221095 -0.862842 0.000000
5.874080 -5.219110 -0.830742 1.800000
-2.699237 -5.072170 -0.810684 2.666667
-2.542117 -5.121123 -0.806679 2.000000
-2.347037 -5.063612 -0.886965 2.000000
4.663963 -5.084567 -0.851089 0.000000
5.858725 -5.048334 -0.862816 4.166667
-2.719400 -4.977393 -0.800252 0.000000
5.860449 -4.949002 -0.810949 4.000000
-2.369285 -4.908001 -0.866122 2.200000
4.632906 -4.925131 -0.834072 0.500000
-2.411547 -4.764165 -0.848615 3.000000
4.112890 -4.775071 -0.889200 0.000000
4.615531 -4.799695 -0.821381 0.333333
4.151749 -4.714209 -0.886313 0.000000
4.684142 -4.661307 -0.815146 0.000000
-2.478396 -4.605135 -0.831126 3.714286
-2.345187 -4.595949 -0.889110 4.250000
4.210563 -4.608992 -0.880837 0.000000
-2.549588 -4.464854 -0.817125 4.000000
-2.367356 -4.466013 -0.894305 5.000000
4.271841 -4.496938 -0.875136 0.000000
-2.604447 -4.398621 -0.812382 4.000000
4.326716 -4.427598 -0.873460 0.000000
-2.643809 -4.324648 -0.805554 4.625000
-2.477499 -4.275685 -0.874282 5.000000
4.400644 -4.321418 -0.870247 0.000000
4.484803 -4.255937 -0.872342 0.000000
-2.529690 -4.167111 -0.884189 11.416667
4.522590 -4.158695 -0.866894 0.000000
-2.620908 -4.110837 -0.862540 5.750000
4.576373 -4.077370 -0.864798 0.000000
4.627612 -4.058241 -0.868430 0.000000
-3.429899 -4.019366 -0.883402 8.461538
-3.271974 -4.001611 -0.868005 5.928571
-3.127392 -4.014230 -0.854351 7.812500
-2.985753 -4.024527 -0.854137 10.214286
-2.811780 -4.009502 -0.895712 12.000000
4.949930 -3.944411 -0.893019 4.000000
5.436083 -3.942275 -0.828319 0.000000
5.004364 -3.911137 -0.896149 2.400000
5.485229 -3.938634 -0.832971 0.000000
-3.430787 -3.050285 -0.812192 0.000000
-3.319385 -3.133702 -0.807662 0.000000
-3.414092 -3.006752 -0.804875 0.000000
4.097689 -2.953982 -0.850806 3.588235
5.487708 -2.865247 -0.873460 1.000000
5.531850 -2.866213 -0.879048 1.000000
3.988526 -2.765332 -0.893803 4.200000
4.020623 -2.838374 -0.870728 3.000000
5.333002 -2.741967 -0.846077 1.000000
3.965293 -2.661782 -0.888162 3.071429
5.319913 -2.666567 -0.839625 1.000000
-7.706421 -2.457954 -0.855176 1.000000
-7.696655 -2.494857 -0.855386 0.000000
3.941360 -2.517149 -0.866894 1.733333
5.303463 -2.519672 -0.828474 0.500000
-7.725181 -2.357416 -0.853914 1.833333
3.915504 -2.364805 -0.853149 5.588235
5.295652 -2.384481 -0.819439 0.666667
-7.766984 -2.210968 -0.853774 13.166667
-4.791383 -2.225970 -0.839628 0.000000
3.910975 -2.221551 -0.870302 3.583333
-7.834912 -2.084776 -0.857152 10.000000
6.256415 -2.114072 -0.814607 0.000000
-9.937845 -2.018263 -0.893440 0.000000
-9.744143 -2.010823 -0.876589 0.000000
-9.605186 -2.013626 -0.864654 0.000000
-9.462409 -2.014752 -0.852367 1.000000
-9.280778 -2.006575 -0.836569 0.000000
-9.130427 -2.004112 -0.823580 0.000000
-8.949071 -1.993797 -0.807782 0.000000
-8.236188 -1.971254 -0.895338 0.000000
-8.070314 -1.971741 -0.878306 0.500000
-7.966365 -1.986238 -0.868002 0.000000
9.718388 -2.030282 -0.874717 8.000000
3.913059 -1.912063 -0.889102 2.650000
9.698471 -1.904526 -0.870797 8.500000
9.706988 -1.932682 -0.872026 8.666667
-5.992797 -1.788718 -0.882401 0.000000
-5.835588 -1.781836 -0.860886 0.000000
-5.678670 -1.778851 -0.881940 0.400000
-5.523218 -1.781738 -0.870518 0.000000
-5.391025 -1.789797 -0.861861 0.000000
-5.225882 -1.786088 -0.877673 0.000000
-5.054526 -1.783828 -0.883890 0.000000
-4.935129 -1.795260 -0.865985 0.000000
-4.783723 -1.796029 -0.857967 0.200000
-4.633159 -1.797915 -0.861119 0.000000
3.932572 -1.772714 -0.886797 38.000000
9.704341 -1.763616 -0.869007 9.000000
3.973131 -1.646839 -0.895884 88.000000
4.012080 -1.731220 -0.852151 76.000000
4.042112 -1.588163 -0.873254 22.066668
9.718272 -1.608857 -0.867883 9.200000
4.236047 -1.497403 -0.876192 0.000000
4.370937 -1.463874 -0.887071 0.142857
9.743924 -1.456222 -0.868024 9.400000
11.481204 -1.502576 -0.818019 0.000000
4.651348 -1.423912 -0.895699 0.000000
4.816181 -1.418315 -0.888266 0.000000
5.127180 -1.392468 -0.892077 0.000000
5.290344 -1.387848 -0.869198 1.000000
5.397443 -1.370673 -0.884998 0.333333
5.562863 -1.403447 -0.809473 0.000000
5.710052 -1.402443 -0.829591 0.000000
5.857977 -1.378782 -0.866869 0.000000
6.005917 -1.355634 -0.868710 0.000000
6.151660 -1.347984 -0.888548 0.000000
9.798722 -1.323028 -0.871148 9.750000
9.870131 -1.253889 -0.876589 9.000000
9.951071 -1.216505 -0.883260 7.500000
10.099033 -1.170212 -0.895722 5.000000
11.795968 -1.048611 -0.836623 0.000000
12.085439 -1.036088 -0.856919 4.000000
12.223835 -1.009278 -0.866503 2.000000
9.991380 -0.195334 -0.880451 3.000000
10.106240 -0.229343 -0.890632 1.000000
9.891940 -0.115758 -0.871587 3.750000
9.805888 0.023873 -0.863951 5.800000
9.742155 0.176783 -0.858475 6.000000
9.704257 0.282927 -0.855350 6.000000
8.479546 0.393953 -0.897440 41.000000
9.678612 0.388702 -0.853420 6.000000
8.401117 0.482843 -0.889660 43.833332
8.437957 0.599591 -0.894328 33.200001
9.753098 0.699111 -0.861494 0.000000
9.652775 0.790225 -0.853303 6.777778
9.666514 0.937639 -0.855666 6.000000
9.687796 1.047309 -0.858510 5.000000
9.724569 1.113155 -0.862372 5.000000
9.776600 1.165788 -0.867462 4.000000
9.903443 1.228353 -0.879222 2.500000
10.124803 1.304202 -0.899408 1.000000
-8.193117 1.555512 -0.881670 41.000000
-6.067282 1.642758 -0.886872 3.000000
-5.978054 1.638776 -0.874578 9.000000
-5.830379 1.637619 -0.854460 13.000000
-5.654605 1.626766 -0.882444 18.750000
-5.520333 1.633215 -0.853302 19.200001
-5.392479 1.624889 -0.895043 19.666666
-5.243430 1.630448 -0.872651 20.000000
-8.167602 1.684024 -0.881670 69.833336
-8.152671 1.783540 -0.882301 49.666668
-8.147882 1.989264 -0.886717 34.000000
9.918516 1.997945 -0.891422 7.500000
-8.149444 2.105343 -0.889871 62.625000
5.114697 2.124720 -0.880185 1.500000
5.282655 2.112297 -0.878758 0.500000
5.419180 2.106241 -0.889635 0.166667
5.737203 2.143796 -0.864146 0.000000
5.883737 2.135578 -0.883146 0.000000
9.827694 2.086073 -0.885155 9.200000
-8.157348 2.245632 -0.894497 51.714287
6.175188 2.161970 -0.853364 0.400000
6.318938 2.159119 -0.882759 0.500000
6.447525 2.168537 -0.839092 0.000000
6.587343 2.169578 -0.855497 0.000000
6.761426 2.179916 -0.876309 0.000000
6.928443 2.189776 -0.896304 0.000000
7.301374 2.240618 -0.807444 1.000000
7.475861 2.268490 -0.825948 1.000000
9.711019 2.324236 -0.879749 15.333333
9.686777 2.431363 -0.879925 15.250000
9.668723 2.572682 -0.881504 12.800000
9.652422 2.731407 -0.883821 15.400000
4.303718 2.823789 -0.818032 0.000000
4.270534 2.889379 -0.819444 0.875000
9.652592 2.879436 -0.887472 16.000000
4.251240 3.034793 -0.830117 1.000000
9.676476 2.986148 -0.892211 10.000000
9.740254 3.056145 -0.899408 1.000000
4.241902 3.181622 -0.842696 0.857143
4.235044 3.335289 -0.856720 1.000000
4.230980 3.485523 -0.871186 3.833333
4.216054 4.318834 -0.851572 0.000000
4.331907 4.313787 -0.862563 0.000000
4.526449 4.327081 -0.883519 0.000000
4.621027 4.307670 -0.891343 0.000000
4.109260 11.617228 -0.870543 29.333334
4.239442 11.578463 -0.871083 82.000000
4.380752 11.568809 -0.873926 87.666664
-3.340225 14.773663 -0.806257 0.000000
-18.946396 14.914694 -0.863939 1.000000
-3.338966 14.986818 -0.817313 4.000000
-3.356954 15.293744 -0.833472 0.000000
3.128258 22.343596 -0.808368 1.000000
3.283838 23.817902 -0.861457 30.333334
3.157990 23.922947 -0.864584 5.000000
3.062650 24.074400 -0.869525 4.000000
2.958323 24.482086 -0.883561 3.000000
-16.979923 -39.828125 -0.799588 54.000000
-16.837587 -39.840748 -0.798776 2.000000
-16.687616 -39.834431 -0.797594 57.000000
-16.530182 -39.809097 -0.796043 9.000000
11.241160 -39.280190 -0.754535 7.000000
11.900864 -39.244209 -0.757341 28.000000
9.239712 -39.178345 -0.743382 56.000000
9.497005 -39.166157 -0.744268 53.000000
9.626678 -39.163315 -0.744785 56.000000
9.762237 -39.183327 -0.745746 52.000000
10.024100 -39.183205 -0.746927 56.000000
10.212133 -39.149040 -0.747186 51.500000
10.674093 -39.152111 -0.749438 57.000000
11.739610 -39.154987 -0.754904 36.000000
12.007679 -39.153099 -0.756307 29.000000
12.155492 -39.195404 -0.757858 24.000000
9.359030 -39.133568 -0.743087 55.000000
9.875498 -39.113689 -0.745007 53.000000
10.393969 -39.090862 -0.747001 63.000000
10.529203 -39.104359 -0.747887 60.000000
10.797033 -39.118385 -0.749438 59.000000
10.917724 -39.076569 -0.749291 61.000000
11.067640 -39.138287 -0.751137 50.000000
11.320012 -39.091022 -0.751580 11.000000
11.585856 -39.088150 -0.752910 33.000000
12.248653 -39.061619 -0.756012 42.000000
12.465349 -39.106304 -0.758006 29.000000
12.664327 -39.092827 -0.758892 30.000000
12.790804 -39.064251 -0.759114 27.000000
12.938595 -39.099812 -0.760591 24.000000
10.450595 -36.956242 -0.709260 3.000000
10.741078 -36.660374 -0.705493 46.000000
