# This PCD file was generated using the MATLAB® pcwrite function
# from Computer Vision Toolbox®.
# .PCD v.7 - Point Cloud Data file format
VERSION .7
FIELDS x y z intensity
SIZE 4 4 4 4
TYPE F F F F
COUNT 1 1 1 1
WIDTH 1212
HEIGHT 1
VIEWPOINT 0 0 0 1 0 0 0
POINTS 1212
DATA ascii
6.221674 25.639387 -0.487242 4.500000
6.043939 25.788712 -0.489162 3.000000
6.117528 25.738470 -0.488572 5.000000
-3.284214 -18.381731 -0.344844 24.000000
-4.483355 -18.225435 -0.346616 18.000000
-4.329611 -18.215946 -0.345779 22.000000
-4.179095 -18.217594 -0.345176 21.000000
-4.027117 -18.210115 -0.344425 20.333334
-3.876186 -18.204716 -0.343736 21.000000
-3.725608 -18.197987 -0.343046 20.000000
-3.575870 -18.192719 -0.342406 20.000000
-3.309737 -18.194258 -0.341520 27.000000
-4.593789 -18.181412 -0.346321 10.500000
-3.426731 -18.187447 -0.341791 21.000000
-2.821253 -18.078064 -0.337901 6.000000
-4.631577 -17.973677 -0.342776 3.000000
-2.847838 -17.879534 -0.334356 66.000000
-4.638524 -17.769424 -0.339157 1.000000
-2.879615 -17.720493 -0.331549 77.000000
-4.643213 -17.561443 -0.335464 1.000000
-4.648709 -17.361334 -0.331918 1.000000
-4.658226 -17.180666 -0.328743 1.000000
-4.665593 -16.996254 -0.325493 1.000000
-3.652307 -10.529402 -0.399314 36.000000
-3.656671 -10.383888 -0.394444 36.000000
-3.665074 -10.202703 -0.388429 31.000000
-3.666637 -10.057614 -0.383559 22.000000
-4.038824 -9.901815 -0.383158 21.400000
-3.864603 -9.917066 -0.381354 70.000000
-3.708069 -9.928276 -0.379728 25.500000
-4.094430 -9.730899 -0.378260 20.000000
-4.101996 -9.580036 -0.373390 22.500000
-4.107821 -9.429475 -0.368521 24.000000
-4.113548 -9.282871 -0.363794 26.000000
-4.121700 -9.145687 -0.359426 26.500000
-4.125793 -9.003321 -0.354842 26.500000
-4.130368 -8.902181 -0.351620 26.000000
-4.134599 -8.838470 -0.349615 26.000000
-4.140725 -8.708848 -0.345509 26.666666
-4.148289 -8.550768 -0.340520 27.000000
-4.155106 -8.429514 -0.336724 27.000000
-4.158256 -8.271639 -0.331711 16.666666
-4.170193 -8.104115 -0.326555 7.333333
-4.174363 -7.957819 -0.321972 6.000000
-4.181383 -7.821396 -0.317771 6.333333
-4.188430 -7.660052 -0.312806 7.000000
-4.194121 -7.501602 -0.307936 28.000000
-4.203136 -7.354158 -0.303496 10.000000
6.483443 -6.274157 -0.323261 0.000000
6.524659 -6.176641 -0.321915 1.000000
6.555317 -6.070317 -0.320110 1.500000
6.565167 -5.976822 -0.318105 1.000000
6.589957 -5.857122 -0.315899 1.000000
6.660035 -5.716472 -0.314477 1.000000
6.750439 -5.618958 -0.314694 1.937500
18.715612 -5.391371 -0.359689 0.000000
7.016028 -5.381643 -0.316816 0.000000
18.863239 -5.369776 -0.362200 1.000000
19.060963 -5.361384 -0.365672 1.000000
19.346203 -5.343363 -0.370657 23.500000
5.431950 -4.219528 -0.366132 0.000000
10.057230 -4.047086 -0.388429 29.000000
10.068181 -3.905153 -0.386925 45.000000
10.257954 -3.867905 -0.392797 49.000000
10.401580 -3.866247 -0.397595 48.000000
10.462442 -3.851502 -0.399457 9.000000
-2.494555 -2.973045 -0.341930 55.000000
-2.476073 -2.734770 -0.399292 38.714287
-2.500563 -2.600910 -0.317882 65.000000
-2.612810 -1.667091 -0.300328 38.000000
-2.805469 -1.333402 -0.328445 23.500000
-2.650666 -1.353322 -0.314672 25.500000
-3.342989 -1.212785 -0.375966 9.000000
-2.800738 -1.116815 -0.318772 44.000000
-2.652728 -1.045382 -0.312514 27.277779
7.398554 -0.869134 -0.396537 2.333333
-2.748903 -0.504518 -0.344745 35.000000
-2.903356 -0.290818 -0.359926 34.000000
-2.775361 -0.334529 -0.344843 26.200001
-2.779490 -0.137885 -0.343276 50.000000
-2.657604 -0.167054 -0.395407 31.840910
7.309009 -0.096956 -0.389095 1.000000
7.336186 -0.143411 -0.390584 0.000000
-2.617068 -0.014897 -0.322954 51.000000
7.324478 -0.039634 -0.389893 0.500000
-2.635139 0.366364 -0.383876 28.892857
-2.771943 0.743580 -0.320079 37.500000
-2.675432 0.748453 -0.304630 34.304348
7.272446 0.751559 -0.389181 3.800000
-2.799408 0.815423 -0.308259 37.000000
7.285317 0.857165 -0.390477 0.000000
-2.616389 1.201395 -0.375052 40.956520
-2.628178 1.333383 -0.392364 35.150002
-2.755132 1.579795 -0.391756 38.500000
10.956293 1.532023 -0.396378 0.500000
10.954165 1.637116 -0.396843 3.500000
10.943583 1.776378 -0.397237 0.000000
10.987461 1.890010 -0.399457 0.000000
-2.585754 1.932019 -0.398183 59.250000
-2.580901 2.093293 -0.390202 63.555557
-2.578307 2.184280 -0.357252 43.500000
-3.421705 2.489667 -0.372823 7.000000
-2.767438 2.559186 -0.332100 50.333332
-2.759965 2.658348 -0.310983 33.400002
-2.779806 2.810051 -0.348249 48.000000
-2.934396 3.032294 -0.371769 35.000000
-2.842538 3.012349 -0.364924 32.500000
-2.922364 3.126213 -0.377035 102.500000
-2.810699 3.121302 -0.399855 58.599998
-3.406763 3.264182 -0.333324 1.000000
-2.705252 3.274862 -0.396687 37.700001
-2.767685 3.328961 -0.305841 41.000000
-2.769045 3.775287 -0.303566 34.333332
-2.745788 4.037550 -0.302198 49.166664
-2.766368 4.167103 -0.392173 48.444443
-2.869864 5.850584 -0.324148 34.599998
-2.951216 7.982456 -0.304928 22.000000
-2.952239 8.063007 -0.307649 22.000000
-2.969095 8.229128 -0.313450 18.500000
-3.004094 8.535617 -0.324216 23.666666
-3.012194 8.733193 -0.330995 26.000000
-3.005662 8.849495 -0.334862 33.000000
18.167351 8.986671 -0.374313 9.500000
18.363987 8.976561 -0.377489 5.000000
18.518044 8.979900 -0.380074 4.000000
18.719158 9.004898 -0.383619 6.000000
-3.022591 9.086292 -0.343098 33.500000
15.465256 9.062531 -0.331032 0.000000
15.596022 9.040650 -0.332916 1.000000
15.800119 9.026767 -0.336055 5.000000
15.981737 9.030990 -0.339009 8.000000
16.125135 9.045303 -0.341446 8.000000
16.317698 9.086043 -0.344917 6.000000
17.985508 9.073317 -0.372023 43.000000
18.071144 9.045410 -0.373205 29.000000
15.250834 9.196262 -0.328890 32.000000
15.332331 9.114529 -0.329407 111.666664
17.942526 9.157964 -0.372023 67.500000
-3.016451 9.212513 -0.347323 39.000000
15.229500 9.281557 -0.329370 25.500000
17.898827 9.277891 -0.372319 46.000000
-3.017063 9.313211 -0.350761 39.000000
-3.024392 9.436845 -0.355057 39.000000
15.225306 9.410717 -0.330552 2.000000
17.863081 9.438107 -0.373107 18.666666
-3.024903 9.593965 -0.360428 45.500000
15.196816 9.592211 -0.331882 1.000000
17.823076 9.596755 -0.373833 14.500000
-3.020568 9.739830 -0.365370 42.000000
17.794010 9.725815 -0.374498 14.500000
-3.018086 9.840993 -0.368807 45.000000
13.964490 9.861838 -0.315719 0.666667
17.774261 9.824066 -0.375052 11.000000
-3.025867 10.034987 -0.375539 48.500000
-3.046758 10.279089 -0.384132 45.000000
-3.063639 10.517851 -0.392511 45.500000
-3.037733 10.614800 -0.395590 55.000000
7.037657 14.801265 -0.302671 1.000000
6.967798 14.834257 -0.302671 1.500000
6.934878 14.946747 -0.304296 2.000000
7.189571 14.999074 -0.307176 0.000000
7.283637 15.073640 -0.309170 0.000000
7.320448 15.029110 -0.308727 0.000000
6.907210 15.923482 -0.320544 0.000000
6.890332 16.022259 -0.322095 3.000000
6.877604 16.132120 -0.323868 0.000000
-3.534925 -12.877354 -0.246612 1.000000
-3.570172 -12.770048 -0.244877 22.500000
-3.590436 -12.612675 -0.242181 26.000000
-3.595724 -12.482199 -0.239891 23.000000
-3.606610 -12.302016 -0.236752 24.000000
-3.621745 -12.141162 -0.233983 28.000000
-3.629833 -12.030174 -0.232062 43.000000
-3.633759 -11.907781 -0.229920 42.000000
-3.626335 -11.751090 -0.227114 27.000000
-3.625322 -11.554532 -0.223642 25.000000
-3.634843 -11.396334 -0.220910 30.000000
-3.637493 -11.282085 -0.218916 30.000000
-3.636981 -11.160332 -0.216774 28.000000
-3.641998 -11.057684 -0.215001 29.000000
-3.643880 -10.947526 -0.213081 29.000000
-3.649882 -10.795748 -0.210459 30.500000
-3.654682 -10.644135 -0.207837 34.000000
-3.658652 -10.494631 -0.205252 31.500000
-3.661435 -10.345308 -0.202667 33.000000
-3.662953 -10.247138 -0.200968 33.000000
-4.208425 -7.204907 -0.298960 7.333333
13.704267 -7.188831 -0.285794 0.000000
-4.218104 -7.067664 -0.294902 7.333333
13.676327 -7.064948 -0.284280 0.500000
-4.223482 -6.927482 -0.290701 8.000000
13.552899 -6.893676 -0.280809 0.000000
-4.228542 -6.767357 -0.285915 8.250000
13.508329 -6.764520 -0.278999 0.000000
-4.233262 -6.611861 -0.281296 27.333334
13.480304 -6.618527 -0.277337 0.000000
-4.240373 -6.509737 -0.278360 28.500000
-4.245951 -6.429590 -0.276068 27.500000
13.445352 -6.470844 -0.275565 0.000000
-4.250395 -6.309540 -0.272580 26.857143
13.422495 -6.356272 -0.274272 0.000000
-4.259332 -6.151480 -0.268083 27.750000
13.445423 -6.135992 -0.272943 0.000000
-4.265069 -5.997290 -0.263679 25.750000
13.497263 -6.006514 -0.272832 0.000000
13.564081 -5.934460 -0.273423 0.000000
-4.275851 -5.855253 -0.259776 23.500000
13.670893 -5.853581 -0.274641 0.000000
-4.292437 -5.706848 -0.255859 15.200000
13.834391 -5.769968 -0.276820 0.000000
13.964974 -5.747394 -0.278888 0.000000
14.090189 -5.729980 -0.280907 0.000000
-4.294355 -5.580399 -0.252293 5.000000
11.422535 -5.256193 -0.232210 0.000000
-3.929334 -4.534548 -0.214982 1.000000
-3.952955 -4.364092 -0.210972 0.000000
-2.349189 -3.595622 -0.274652 30.923077
-2.344705 -3.450685 -0.261124 65.153847
-2.352435 -3.302578 -0.253722 62.066666
4.576093 -3.350314 -0.248030 15.272727
4.628959 -3.329358 -0.248348 9.888889
4.093309 -3.279417 -0.279194 42.222221
4.146120 -3.222752 -0.279532 9.800000
-2.355505 -3.156039 -0.261839 58.705883
-2.368537 -3.021032 -0.278670 56.259258
-2.377168 -2.874342 -0.275851 49.000000
-2.376792 -2.699143 -0.282081 48.333332
-2.402219 -2.575224 -0.284485 45.263157
-2.403325 -2.416250 -0.267128 51.222221
-2.495447 -2.250156 -0.283999 36.400002
-2.417083 -2.274781 -0.279592 45.407406
-2.494835 -2.102463 -0.265291 38.722221
-2.409188 -2.118816 -0.297960 53.136364
-2.445530 -1.969725 -0.278622 41.041664
-2.424822 -1.822794 -0.265347 48.384617
-2.475412 -1.772640 -0.261237 42.954544
-2.491509 -1.649790 -0.260461 38.029411
-2.426099 -1.645317 -0.269897 50.555557
-2.519826 -1.520410 -0.261634 37.191780
-2.608679 -1.480193 -0.264258 33.500000
7.576031 -1.489146 -0.276641 0.000000
-2.515128 -1.355806 -0.274554 37.404762
7.536778 -1.358921 -0.274397 0.000000
-2.507518 -1.204833 -0.279222 40.916668
7.497924 -1.206356 -0.272106 0.333333
-2.524496 -1.076956 -0.285423 37.212502
7.483701 -1.059831 -0.270817 2.000000
-2.631432 -0.911240 -0.261743 37.000000
-2.506349 -0.903976 -0.281138 39.933334
7.465893 -0.925984 -0.269551 1.200000
7.445549 -0.834490 -0.268441 1.750000
-2.500678 -0.757652 -0.278620 48.875000
-2.634051 -0.612222 -0.282487 33.769230
-2.528085 -0.619889 -0.269846 38.064102
-2.631534 -0.455783 -0.293204 32.166668
-2.547681 -0.469514 -0.271499 34.666668
-2.654958 -0.309976 -0.290976 30.724138
-2.553047 -0.322431 -0.242700 33.549999
-2.642695 -0.175807 -0.266658 36.285713
-2.553613 -0.163872 -0.267875 33.666668
7.379003 -0.133962 -0.264431 0.250000
-2.504772 -0.014085 -0.263219 43.799999
7.395025 -0.029535 -0.264968 0.000000
-2.638931 0.097044 -0.279615 32.250000
-2.506789 0.137781 -0.266137 53.346153
7.421319 0.133421 -0.265950 0.000000
-2.603805 0.267342 -0.246072 35.666668
-2.517617 0.283878 -0.268633 50.711540
7.406146 0.272886 -0.265541 0.000000
-2.921609 0.502550 -0.261186 32.000000
-2.776020 0.455155 -0.247846 37.500000
-2.636776 0.418259 -0.281838 33.272728
-2.535882 0.439180 -0.279602 42.555557
7.338443 0.443679 -0.263416 4.500000
-2.900626 0.602809 -0.209297 34.000000
-2.863514 0.600460 -0.206699 37.571430
-2.625709 0.568828 -0.284132 33.428570
-2.545587 0.578654 -0.270568 48.151161
7.330765 0.582133 -0.263488 0.166667
7.361187 0.666034 -0.264825 0.000000
-2.540600 0.748970 -0.278331 47.080002
7.789633 0.803606 -0.280580 0.000000
-2.625426 0.897312 -0.235439 49.000000
-2.547367 0.880842 -0.288420 51.595238
7.910296 0.841178 -0.285020 0.000000
11.859606 0.979145 -0.219765 0.000000
-2.954681 1.058930 -0.240034 45.333332
-2.800629 1.010778 -0.223447 28.750000
-2.649446 1.051595 -0.272673 42.357143
-2.559088 1.023174 -0.297335 53.212120
11.768545 1.064750 -0.218226 0.666667
-2.629107 1.189220 -0.246953 37.323528
-2.570619 1.168878 -0.271261 49.848484
11.692290 1.179663 -0.217027 1.000000
11.664256 1.277444 -0.216700 1.000000
-2.618397 1.334631 -0.259156 37.538460
-2.578625 1.330061 -0.259376 41.133335
11.626225 1.338020 -0.216127 1.000000
-2.770390 1.486113 -0.276984 43.500000
-2.628685 1.486521 -0.267846 39.147060
11.626428 1.480741 -0.216449 0.200000
-2.585489 1.520583 -0.211904 43.750000
-2.631898 1.625211 -0.277535 39.130436
-2.581926 1.645195 -0.269994 49.826088
11.597049 1.621603 -0.216257 1.500000
-2.601837 1.795297 -0.278564 50.214287
-2.583477 1.779202 -0.276559 57.272728
11.588039 1.713240 -0.216330 3.000000
-2.607692 1.938236 -0.295699 50.551022
-2.583169 1.953339 -0.261981 56.083332
-2.596883 2.083807 -0.285321 54.500000
-2.580904 2.044194 -0.271290 44.000000
-2.609401 2.229521 -0.270666 48.117645
-2.655869 2.388943 -0.277145 39.933334
-2.685780 2.547222 -0.289390 34.347828
-2.659111 2.682349 -0.275592 41.184212
-2.650053 2.833168 -0.243842 42.827587
-2.656352 2.970159 -0.266072 47.000000
-2.765093 3.201133 -0.225165 40.000000
-2.684711 3.134042 -0.248189 45.000000
-2.701946 3.274936 -0.257775 40.904762
-2.732839 3.441887 -0.281344 37.309525
-2.743427 3.579782 -0.274379 38.625000
-2.897257 3.610093 -0.286497 44.000000
-2.729374 3.748234 -0.258221 37.000000
-2.894221 3.885727 -0.257909 28.000000
-2.756161 3.887968 -0.287109 40.982456
-2.767960 4.180258 -0.266881 47.400002
-2.781497 4.344548 -0.274599 40.250000
-2.777249 4.476098 -0.280404 53.799999
-2.777931 4.621726 -0.287038 57.750000
-2.825402 4.813993 -0.238641 45.400002
-2.822169 4.928864 -0.258394 45.000000
-2.833671 5.084840 -0.254618 48.181820
-2.836552 5.247405 -0.265618 46.700001
-2.827378 5.383277 -0.260083 48.000000
-2.845809 5.547051 -0.269878 45.000000
-2.846303 5.685389 -0.283111 43.666668
-2.867177 5.934937 -0.293328 35.500000
-2.921280 6.146685 -0.243842 48.000000
-2.861101 6.194829 -0.244487 31.000000
-2.927156 6.234585 -0.246778 29.000000
-2.872219 6.323081 -0.248831 32.666668
-2.900766 7.278211 -0.280723 33.000000
-2.888166 7.313313 -0.281726 34.000000
-2.918189 7.492605 -0.288099 31.000000
-2.914590 7.624676 -0.292468 35.000000
-2.922081 7.790678 -0.298125 25.500000
10.587980 8.884371 -0.255254 1.000000
10.699060 8.863556 -0.256583 1.000000
10.825222 8.863450 -0.258380 0.666667
11.019551 8.869451 -0.261236 0.000000
11.285654 8.823554 -0.264560 0.500000
11.478856 8.887879 -0.268105 1.000000
10.502641 8.954258 -0.254884 22.666666
11.643026 8.956630 -0.271281 1.000000
10.449231 9.022717 -0.254958 25.000000
11.425970 9.020451 -0.268844 1.000000
10.421373 9.113645 -0.255672 21.333334
11.585448 9.205581 -0.273275 1.000000
10.389743 9.260254 -0.257026 18.000000
7.180527 9.361227 -0.217882 6.000000
7.240472 9.347824 -0.218362 0.500000
10.359251 9.409738 -0.258454 12.666667
7.153019 9.435474 -0.218664 4.800000
7.930747 9.508651 -0.228665 0.000000
8.593831 9.439884 -0.235755 2.200000
11.723553 9.436206 -0.277928 2.000000
8.552665 9.522071 -0.236371 1.333333
10.340681 9.602443 -0.260608 0.000000
11.723030 9.557664 -0.279331 1.000000
7.098219 9.687840 -0.221796 2.000000
7.119124 9.652617 -0.221501 1.000000
8.596648 9.764731 -0.240261 2.000000
12.783246 9.769995 -0.297131 0.000000
10.267806 10.217741 -0.267514 1.000000
7.021537 10.382473 -0.231471 1.000000
-3.042475 10.506481 -0.202002 36.000000
7.007214 10.502902 -0.233170 0.000000
7.015645 10.444319 -0.232358 0.000000
8.534531 10.531763 -0.250342 0.500000
-3.057870 10.685165 -0.205252 37.000000
8.490669 10.613289 -0.251007 1.500000
-3.053667 10.798628 -0.207246 39.000000
-3.040176 10.881351 -0.208649 41.000000
8.540297 10.813956 -0.254478 2.000000
8.534866 10.912348 -0.255845 2.000000
-3.076201 11.145290 -0.213524 38.000000
-3.077992 11.289946 -0.216109 44.000000
6.925189 11.398958 -0.246317 1.000000
8.522398 11.330163 -0.261827 1.000000
8.498745 11.410289 -0.262750 0.500000
-3.100741 11.515819 -0.220245 38.000000
6.922942 11.517156 -0.248163 0.000000
-3.095375 11.641455 -0.222461 45.000000
-3.097379 11.798114 -0.225267 50.000000
6.878065 11.817824 -0.252521 0.000000
-3.113475 12.012972 -0.229182 52.000000
6.888295 12.052017 -0.256362 0.000000
6.870741 12.153980 -0.257839 2.000000
-3.129247 12.231918 -0.233170 35.000000
6.870038 12.287448 -0.259981 3.000000
6.874098 12.385902 -0.261606 2.000000
-3.172066 12.563532 -0.239300 38.000000
-3.160616 12.685976 -0.241442 31.000000
2.845975 12.717592 -0.240674 35.599998
3.407271 12.886898 -0.246169 1.000000
3.474663 12.847310 -0.245785 31.799999
5.252677 13.017784 -0.259242 13.600000
-3.255354 13.243445 -0.251856 33.000000
-3.229750 13.319682 -0.253112 36.000000
-3.264171 13.648711 -0.259168 33.000000
-3.269933 13.865202 -0.263083 0.000000
7.202403 13.888910 -0.288933 0.000000
7.116143 13.936239 -0.288982 5.333333
7.053642 14.085895 -0.290927 5.000000
7.029806 14.205001 -0.292700 4.000000
7.002771 14.262916 -0.293438 0.000000
-3.666610 -10.156585 -0.199417 26.000000
-3.664255 -10.051081 -0.197571 23.000000
-4.027195 -9.917643 -0.197681 22.000000
-3.863798 -9.915035 -0.196522 36.200001
-3.709453 -9.932021 -0.195798 25.250000
-4.091902 -9.854394 -0.197054 18.000000
-4.097915 -9.739166 -0.195133 21.000000
-4.102349 -9.580876 -0.192474 23.500000
-4.109762 -9.433915 -0.190037 25.000000
-4.117106 -9.290901 -0.187674 26.500000
-4.122817 -9.148174 -0.185310 27.000000
-4.129396 -9.011200 -0.183057 27.500000
-4.135266 -8.876321 -0.180842 27.000000
-4.142676 -8.712951 -0.178170 28.000000
-4.151994 -8.558392 -0.175672 28.000000
-4.155289 -8.429901 -0.173567 29.000000
-4.162034 -8.279098 -0.171129 18.000000
-4.169725 -8.103189 -0.168298 10.333333
-4.178193 -7.965107 -0.166107 6.000000
-4.182732 -7.823902 -0.163842 6.333333
-4.186569 -7.656641 -0.161158 7.333333
-4.198049 -7.508627 -0.158869 27.000000
-4.206450 -7.359931 -0.156555 16.000000
-4.209731 -7.207153 -0.154142 16.000000
-4.219408 -7.069849 -0.152049 15.333333
-4.224987 -6.905631 -0.149507 14.250000
-4.232199 -6.749478 -0.147125 15.666667
-4.236690 -6.617223 -0.145107 26.333334
-4.239786 -6.531193 -0.143802 29.000000
-4.243289 -6.447650 -0.142546 27.666666
-4.250720 -6.306932 -0.140460 28.500000
-4.257928 -6.149442 -0.138133 29.500000
-4.264180 -5.996042 -0.135881 30.250000
-4.270792 -5.848320 -0.133739 30.250000
-4.277969 -5.706198 -0.131708 30.750000
-4.270308 -5.585384 -0.129843 33.000000
-3.976444 -5.150488 -0.120167 34.000000
-3.889532 -4.957088 -0.116363 30.250000
-3.898408 -4.810988 -0.114357 33.666668
-3.909183 -4.657339 -0.112294 47.000000
-3.914299 -4.517371 -0.110388 47.200001
-3.921098 -4.370407 -0.108436 47.500000
-3.931895 -4.219646 -0.106516 49.166668
-3.937507 -4.069094 -0.104571 49.666668
-3.942677 -3.922508 -0.102711 49.000000
-3.950737 -3.762431 -0.100755 50.000000
-3.048367 -3.562878 -0.168004 1.000000
-2.667167 -3.533599 -0.158629 14.166667
-2.585348 -3.551903 -0.157405 4.000000
-2.530276 -3.467060 -0.153796 9.800000
-2.412616 -3.465277 -0.151294 1.666667
-2.595703 -3.318764 -0.150960 74.000000
4.098724 -3.274266 -0.142423 37.500000
4.149802 -3.235164 -0.142841 10.750000
-2.504825 -3.165375 -0.144630 55.000000
-2.477151 -3.037441 -0.140433 37.000000
-2.432915 -2.983198 -0.137927 33.500000
-2.511771 -2.853515 -0.136208 48.000000
-2.381148 -2.852727 -0.169235 47.320000
-2.465582 -2.742703 -0.132140 27.799999
-2.384486 -2.709785 -0.171052 51.454544
-2.467831 -2.623327 -0.129047 26.500000
-2.406671 -2.569732 -0.165495 43.000000
-2.404878 -2.411234 -0.147790 53.869564
-2.433694 -2.268922 -0.145566 47.723484
-2.594466 -2.122119 -0.120095 34.500000
-2.500837 -2.119517 -0.117469 37.333332
-2.409019 -2.105752 -0.162373 50.142857
-2.507126 -1.920627 -0.113166 33.250000
-2.416555 -1.948225 -0.155127 52.500000
-2.450977 -1.802007 -0.135268 47.724998
-2.618836 -1.728773 -0.112432 38.000000
-2.430547 -1.691941 -0.157646 57.444443
-2.485741 -1.662647 -0.127043 40.388889
-5.218188 -1.519763 -0.100373 50.833332
-2.504640 -1.525763 -0.127167 40.093750
-5.508543 -1.399800 -0.104965 49.333332
-5.407170 -1.437726 -0.103328 50.000000
-5.346529 -1.466558 -0.102386 51.000000
-5.750092 -1.299003 -0.108867 45.000000
-5.662838 -1.335343 -0.107449 49.200001
-2.461363 -1.358061 -0.145405 47.766666
-5.960672 -1.209283 -0.112323 47.400002
-5.822628 -1.267300 -0.110049 44.500000
-2.505161 -1.216662 -0.142982 43.938774
-6.169870 -1.121237 -0.115810 47.000000
-6.086216 -1.155444 -0.114406 47.666668
-2.641720 -1.126938 -0.102908 32.599998
7.626182 -1.092191 -0.142275 1.333333
-6.411236 -1.019903 -0.119890 48.250000
-6.266861 -1.077849 -0.117434 47.500000
-2.503687 -1.064157 -0.153926 44.048782
7.603105 -1.015838 -0.141660 5.000000
-6.568879 -0.949888 -0.122575 48.200001
-2.519669 -0.922890 -0.144671 40.285713
7.592791 -0.905432 -0.141217 17.666666
-6.843843 -0.836529 -0.127331 48.333336
-6.720684 -0.885912 -0.125190 48.666668
-7.150234 -0.703578 -0.132686 49.000000
-7.020001 -0.757500 -0.130397 47.500000
-2.495586 -0.764386 -0.142198 45.326923
7.596575 -0.760911 -0.140995 10.333333
-7.304277 -0.637668 -0.135407 49.000000
-7.211213 -0.675312 -0.133757 50.000000
-2.637463 -0.613285 -0.101785 38.799999
-2.521870 -0.608076 -0.160206 38.914288
7.593405 -0.618743 -0.140700 1.400000
7.614624 -0.605971 -0.141069 1.000000
-7.634470 -0.497621 -0.141291 47.333332
-7.539461 -0.539113 -0.139592 48.000000
-7.442872 -0.579135 -0.137869 48.666668
-7.893015 -0.390175 -0.145944 45.000000
-7.785235 -0.433794 -0.143999 46.000000
-2.786898 -0.429998 -0.101038 36.888889
-2.659495 -0.464417 -0.136471 37.809525
-2.550324 -0.475914 -0.158188 35.148148
7.558646 -0.470353 -0.139863 0.000000
-8.050837 -0.321834 -0.148800 45.333332
-7.946137 -0.367781 -0.146904 46.000000
-2.767762 -0.307135 -0.108660 36.545456
-2.658028 -0.307413 -0.145418 35.518520
-2.547921 -0.333911 -0.165507 36.285713
7.524584 -0.314141 -0.139085 0.000000
-8.235924 -0.245030 -0.152166 40.750000
-8.525581 -0.126355 -0.157466 42.000000
-8.370408 -0.189904 -0.154622 43.500000
-2.801361 -0.161158 -0.105640 32.526318
-2.646868 -0.161951 -0.155725 33.772728
-2.555199 -0.172430 -0.169054 34.400002
-0.497356 -0.105822 -0.127263 2.875000
-0.470794 -0.107922 -0.133680 15.187500
0.471959 -0.092034 -0.129720 2.941176
7.493581 -0.159620 -0.138422 0.000000
-8.558228 -0.073192 -0.158056 48.000000
-7.883928 -0.001552 -0.145599 59.666668
-2.658571 -0.015844 -0.149349 37.714287
-2.551018 0.005706 -0.155035 39.214287
-0.500990 -0.010914 -0.126757 4.430769
-0.470311 -0.015318 -0.131300 24.289474
0.476691 -0.013943 -0.127827 26.169718
7.487926 -0.018294 -0.138287 0.000000
-7.820557 0.019063 -0.144430 44.500000
0.406191 0.072069 -0.118916 7.000000
7.486019 0.099279 -0.138262 0.000000
-7.844009 0.204032 -0.144910 41.000000
-7.778328 0.128946 -0.143669 48.200001
-2.666734 0.128403 -0.118573 38.000000
-2.532108 0.151426 -0.162716 45.666668
-0.499368 0.145174 -0.132657 7.263158
-0.478600 0.137855 -0.136058 12.994975
0.472501 0.135839 -0.129939 11.865225
7.444515 0.180632 -0.137524 2.333333
-7.779231 0.288011 -0.143765 43.666668
-2.529963 0.265719 -0.138982 45.416668
-0.498530 0.290502 -0.146018 8.207386
-0.484527 0.269790 -0.140998 7.399015
0.477917 0.280661 -0.138327 8.470312
7.449793 0.286187 -0.137684 5.500000
-2.642555 0.315309 -0.122527 36.666668
-0.501111 0.397888 -0.140222 23.772058
-0.166666 0.339817 -0.101860 1.500000
7.524919 0.383930 -0.139149 0.500000
-7.767104 0.434155 -0.143666 42.500000
-2.768404 0.432073 -0.114169 33.000000
-2.669542 0.421906 -0.145181 34.264706
-2.575515 0.460405 -0.169657 34.083332
-0.426989 0.418211 -0.142812 28.842813
-0.277993 0.415701 -0.134768 4.723618
-0.133619 0.437792 -0.129391 5.503226
0.195236 0.435627 -0.131192 6.863850
0.335459 0.434812 -0.139579 6.492933
0.460388 0.420310 -0.137888 37.989246
7.678079 0.440058 -0.142029 0.000000
7.823622 0.485367 -0.144762 0.000000
-7.731549 0.573117 -0.143177 45.727272
-2.798378 0.558501 -0.129187 33.272728
-2.662210 0.569999 -0.141511 33.428570
-0.499679 0.539729 -0.129861 13.625000
-0.428163 0.566082 -0.139245 17.251585
-0.263494 0.568445 -0.139946 8.085603
-0.111350 0.566829 -0.136913 23.996805
0.054495 0.567128 -0.134472 35.692982
0.181877 0.583630 -0.140277 20.236666
0.332623 0.590305 -0.138648 12.167420
0.442881 0.576332 -0.128471 23.335617
7.905867 0.515406 -0.146313 0.000000
7.984009 0.545695 -0.147790 0.000000
-2.552055 0.615028 -0.136731 40.133335
-0.506743 0.707018 -0.123341 17.557692
0.457164 0.684868 -0.119533 5.384615
-7.699842 0.710239 -0.142805 48.000000
-7.676370 0.748640 -0.142440 47.000000
-2.645560 0.753129 -0.127875 34.903225
-2.560884 0.728360 -0.176492 40.062500
-0.426517 0.744593 -0.127225 14.815217
-0.262872 0.750301 -0.136566 21.216049
-0.114550 0.738760 -0.114101 55.040306
0.057089 0.731534 -0.102772 57.343815
0.176105 0.762027 -0.135499 36.321072
0.312088 0.768136 -0.132422 17.312237
-7.730161 0.872583 -0.143666 44.000000
-7.676556 0.878703 -0.142694 50.000000
-2.628621 0.872419 -0.142490 36.842106
-2.564617 0.885134 -0.131596 43.269230
-0.436028 0.888179 -0.131127 36.799999
-0.261030 0.875055 -0.129012 36.831860
0.231730 0.881258 -0.128599 13.620000
-7.725981 1.001237 -0.143876 15.500000
-0.501345 0.941436 -0.112766 3.857143
-0.142306 0.989112 -0.115937 45.416668
-7.678197 1.066789 -0.143162 37.666668
-2.620057 1.058730 -0.168969 38.750000
-2.564459 1.027495 -0.135129 44.875000
-0.506211 1.042326 -0.127202 53.200001
-0.419669 1.042917 -0.131651 22.635761
-0.256309 1.061865 -0.125690 46.966442
0.033944 1.022217 -0.116702 100.636360
0.176925 1.053407 -0.133776 46.944164
0.316169 1.086663 -0.129964 33.619835
-7.750977 1.184657 -0.144806 21.600000
-2.621083 1.205905 -0.128386 35.166668
-2.571096 1.175535 -0.128674 37.722221
-7.685847 1.261357 -0.143839 40.000000
-0.524066 1.268680 -0.120939 1.312500
-7.720670 1.354504 -0.144762 28.799999
-2.624175 1.347439 -0.126694 36.954544
-2.576155 1.344764 -0.147440 50.428570
-7.755000 1.498968 -0.145870 16.500000
-2.643825 1.490377 -0.119307 33.400002
-2.576705 1.461595 -0.157694 45.888889
-7.862353 1.635372 -0.148307 22.000000
-7.765817 1.647067 -0.146608 21.000000
-2.664024 1.637667 -0.138852 34.750000
-2.574167 1.661960 -0.163106 47.375000
-7.752476 1.778494 -0.146892 9.000000
-2.616401 1.775668 -0.140790 47.090908
-2.585705 1.798581 -0.112862 52.714287
-7.735110 1.889907 -0.147052 1.000000
-7.902667 1.970379 -0.150412 2.000000
-2.608723 1.940625 -0.148211 45.875000
-2.584105 1.929141 -0.115555 55.000000
-8.089043 2.057359 -0.154142 2.000000
-7.974101 2.054821 -0.152074 1.000000
-2.626581 2.078886 -0.166654 51.066666
-2.588213 2.030885 -0.117875 52.500000
-7.807260 2.156321 -0.149581 0.750000
-2.786571 2.285613 -0.129133 35.000000
-2.643341 2.261298 -0.161516 48.111111
-7.791344 2.324183 -0.150154 0.000000
-2.644507 2.384224 -0.134635 40.240002
-7.838122 2.595184 -0.152480 0.000000
-2.668895 2.552070 -0.142727 35.439999
-7.799483 2.678062 -0.152295 0.750000
-2.655616 2.674823 -0.138734 38.882355
-7.946114 2.756248 -0.155324 0.000000
-7.833704 2.828072 -0.153810 1.000000
-2.642561 2.842278 -0.110026 39.142857
-7.816398 2.961369 -0.154363 1.000000
-2.664080 2.992750 -0.130712 38.272728
-2.814491 3.064631 -0.112922 43.250000
-7.826523 3.149528 -0.155804 0.500000
-2.708134 3.139336 -0.117855 37.857143
-7.836767 3.254127 -0.156708 1.250000
-2.707385 3.292583 -0.128016 43.000000
-2.711967 3.369392 -0.154971 44.000000
-2.761683 3.442517 -0.110283 39.875000
-2.781353 3.576492 -0.149108 45.833332
-2.756645 3.759548 -0.126392 48.440475
-2.765049 3.889362 -0.129320 45.500000
-2.760587 4.057880 -0.171152 47.555557
-2.791873 4.168052 -0.130040 46.857143
-2.734932 4.114844 -0.177027 52.000000
-2.770663 4.299268 -0.183258 50.000000
-2.815348 4.482421 -0.134427 45.200001
-2.818435 4.616580 -0.158667 46.625000
-2.823841 4.784674 -0.126427 47.500000
-2.817138 4.931030 -0.104879 43.500000
-2.828382 5.079823 -0.107375 44.400002
-2.816752 5.211841 -0.109409 50.333332
-2.843554 5.341200 -0.111747 46.000000
-2.929518 5.544591 -0.115810 43.000000
-2.849792 5.553540 -0.115278 42.200001
-2.937082 5.644487 -0.117508 56.000000
-2.830137 5.676517 -0.117139 43.500000
-2.886492 5.858383 -0.120610 37.000000
-2.930757 6.043722 -0.124045 41.750000
-2.864328 6.026824 -0.123232 35.500000
-2.869546 6.137110 -0.125116 34.000000
-2.860485 6.271210 -0.127294 43.750000
-2.838068 6.407733 -0.129424 42.000000
-2.856435 6.588186 -0.132612 31.000000
-2.877650 6.753191 -0.135567 31.500000
-2.883822 6.856989 -0.137376 27.000000
-2.896119 6.947227 -0.139001 28.000000
-2.877062 7.025752 -0.140207 30.666666
-2.895149 7.198276 -0.143285 29.000000
-2.901642 7.347778 -0.145894 31.000000
-2.911440 7.510028 -0.148750 52.000000
-2.922822 7.634210 -0.150966 36.000000
-2.929065 7.809331 -0.154031 29.000000
-2.934507 7.975830 -0.156949 25.000000
-2.929634 8.079807 -0.158721 25.000000
-2.958294 8.239532 -0.161675 20.000000
-2.968736 8.392890 -0.164408 22.000000
-2.977886 8.546518 -0.167141 19.000000
-3.003180 8.707061 -0.170095 21.000000
-2.994024 8.860881 -0.172730 28.666666
-3.006677 9.134224 -0.177592 30.000000
-2.995066 9.245311 -0.179475 37.000000
-3.035581 9.471759 -0.183685 32.000000
-3.044483 9.603244 -0.186049 28.000000
-3.040626 9.696715 -0.187674 31.000000
-3.051454 9.894369 -0.191219 29.000000
-3.040792 10.027290 -0.193508 37.000000
-3.041432 10.144058 -0.195576 38.000000
-3.035691 10.241754 -0.197275 44.000000
-3.036108 10.362542 -0.199417 38.000000
15.514621 -25.377176 -0.033224 3.000000
15.501995 -25.178436 -0.033028 3.000000
15.484061 -24.973230 -0.032822 2.000000
15.467109 -24.771782 -0.032621 3.000000
15.463944 -24.594393 -0.032451 3.000000
15.461962 -24.420645 -0.032286 3.000000
15.454741 -24.240410 -0.032112 4.000000
15.416289 -24.013336 -0.031875 2.000000
-4.153130 -23.650095 -0.026822 29.000000
-4.035254 -23.631912 -0.026779 33.000000
-3.882472 -23.631145 -0.026750 42.000000
-3.728931 -23.623463 -0.026714 40.000000
-3.576820 -23.622700 -0.026688 38.000000
-3.423746 -23.613037 -0.026652 36.000000
-3.270638 -23.600405 -0.026614 42.500000
-3.118365 -23.590746 -0.026580 37.000000
0.495918 -23.674791 -0.026451 53.000000
0.607514 -23.674164 -0.026453 78.000000
0.755937 -23.659882 -0.026442 170.000000
0.904433 -23.650669 -0.026437 243.000000
1.052923 -23.642523 -0.026435 255.000000
1.202063 -23.647423 -0.026449 238.000000
1.350623 -23.639404 -0.026449 154.000000
1.497688 -23.608498 -0.026424 143.000000
3.605472 -23.644642 -0.026717 9.000000
3.756763 -23.639305 -0.026737 9.000000
3.913394 -23.664562 -0.026793 7.000000
4.063399 -23.647381 -0.026802 7.000000
4.231146 -23.657907 -0.026845 5.666667
4.373626 -23.667233 -0.026884 6.500000
5.957240 -23.612083 -0.027201 6.000000
6.033372 -23.601002 -0.027210 5.000000
6.138234 -23.598719 -0.027237 5.000000
6.468808 -23.597359 -0.027331 5.000000
6.626693 -23.590904 -0.027371 4.500000
6.792509 -23.610298 -0.027443 5.000000
-2.967081 -23.586063 -0.026554 44.500000
-2.815973 -23.580410 -0.026527 40.000000
-2.665287 -23.575775 -0.026502 45.000000
-2.514987 -23.572170 -0.026480 39.000000
-2.364035 -23.559647 -0.026449 52.000000
-2.214462 -23.558105 -0.026431 40.500000
-2.064301 -23.547646 -0.026404 50.000000
-1.914689 -23.540218 -0.026382 42.000000
-1.765839 -23.539818 -0.026368 61.500000
-1.616670 -23.532490 -0.026348 46.500000
-1.467663 -23.524220 -0.026328 55.000000
-1.318814 -23.515003 -0.026308 50.000000
-1.170736 -23.516832 -0.026301 68.000000
-1.021914 -23.499748 -0.026274 52.500000
-0.874230 -23.505705 -0.026274 77.000000
-0.762880 -23.491602 -0.026254 56.000000
-0.541443 -23.497749 -0.026254 101.000000
0.418903 -23.528257 -0.026285 121.000000
3.482030 -23.580280 -0.026625 12.000000
4.498966 -23.517490 -0.026746 143.500000
6.302306 -23.569920 -0.027253 5.000000
9.393877 -23.581810 -0.028354 4.000000
9.492912 -23.507576 -0.028318 4.000000
9.638442 -23.547756 -0.028421 4.000000
9.762309 -23.533453 -0.028459 3.500000
9.953748 -23.540733 -0.028549 3.666667
10.110977 -23.533863 -0.028611 3.500000
-0.652004 -23.488911 -0.026248 55.000000
-0.430270 -23.476013 -0.026227 57.000000
-0.282750 -23.478254 -0.026227 65.000000
-0.135208 -23.473568 -0.026221 63.000000
0.012282 -23.461952 -0.026207 58.000000
0.159668 -23.457413 -0.026203 69.000000
0.306976 -23.449947 -0.026196 63.000000
1.595096 -23.397678 -0.026196 103.000000
1.705770 -23.395857 -0.026203 58.500000
6.903349 -23.440557 -0.027295 143.500000
10.181046 -23.392469 -0.028497 9.000000
11.872263 -23.452091 -0.029362 3.500000
12.054305 -23.475269 -0.029477 3.333333
12.181983 -23.421326 -0.029489 3.000000
12.342541 -23.459183 -0.029610 3.000000
12.452913 -23.400816 -0.029610 3.000000
12.569842 -23.442656 -0.029712 3.000000
1.852900 -23.386669 -0.026205 80.000000
1.999804 -23.374565 -0.026205 57.500000
2.147734 -23.373489 -0.026218 74.500000
2.295323 -23.367496 -0.026227 57.000000
2.442518 -23.356590 -0.026232 78.500000
2.590100 -23.348734 -0.026241 55.500000
2.739095 -23.351862 -0.026263 67.500000
2.886739 -23.342133 -0.026272 53.000000
2.998232 -23.340200 -0.026285 52.000000
3.072582 -23.338598 -0.026294 75.000000
3.183881 -23.333738 -0.026306 46.500000
3.332972 -23.331093 -0.026326 58.500000
4.572007 -23.303724 -0.026527 84.000000
14.298238 -23.387545 -0.030619 4.000000
14.394711 -23.379978 -0.030669 4.000000
14.549086 -23.383177 -0.030762 5.000000
14.741609 -23.364033 -0.030859 4.000000
14.956041 -23.377071 -0.030999 4.000000
4.680588 -23.276011 -0.026520 41.000000
4.831630 -23.269638 -0.026547 54.500000
4.982764 -23.262287 -0.026574 37.500000
5.134003 -23.253958 -0.026600 48.500000
5.285770 -23.246593 -0.026630 39.000000
5.439483 -23.246029 -0.026668 39.500000
5.592914 -23.242504 -0.026703 34.000000
5.744105 -23.228268 -0.026728 55.000000
6.962102 -23.235361 -0.027094 79.000000
7.028104 -23.190405 -0.027067 32.000000
9.168479 -23.227980 -0.027894 5.000000
10.247555 -23.245396 -0.028377 99.500000
12.578787 -23.283396 -0.029561 11.000000
15.042150 -23.269423 -0.030950 7.000000
7.105614 -23.183510 -0.027085 31.000000
7.222523 -23.174557 -0.027114 43.000000
7.380139 -23.166830 -0.027159 29.500000
7.537922 -23.158041 -0.027204 38.000000
7.694014 -23.142483 -0.027242 31.000000
7.859198 -23.152393 -0.027311 31.000000
8.018256 -23.142242 -0.027358 29.000000
8.137840 -23.134420 -0.027394 39.000000
8.259552 -23.131569 -0.027436 29.000000
8.421831 -23.126198 -0.027492 37.000000
8.582289 -23.114075 -0.027541 29.000000
8.745052 -23.106457 -0.027597 28.000000
8.911646 -23.107035 -0.027664 29.500000
9.031361 -23.092756 -0.027697 33.000000
12.647100 -23.148373 -0.029465 166.500000
18.248127 -23.122730 -0.032903 18.000000
10.299954 -23.069023 -0.028220 35.000000
10.412673 -23.029308 -0.028231 27.000000
10.545219 -23.032757 -0.028296 31.000000
10.676365 -23.031757 -0.028356 23.000000
10.847282 -23.020313 -0.028426 28.000000
10.976305 -23.012300 -0.028479 23.000000
11.108988 -23.010708 -0.028542 28.500000
11.282410 -22.999712 -0.028616 22.500000
11.460604 -22.996387 -0.028700 18.000000
15.052073 -23.045891 -0.030747 129.000000
18.325714 -22.997345 -0.032847 63.000000
12.697078 -22.981752 -0.029328 36.000000
12.769216 -22.941750 -0.029328 22.000000
12.909565 -22.938793 -0.029402 27.000000
13.095095 -22.930172 -0.029496 21.500000
13.235994 -22.925411 -0.029570 32.000000
13.372118 -22.911104 -0.029632 22.000000
13.516508 -22.909891 -0.029712 24.000000
13.661207 -22.907734 -0.029793 21.500000
13.852499 -22.900162 -0.029896 17.500000
15.088943 -22.866211 -0.030602 36.000000
15.171776 -22.835354 -0.030624 27.000000
15.322702 -22.828316 -0.030711 41.500000
15.375090 -22.674799 -0.030602 31.000000
15.367316 -22.510757 -0.030445 31.000000
15.351867 -22.337101 -0.030275 30.000000
15.344579 -22.176926 -0.030124 30.000000
15.338726 -22.020298 -0.029976 31.000000
15.329747 -21.860649 -0.029824 30.000000
15.329144 -21.714348 -0.029690 32.000000
15.316186 -21.551964 -0.029534 30.000000
15.313994 -21.406147 -0.029400 32.000000
15.306366 -21.254063 -0.029257 30.000000
15.300283 -21.105474 -0.029118 33.000000
15.286344 -20.947445 -0.028966 31.000000
15.288140 -20.812279 -0.028846 34.000000
15.282101 -20.667662 -0.028712 31.000000
15.272919 -20.520077 -0.028573 33.000000
15.267760 -20.379158 -0.028444 31.000000
15.261865 -20.238474 -0.028314 33.000000
15.260074 -20.104401 -0.028193 32.000000
15.303545 -19.965557 -0.028100 46.000000
15.492483 -19.951145 -0.028216 50.000000
-3.287277 -18.380342 -0.020857 23.000000
-4.454875 -18.219191 -0.020951 20.333334
-4.301512 -18.210838 -0.020902 26.000000
-4.180294 -18.208267 -0.020868 25.000000
-4.029248 -18.204695 -0.020827 25.666666
-3.878768 -18.201263 -0.020788 27.000000
-3.727816 -18.192591 -0.020744 25.666666
-3.312759 -18.192837 -0.020656 27.000000
-4.595302 -18.174004 -0.020939 9.500000
-3.578504 -18.189297 -0.020707 28.000000
-3.429236 -18.183392 -0.020669 29.666666
-4.626512 -17.941063 -0.020696 3.000000
-4.633316 -17.736805 -0.020477 2.000000
-4.645020 -17.555882 -0.020285 1.000000
-4.648388 -17.348017 -0.020062 1.000000
-4.660970 -17.178911 -0.019883 1.000000
-4.672532 -17.009901 -0.019704 2.000000
-3.538833 -12.882781 -0.014923 0.000000
-3.571936 -12.767740 -0.014809 23.500000
-3.592151 -12.610344 -0.014646 32.000000
-3.598514 -12.483691 -0.014512 31.000000
-3.599633 -12.341766 -0.014360 28.000000
-3.609865 -12.163620 -0.014173 30.000000
-3.624457 -12.004779 -0.014007 44.000000
-3.631782 -11.893867 -0.013891 44.000000
-3.625462 -11.740988 -0.013726 28.000000
-3.626768 -11.552042 -0.013525 25.500000
-3.644747 -11.420499 -0.013391 31.000000
-3.650306 -11.254820 -0.013216 26.000000
-3.655815 -11.093117 -0.013047 27.000000
-3.665442 -10.948706 -0.012897 27.000000
-3.668773 -10.789289 -0.012729 26.000000
-3.685565 -10.673584 -0.012613 38.500000
-3.682951 -10.505101 -0.012435 25.000000
-3.687426 -10.361393 -0.012285 27.500000
-3.674441 -10.172718 -0.012082 25.000000
-3.666632 -10.052148 -0.011952 24.000000
-4.026980 -9.912138 -0.011951 22.000000
-3.865613 -9.914551 -0.011887 27.200001
-3.710425 -9.929312 -0.011840 26.000000
-4.094317 -9.855354 -0.011921 19.000000
-4.097986 -9.734574 -0.011798 21.000000
-4.103934 -9.579948 -0.011641 23.500000
-4.110502 -9.431136 -0.011492 24.000000
-4.119428 -9.291761 -0.011353 25.500000
-4.123476 -9.145360 -0.011206 26.000000
-4.129173 -9.006555 -0.011067 26.000000
-4.135834 -8.873479 -0.010936 26.000000
-4.143171 -8.710101 -0.010774 25.666666
-4.148949 -8.548326 -0.010614 26.000000
-4.155692 -8.427023 -0.010495 25.500000
-4.161779 -8.275018 -0.010346 24.333334
-4.167997 -8.127573 -0.010203 21.500000
-4.174508 -7.985297 -0.010065 19.000000
-4.182925 -7.820971 -0.009907 17.000000
-4.189900 -7.659549 -0.009752 14.666667
-4.193572 -7.497529 -0.009596 26.000000
-4.207130 -7.358130 -0.009468 15.000000
-4.214391 -7.212249 -0.009331 12.000000
-4.222039 -7.071461 -0.009200 11.000000
-4.226910 -6.906066 -0.009044 11.500000
-4.234812 -6.751011 -0.008902 11.000000
-4.234246 -6.610873 -0.008769 26.666666
-4.241460 -6.471945 -0.008643 28.333332
-4.249193 -6.302283 -0.008490 28.250000
-4.257131 -6.166559 -0.008370 28.333334
-4.261517 -6.030107 -0.008248 28.250000
-4.269509 -5.863864 -0.008102 30.000000
-4.276691 -5.702422 -0.007962 30.250000
-4.269573 -5.582414 -0.007850 31.500000
-3.982908 -5.157000 -0.007278 39.000000
-3.888579 -4.954112 -0.007035 30.500000
-3.941876 -4.033754 -0.006300 47.000000
-3.959582 -3.619620 -0.099075 51.428570
-3.965966 -3.468492 -0.097303 53.571430
-3.976869 -3.316025 -0.095628 48.000000
-3.981381 -3.163711 -0.093916 53.571430
-3.988768 -3.019091 -0.092387 56.375000
-3.995175 -2.868895 -0.090836 57.375000
-4.002676 -2.715357 -0.089327 59.222221
-4.008743 -2.565822 -0.087900 59.625000
-4.014454 -2.420929 -0.086578 60.666668
-4.022509 -2.273204 -0.085331 62.888889
-4.031756 -2.114184 -0.084077 59.272728
-4.063094 -2.017798 -0.083780 56.666668
-4.299067 -1.912136 -0.086894 58.833332
-4.166646 -1.971968 -0.085134 58.777779
-4.464202 -1.836117 -0.089147 56.500000
-4.372372 -1.879410 -0.087891 58.000000
-4.765282 -1.710680 -0.093504 54.285713
-4.617171 -1.773081 -0.091341 51.000000
-5.022134 -1.600816 -0.097345 52.000000
-4.919330 -1.644778 -0.095794 52.000000
-5.096229 -1.571611 -0.098490 51.250000
-6.149672 -1.126385 -0.006984 45.666668
-6.069921 -1.161174 -0.006903 46.500000
-6.402628 -1.017385 -0.007242 46.000000
-6.265159 -1.076425 -0.007101 45.750000
-6.702729 -0.893002 -0.007553 45.000000
-6.546510 -0.956070 -0.007390 44.500000
-6.838534 -0.834678 -0.007695 44.000000
-7.147591 -0.702052 -0.008022 45.000000
-7.019337 -0.756195 -0.007886 44.250000
-3.432890 -0.775524 -0.064995 1.000000
-2.607060 -0.732950 -0.097036 38.250000
-7.321219 -0.626195 -0.008208 44.750000
-7.212556 -0.674168 -0.008092 45.000000
-7.629200 -0.495945 -0.008540 43.666668
-7.536846 -0.537603 -0.008440 44.000000
-7.464424 -0.567769 -0.008362 42.000000
-7.781309 -0.432205 -0.008705 44.000000
-8.078082 -0.308873 -0.009030 43.500000
-7.935543 -0.365793 -0.008874 43.666668
-8.272928 -0.225302 -0.009244 35.000000
-8.187809 -0.261553 -0.009151 43.500000
-8.519053 -0.124782 -0.009517 43.000000
-8.369864 -0.188434 -0.009352 42.000000
-8.627691 -0.072281 -0.009638 44.000000
-8.053832 0.008245 -0.008996 50.500000
-2.764520 -0.034259 -0.099069 39.500000
-8.227957 0.021604 -0.009191 85.000000
-2.761045 0.080499 -0.098969 37.000000
-8.045988 0.134711 -0.008989 45.799999
-0.080556 0.191448 -0.011056 1.000000
-8.062878 0.223862 -0.009010 49.500000
-7.983786 0.259269 -0.008923 44.000000
-3.023771 0.291668 -0.056108 6.666667
0.405349 0.269619 -0.094939 1.000000
-7.796611 0.314392 -0.008716 58.000000
-7.763017 0.435386 -0.008685 53.166668
-2.946531 0.421672 -0.054975 12.000000
-0.031774 0.444558 -0.051848 52.990292
-7.684432 0.569185 -0.008607 55.400002
-3.370049 0.602117 -0.063223 26.000000
-3.106688 0.571847 -0.058340 12.777778
-0.083743 0.596013 -0.016678 79.874077
-7.711508 0.615035 -0.008641 58.000000
-3.111775 0.708691 -0.058939 27.000000
-2.978279 0.629082 -0.056217 11.285714
-0.100092 0.688465 -0.041398 75.315788
-7.652387 0.731518 -0.008587 50.285713
-2.953355 0.741444 -0.056239 39.000000
-2.880980 0.800583 -0.055221 44.666668
0.074367 0.716432 -0.013610 36.517044
-7.701897 0.895276 -0.008661 54.500000
-7.678253 0.892478 -0.008634 56.000000
-2.904776 0.885734 -0.056085 35.000000
-2.861665 0.897557 -0.055394 35.727272
-0.101257 0.881182 -0.088374 98.326530
0.097837 0.833894 -0.017964 23.615385
-0.170781 0.964882 -0.005449 11.750000
0.048544 0.916581 -0.092866 69.714287
-7.697760 1.042159 -0.008677 57.000000
-7.677789 1.039458 -0.008655 54.250000
-2.912213 1.058320 -0.057228 34.166668
-2.846503 1.022366 -0.080135 35.588234
-7.716569 1.195730 -0.008723 47.000000
-7.686524 1.176203 -0.008686 47.000000
-2.878791 1.163943 -0.057351 38.428570
-2.900782 1.212988 -0.058069 35.666668
-7.742527 1.334650 -0.008776 50.599998
-2.916981 1.346820 -0.059338 40.200001
-2.877332 1.327042 -0.058523 40.625000
-7.752997 1.491476 -0.008819 48.500000
-7.684534 1.449231 -0.008735 46.000000
-2.916457 1.487937 -0.060471 43.000000
-2.878311 1.463138 -0.059633 40.599998
-7.750885 1.639177 -0.008849 48.200001
-2.905475 1.612918 -0.061376 47.250000
-2.823402 1.634117 -0.084638 42.312500
-7.745071 1.778058 -0.008877 55.833332
-2.906565 1.716200 -0.062336 51.000000
-2.860302 1.788706 -0.062305 49.083332
-7.732772 1.929567 -0.008903 53.000000
-2.898744 1.960384 -0.064626 43.000000
-2.862928 1.935161 -0.063821 52.599998
-7.773678 2.083000 -0.008990 52.599998
-2.870101 2.077685 -0.065438 46.428570
-2.900222 2.120375 -0.066349 45.333332
-7.799918 2.235242 -0.009063 54.333332
-2.930322 2.230282 -0.068009 46.599998
-7.793407 2.393070 -0.009107 59.166668
-2.958338 2.362414 -0.069919 44.000000
-2.844543 2.382167 -0.084260 40.250000
-2.941218 2.492562 -0.071199 40.500000
-7.759390 2.530255 -0.009117 54.000000
-2.838743 2.528129 -0.070214 35.666668
-7.777888 2.685775 -0.009192 56.000000
-2.771152 2.683661 -0.071244 41.200001
-7.786855 2.840363 -0.009259 57.799999
-2.791557 2.846860 -0.073637 39.666668
-7.775641 2.989537 -0.009305 53.000000
-2.897268 3.042463 -0.077588 38.500000
-7.780471 3.146726 -0.009375 54.799999
-7.786067 3.292268 -0.009443 60.799999
-2.989195 3.259978 -0.081687 47.000000
-2.801822 3.296769 -0.079902 42.000000
-7.787545 3.438080 -0.009509 56.200001
-7.802032 3.577036 -0.009587 50.000000
-7.832283 3.680595 -0.009667 56.500000
-7.857819 3.768224 -0.009734 56.000000
-2.922585 3.762407 -0.087984 48.250000
-7.818473 3.863366 -0.009741 57.250000
-2.907086 3.853633 -0.089147 40.000000
-2.920312 4.219010 -0.094760 47.000000
-2.903773 4.339792 -0.096434 45.000000
-2.908971 4.482948 -0.098693 44.500000
-3.569337 6.879802 -0.008658 1.333333
-3.469598 6.907573 -0.008634 8.500000
-3.562143 7.091527 -0.008865 4.500000
-3.509152 7.153646 -0.008900 4.500000
-3.402272 7.191655 -0.008887 2.000000
-3.573131 7.371669 -0.009151 4.000000
-3.445041 7.326350 -0.009043 5.750000
-3.438478 7.510285 -0.009227 5.000000
-3.336166 7.599995 -0.009271 6.000000
-3.428563 7.646419 -0.009361 6.000000
-3.551818 7.955090 -0.009731 12.000000
-3.652338 8.111669 -0.009937 4.000000
-3.592007 8.397298 -0.010202 13.666667
-3.720428 8.475368 -0.010339 1.000000
-3.665048 8.420997 -0.010259 2.000000
-3.567286 8.561147 -0.010360 23.666666
-3.522456 8.683376 -0.010467 25.666666
-3.466822 8.702899 -0.010464 31.000000
-3.502616 8.873735 -0.010656 23.000000
-3.482007 8.903321 -0.010679 28.000000
-3.452151 8.993500 -0.010761 31.666666
10.682609 9.104376 -0.015678 11.000000
10.838055 9.090939 -0.015801 5.000000
10.985851 9.097914 -0.015933 2.000000
11.140348 9.108457 -0.016074 1.000000
-3.420025 9.166751 -0.010929 27.666666
10.539907 9.155745 -0.015595 17.000000
11.259284 9.117588 -0.016183 1.000000
11.409805 9.150706 -0.016337 1.500000
11.567098 9.187708 -0.016500 2.000000
-3.389614 9.308008 -0.011065 27.500000
10.482067 9.280341 -0.015638 15.333333
11.690103 9.225663 -0.016635 0.000000
18.311018 9.305789 -0.022943 0.000000
15.461999 9.386264 -0.020204 1.000000
15.614090 9.378099 -0.020345 0.500000
15.759534 9.364770 -0.020477 0.000000
15.929373 9.364311 -0.020640 0.000000
16.113344 9.370663 -0.020821 0.000000
18.088682 9.336264 -0.022738 5.000000
18.182007 9.312214 -0.022818 0.000000
18.881592 9.372903 -0.023547 0.000000
-3.381526 9.470377 -0.011233 22.000000
10.449565 9.428748 -0.015722 12.333333
15.357248 9.455243 -0.020145 16.333334
16.329767 9.427994 -0.021062 1.000000
18.005983 9.437327 -0.022708 15.666667
19.962450 9.444735 -0.024668 17.000000
-3.349675 9.570732 -0.011326 19.500000
10.436787 9.597214 -0.015838 1.333333
15.307400 9.591162 -0.020178 18.500000
17.962872 9.559073 -0.022729 17.000000
19.939342 9.549061 -0.024695 20.500000
-3.307084 9.642637 -0.011387 10.500000
7.681537 9.691607 -0.013814 0.000000
7.838758 9.700693 -0.013931 0.000000
7.971778 9.708450 -0.014032 0.000000
10.404224 9.708930 -0.015896 0.000000
17.931694 9.651184 -0.022747 1.500000
19.930143 9.660370 -0.024740 2.000000
-3.286543 9.732035 -0.011474 9.000000
7.217113 9.741763 -0.013543 3.750000
7.368340 9.728566 -0.013632 0.000000
8.499335 9.804982 -0.014494 2.000000
8.537985 9.787275 -0.014508 2.000000
15.287342 9.712903 -0.020231 8.500000
-3.253435 9.872309 -0.011611 2.333333
7.171890 9.849551 -0.013610 5.000000
8.467846 9.893641 -0.014546 1.666667
10.419210 9.887514 -0.016045 0.000000
7.156934 9.927053 -0.013670 1.500000
8.440000 9.987391 -0.014606 1.000000
-3.287975 10.047700 -0.011809 2.000000
10.391649 10.017645 -0.016123 0.000000
10.374557 10.172336 -0.016230 0.800000
10.356382 10.302341 -0.016317 1.000000
13.115279 10.305868 -0.018632 1.000000
13.231291 10.274309 -0.018712 0.500000
13.336637 10.255768 -0.018793 0.000000
13.467324 10.289100 -0.018931 0.000000
17.830740 10.220029 -0.022957 4.000000
13.659204 10.334091 -0.019132 0.500000
-3.349235 10.456715 -0.012265 0.000000
7.087188 10.475802 -0.014128 0.333333
8.461807 10.641822 -0.015187 0.000000
8.473921 10.807241 -0.015340 1.666667
8.467052 10.927549 -0.015442 1.500000
8.457485 11.045996 -0.015540 2.000000
6.984041 11.290489 -0.014829 0.000000
8.443152 11.220880 -0.015686 1.333333
6.989177 11.418814 -0.014955 0.500000
6.976945 12.202177 -0.015701 2.000000
6.951996 12.277719 -0.015760 2.666667
2.855869 12.713810 -0.014555 67.000000
3.466259 12.855489 -0.014873 29.333334
5.130775 12.978539 -0.015589 238.500000
5.299361 12.985578 -0.015666 255.000000
5.429525 12.977097 -0.015713 204.000000
5.009672 13.030122 -0.015593 10.000000
