# This PCD file was generated using the MATLAB® pcwrite function
# from Computer Vision Toolbox®.
# .PCD v.7 - Point Cloud Data file format
VERSION .7
FIELDS x y z intensity
SIZE 4 4 4 4
TYPE F F F F
COUNT 1 1 1 1
WIDTH 1226
HEIGHT 1
VIEWPOINT 0 0 0 1 0 0 0
POINTS 1226
DATA ascii
10.314886 11.601612 -0.017340 9.000000
10.392029 11.541468 -0.017348 12.000000
10.535922 11.518053 -0.017437 13.000000
10.670604 11.519119 -0.017539 12.000000
10.815302 11.529145 -0.017658 10.500000
10.971551 11.549417 -0.017794 10.000000
11.139584 11.579695 -0.017948 9.000000
11.274811 11.610349 -0.018078 7.000000
10.269856 11.698259 -0.017388 11.000000
11.375529 11.640668 -0.018180 3.000000
10.230888 11.840097 -0.017479 13.000000
15.187837 11.908786 -0.021558 9.000000
15.333849 11.906934 -0.021686 2.500000
18.045244 11.907686 -0.024150 1.000000
10.201438 11.995259 -0.017589 12.333333
15.140940 11.987659 -0.021572 14.500000
15.495993 11.916296 -0.021835 1.000000
15.660198 11.925461 -0.021987 2.000000
15.824781 11.933491 -0.022139 1.000000
15.964635 11.960464 -0.022282 1.000000
16.130482 12.005781 -0.022461 2.000000
17.774002 12.011305 -0.023962 13.000000
17.890760 11.927071 -0.024018 6.500000
18.182930 11.916714 -0.024284 1.000000
18.502670 11.960753 -0.024610 0.000000
15.090548 12.063885 -0.021581 16.000000
18.718554 12.017097 -0.024847 1.000000
6.987160 12.175562 -0.015681 2.000000
7.101749 12.170691 -0.015740 0.600000
7.249010 12.169957 -0.015823 1.000000
7.378781 12.183743 -0.015911 1.000000
7.544479 12.153646 -0.015979 0.000000
7.703127 12.152185 -0.016072 0.000000
7.799124 12.176413 -0.016152 0.000000
10.178432 12.160378 -0.017714 9.500000
15.063064 12.158738 -0.021623 18.500000
6.924904 12.289923 -0.015757 3.666667
7.887203 12.229165 -0.016255 1.000000
7.997192 12.272245 -0.016362 0.500000
8.152995 12.299046 -0.016483 0.333333
8.257130 12.246302 -0.016498 1.500000
10.162970 12.298100 -0.017821 5.000000
15.040561 12.297451 -0.021701 10.000000
15.022584 12.401287 -0.021759 1.000000
6.902670 12.432269 -0.015884 1.000000
10.148720 12.439190 -0.017932 3.000000
6.894969 12.557583 -0.016002 0.000000
10.129329 12.575915 -0.018037 4.500000
6.840483 12.789587 -0.016201 1.000000
10.112345 12.717587 -0.018149 4.000000
12.947506 12.799192 -0.020336 0.000000
13.071984 12.801033 -0.020437 0.000000
14.978157 12.765452 -0.021983 3.000000
6.837778 12.881677 -0.016290 0.000000
10.095226 12.861101 -0.018263 8.500000
12.690955 12.905396 -0.020218 0.000000
12.789670 12.843266 -0.020246 0.000000
13.224059 12.828360 -0.020580 0.000000
13.388170 12.865734 -0.020741 0.000000
13.550064 12.898983 -0.020897 0.000000
14.953159 12.825465 -0.022005 1.000000
10.082808 13.012818 -0.018388 10.500000
14.988493 12.937720 -0.022117 0.000000
14.949068 13.068497 -0.022179 0.000000
10.076174 13.174411 -0.018527 2.000000
14.948763 13.193062 -0.022271 4.500000
14.928190 13.342718 -0.022365 14.500000
14.917171 13.459792 -0.022443 3.000000
6.737880 13.772085 -0.017126 0.500000
6.694288 14.541054 -0.017881 10.000000
6.676816 14.623871 -0.017957 1.000000
2.560112 14.992968 -0.016990 41.500000
3.109800 15.176658 -0.017305 4.000000
3.176771 15.140283 -0.017280 45.500000
4.833896 15.312394 -0.017936 255.000000
5.125861 15.310712 -0.018035 138.000000
4.714843 15.354385 -0.017941 29.500000
4.994942 15.318130 -0.017997 255.000000
7.329331 16.602121 -0.020272 0.000000
7.370149 17.129751 -0.020830 0.000000
8.269635 31.057831 -0.035901 59.000000
8.416975 31.022413 -0.035905 55.000000
8.529227 31.049816 -0.035968 4.000000
8.146468 31.185501 -0.036003 39.000000
4.902585 33.442539 -0.037755 1.000000
4.810556 33.548843 -0.037858 2.000000
4.690327 34.240227 -0.038604 2.000000
-4.160787 -4.650586 0.019953 18.375000
-4.167782 -4.513600 0.046423 28.200001
-4.176237 -4.368882 0.045679 36.416668
-4.187405 -4.218418 0.044930 36.000000
-4.196383 -4.058336 0.044144 36.357143
-4.206161 -3.904698 0.043406 37.500000
-4.214190 -3.754936 0.042665 39.142857
-4.225275 -3.606562 0.045678 40.000000
-4.235282 -3.451925 0.049207 39.666668
-4.242994 -3.311370 0.037561 41.066666
-4.250269 -3.215631 0.040296 40.500000
-4.183824 -3.124295 0.039480 50.500000
-3.857275 -2.824197 0.036130 34.750000
-3.865897 -2.706382 0.037820 30.105263
-3.873856 -2.552352 0.032693 51.058823
-3.885997 -2.409604 0.034588 52.611111
-3.895491 -2.257438 0.034062 53.150002
-3.909118 -2.107874 0.035614 53.315788
-3.924261 -1.948910 0.051148 52.473686
-3.938507 -1.810830 0.070370 47.799999
-3.946291 -1.660627 0.040691 49.611111
-3.953469 -1.510587 0.032062 50.590908
-3.970300 -1.361717 0.031852 54.318180
-3.983031 -1.210754 0.030000 58.478260
-3.992452 -1.057369 0.032882 56.347828
4.095737 -1.022028 0.031894 47.000000
-4.003504 -0.910351 0.031166 54.136364
4.119003 -0.952405 0.031971 16.299999
-4.017360 -0.761969 0.031082 56.750000
-4.031639 -0.611688 0.029531 60.304348
-4.036457 -0.460654 0.030889 59.166668
-4.047132 -0.307867 0.030861 61.333332
-4.053809 -0.158048 0.032342 54.304348
-4.058716 -0.016141 0.023778 67.099998
-4.090078 0.017145 0.066395 65.333336
-4.063841 0.106422 0.022687 70.846153
-4.140428 0.172253 0.043343 33.222221
-0.084879 0.202822 0.005942 1.000000
-4.298645 0.254775 0.032592 34.625000
-4.212169 0.216327 0.031962 34.500000
-0.038374 0.272985 0.043095 7.602663
-4.623563 0.395157 0.043224 32.000000
-4.545265 0.362510 0.034460 34.500000
-4.451189 0.320008 0.033744 35.125000
-4.860260 0.487728 0.036924 39.250000
-4.744830 0.441581 0.027832 39.000000
0.002305 0.434759 0.008184 106.238914
-5.052346 0.563260 0.038408 38.500000
-4.944436 0.519681 0.037538 39.500000
0.037888 0.586054 0.003612 89.206062
-5.382037 0.694287 0.041037 37.500000
-5.290994 0.657154 0.040293 37.500000
-5.194731 0.620401 0.039572 38.000000
-5.612743 0.786823 0.042833 35.500000
-5.514311 0.746606 0.042046 36.000000
-5.796288 0.859080 0.044284 34.250000
-5.687449 0.815521 0.043439 35.000000
-6.097641 0.978935 0.028607 36.333332
-5.948885 0.919937 0.045493 35.000000
-3.374942 -10.667761 0.181630 23.200001
-3.397700 -10.532045 0.179643 38.000000
-3.404874 -10.386707 0.177436 38.000000
-3.414822 -10.200136 0.174611 38.500000
-3.428402 -10.030882 0.172079 38.000000
-3.434392 -9.895586 0.170034 38.000000
-3.441049 -9.766135 0.168087 38.000000
-3.452301 -9.605061 0.165685 38.000000
-3.460273 -9.440485 0.163217 32.500000
-3.469126 -9.283684 0.160880 39.000000
-3.476857 -9.129019 0.158575 38.500000
-3.486393 -8.983953 0.156433 39.000000
-3.492778 -8.835412 0.154226 38.000000
-3.501176 -8.696423 0.152180 38.000000
-3.508721 -8.559534 0.150168 38.500000
-3.515465 -8.424740 0.148188 39.000000
-3.524177 -8.262605 0.145818 39.000000
-3.533108 -8.106337 0.143546 39.000000
-3.540206 -7.985258 0.141793 28.500000
-3.569262 -7.785582 0.139033 24.166666
-3.960950 -7.753719 0.141338 8.000000
-3.868086 -7.751229 0.140624 24.000000
-3.714734 -7.746116 0.139455 25.799999
-3.972034 -7.656516 0.140018 17.333334
-3.982152 -7.502156 0.137876 18.333334
-3.992244 -7.352993 0.135820 19.666666
-3.998594 -7.201982 0.133721 21.333334
-4.011670 -7.067747 0.131924 22.666666
-4.021166 -6.906566 0.129733 22.500000
-4.029441 -6.748888 0.127596 23.000000
-4.038972 -6.599003 0.125594 22.250000
-4.047241 -6.451972 0.123636 22.666666
-4.057863 -6.300679 0.147530 25.600000
-4.064726 -6.153019 0.183666 28.500000
-4.075483 -6.003853 0.180729 27.500000
-4.080425 -5.897317 0.157941 26.333334
-4.086137 -5.832231 0.189768 28.000000
-4.091498 -5.713017 0.175011 28.625000
-4.103715 -5.562357 0.172159 29.700001
-4.112278 -5.411994 0.169286 30.375000
-4.121600 -5.268071 0.166596 31.500000
-4.130718 -5.112169 0.163695 31.700001
-4.139546 -4.961612 0.160933 32.900002
-4.148348 -4.816289 0.158318 32.799999
-4.158864 -4.674922 0.166618 34.700001
-4.187420 -4.218465 0.199571 38.000000
-4.197163 -4.059107 0.196046 37.000000
-4.209690 -3.907967 0.192860 41.333332
-4.218269 -3.758589 0.189699 41.571430
-4.225982 -3.613311 0.186685 44.000000
-4.230669 -3.520530 0.184795 42.750000
-4.237007 -3.431164 0.183057 44.000000
-4.245605 -3.307690 0.180706 42.857143
-4.249752 -3.215237 0.178923 42.500000
-4.188157 -3.127519 0.175500 50.000000
-3.864513 -2.710179 0.199491 31.444445
-3.876398 -2.558150 0.196305 53.111111
-3.885279 -2.409169 0.193223 56.833332
-3.897590 -2.262495 0.188445 58.368420
-3.905883 -2.114496 0.189769 59.210526
-3.916592 -1.963408 0.186988 60.428570
-3.924479 -1.830567 0.176730 60.166668
-3.931406 -1.746478 0.180233 59.177780
-3.937219 -1.641521 0.184937 59.062500
-3.948222 -1.512310 0.176957 61.809525
-3.962188 -1.362324 0.175531 64.260872
-3.976188 -1.208692 0.177226 59.347828
-3.983890 -1.058624 0.174232 67.272728
4.097047 -1.022351 0.178485 51.500000
-3.991874 -0.907744 0.173041 65.958336
4.119731 -0.952570 0.178700 14.300000
-4.003170 -0.759348 0.172233 66.454544
-4.013420 -0.612023 0.171608 65.791664
-4.023380 -0.459133 0.171186 64.833336
-4.033677 -0.306844 0.171000 64.541664
-4.041924 -0.160916 0.171005 63.909092
-4.049965 -0.014830 0.171215 62.166668
-4.061049 0.112767 0.171725 56.562500
-4.132609 0.186288 0.174813 37.166668
-4.301777 0.258786 0.186354 38.333332
-4.200552 0.215730 0.177741 38.500000
-4.629203 0.398585 0.196330 35.166668
-4.549309 0.362832 0.192874 37.000000
-4.453488 0.323154 0.183228 37.714287
-5.047186 0.562691 0.170511 39.666668
-4.938003 0.519004 0.166708 40.000000
-5.380354 0.694068 0.182144 39.000000
-5.221577 0.632007 0.176596 39.000000
-5.648278 0.800910 0.191540 36.500000
-5.508601 0.745825 0.186641 38.000000
-5.793407 0.858653 0.196640 35.000000
-6.123275 0.989622 0.172215 35.666668
-6.415133 1.105781 0.162073 36.500000
-6.281241 1.052315 0.158554 36.250000
-6.555508 1.161895 0.165757 35.750000
-6.909753 1.303115 0.175050 33.500000
-6.801762 1.260631 0.172195 34.000000
-6.699471 1.219917 0.169541 35.000000
-7.111395 1.387467 0.180429 29.000000
-7.025397 1.347793 0.178139 34.000000
-7.307321 1.457563 0.164080 33.000000
-7.615694 1.585454 0.126276 34.000000
-7.487422 1.534225 0.124069 35.000000
-7.883215 1.692894 0.130886 35.000000
-7.751542 1.639158 0.128613 35.000000
-8.173105 1.808943 0.135885 35.000000
-8.026350 1.750027 0.133353 34.000000
-8.307863 1.866164 0.138222 30.000000
-8.666155 2.003927 0.144390 34.000000
-8.500832 1.937582 0.141533 35.000000
-8.838932 2.073152 0.147376 35.000000
-9.026920 2.147188 0.150622 35.000000
-9.417295 2.302654 0.157374 34.000000
-9.214530 2.222422 0.153868 35.000000
-9.619642 2.384186 0.160880 36.000000
-9.887512 2.483571 0.165490 37.000000
-10.139347 2.580716 0.169840 36.000000
-3.008677 -16.233366 0.268004 19.000000
-4.297846 -16.039942 0.269562 9.666667
-4.141568 -16.060350 0.269237 19.333334
-4.006093 -16.055557 0.268621 22.000000
-3.870962 -16.049553 0.268004 22.333334
-3.708429 -16.037262 0.267203 21.000000
-3.547605 -16.028547 0.266489 20.333334
-3.389220 -16.027357 0.265926 23.666666
-3.254859 -16.012367 0.265245 22.000000
-3.122487 -16.004036 0.264693 27.333334
-3.029272 -16.062696 0.265342 22.000000
-4.350923 -15.839116 0.266640 2.000000
-4.366374 -15.702064 0.264563 2.000000
-4.371255 -15.530423 0.261901 1.000000
-4.378388 -15.370447 0.259434 2.000000
-4.393422 -15.241326 0.257486 1.000000
-4.397605 -15.077710 0.254954 2.000000
-4.404204 -14.925725 0.252617 2.000000
-4.421331 -14.812174 0.250929 1.000000
-4.421605 -14.645059 0.248332 2.000000
-4.445400 -14.558417 0.247098 1.000000
-4.447452 -14.402988 0.244696 2.000000
-4.465263 -14.301137 0.243203 1.000000
-3.534779 -8.110168 0.297041 34.000000
-3.544074 -7.960440 0.292567 26.000000
-3.955604 -7.743254 0.291941 10.000000
-3.866056 -7.747171 0.290706 23.400000
-3.714514 -7.745657 0.288424 26.400000
-3.574548 -7.764611 0.287001 26.400000
-3.974006 -7.660307 0.289748 19.666666
-3.982315 -7.502446 0.285185 24.000000
-3.992429 -7.353333 0.280934 26.000000
-4.000750 -7.205865 0.276728 28.000000
-4.009953 -7.064689 0.272746 29.333334
-4.022446 -6.908770 0.268418 29.500000
-4.171839 -4.503837 0.206126 39.000000
-4.179733 -4.358738 0.202761 40.200001
-4.230485 -3.503510 0.279891 41.000000
-3.858781 -2.825300 0.202121 37.000000
-4.089047 -0.245796 0.280129 49.500000
-4.085402 -0.027068 0.279392 40.500000
-4.116538 0.156191 0.299773 38.916668
-4.884125 0.497834 0.207535 34.500000
-4.779723 0.456977 0.202894 36.833332
-5.300345 0.658315 0.272156 38.000000
-5.945927 0.919492 0.202009 36.000000
-7.550770 1.547206 0.258787 30.000000
-7.883722 1.693003 0.270733 34.000000
-7.759931 1.640931 0.266303 33.000000
-8.165676 1.807298 0.280800 35.000000
-8.018980 1.748420 0.275565 34.000000
-8.296477 1.863607 0.285498 30.000000
-8.650731 2.000361 0.298115 34.000000
-8.485471 1.934081 0.292209 33.000000
7.405861 14.275157 0.261057 0.000000
7.384777 14.344581 0.261901 1.000000
8.059546 14.623961 0.271055 3.000000
2.439333 14.846944 0.244242 0.000000
2.632928 14.856488 0.244924 0.000000
2.727000 14.843575 0.244988 0.000000
8.138325 14.877280 0.275275 113.000000
9.367327 14.880804 0.285436 4.000000
2.558417 14.983118 0.246741 57.000000
3.111801 15.186421 0.251643 4.000000
3.177176 15.142211 0.251156 45.000000
8.306852 15.472823 0.285079 59.500000
8.373988 15.422966 0.284884 61.000000
8.265762 15.571856 0.286182 4.000000
8.637398 15.556656 0.288844 13.000000
8.809297 15.519778 0.289688 9.000000
-3.877212 -21.484043 0.354384 27.500000
-3.737352 -21.480396 0.353930 30.000000
-3.560359 -21.459721 0.353118 31.333334
-3.387019 -21.457439 0.352631 43.500000
-3.248235 -21.452593 0.352209 30.000000
-3.107939 -21.434975 0.351593 37.000000
-2.969079 -21.424370 0.351106 33.000000
-2.832044 -21.424759 0.350814 42.000000
-2.659683 -21.413879 0.350283 33.333332
-2.487549 -21.401051 0.349742 41.500000
-2.350635 -21.394392 0.349385 36.000000
-2.247901 -21.387360 0.349093 55.000000
-2.111908 -21.385139 0.348833 36.000000
0.853151 -21.428198 0.348119 73.000000
0.954206 -21.425911 0.348152 65.500000
1.088817 -21.419491 0.348152 92.500000
1.223251 -21.410233 0.348119 151.500000
1.391555 -21.402580 0.348163 137.666672
1.559701 -21.392365 0.348184 130.000000
-2.179077 -21.378401 0.348833 38.000000
-2.043191 -21.375744 0.348574 36.000000
-1.906960 -21.366842 0.348227 41.000000
-1.736918 -21.354630 0.347795 40.000000
-1.600912 -21.341192 0.347405 46.000000
-1.465695 -21.334869 0.347145 44.500000
-1.330633 -21.327690 0.346886 71.000000
-1.162142 -21.320133 0.346604 41.666668
-0.993778 -21.310003 0.346301 59.000000
-0.859218 -21.299843 0.346042 46.500000
-0.725043 -21.294827 0.345879 65.000000
1.694077 -21.382145 0.348184 101.000000
1.828558 -21.373070 0.348217 68.500000
3.942447 -21.333897 0.352177 7.500000
4.082825 -21.342091 0.352729 7.000000
4.206203 -21.320837 0.352772 8.666667
4.395439 -21.337017 0.353638 6.000000
4.571654 -21.342966 0.354319 5.000000
4.702912 -21.354704 0.354958 5.000000
4.846518 -21.315046 0.354839 7.000000
-0.557222 -21.279165 0.345544 51.333332
-0.389983 -21.277596 0.345457 73.500000
-0.256181 -21.271627 0.345328 51.000000
-0.122498 -21.266819 0.345230 77.000000
0.044506 -21.251751 0.344981 55.333332
0.177945 -21.240456 0.344808 79.000000
0.244582 -21.231792 0.344678 56.000000
0.344603 -21.228378 0.344646 57.500000
0.478013 -21.227795 0.344678 78.000000
0.644436 -21.214016 0.344527 61.666668
0.777772 -21.210949 0.344548 101.000000
1.911814 -21.171053 0.345068 115.000000
2.008530 -21.129932 0.344548 76.500000
2.141663 -21.120872 0.344613 60.500000
2.274965 -21.112963 0.344711 75.500000
2.442179 -21.106981 0.344916 60.333332
2.608760 -21.094473 0.345035 61.000000
4.920264 -21.177063 0.352924 255.000000
6.369339 -21.136225 0.358345 6.000000
6.512037 -21.128273 0.358897 6.000000
6.650066 -21.104107 0.359189 6.000000
6.794174 -21.098074 0.359805 6.000000
6.938482 -21.091061 0.360422 5.500000
7.048565 -21.090401 0.360974 6.000000
2.742031 -21.083612 0.345133 59.000000
2.876064 -21.077858 0.345328 81.000000
3.043249 -21.066448 0.345522 53.666668
3.210409 -21.053802 0.345717 56.000000
3.345143 -21.049015 0.345977 55.000000
3.479944 -21.043365 0.346236 52.500000
3.648522 -21.035044 0.346561 48.333332
3.789112 -21.059011 0.347340 35.000000
7.119907 -21.083311 0.361234 6.000000
7.255232 -21.046919 0.361385 15.333333
12.357906 -21.021381 0.395838 3.500000
12.515289 -20.986294 0.396650 3.000000
4.972908 -20.955153 0.349612 50.000000
5.145294 -20.947769 0.350154 46.333332
5.283324 -20.940954 0.350586 40.000000
5.351068 -20.932003 0.350716 32.000000
5.454694 -20.925877 0.351041 38.000000
5.592787 -20.916304 0.351463 41.500000
5.730966 -20.905823 0.351885 34.500000
5.870865 -20.900204 0.352404 38.500000
6.047040 -20.895670 0.353118 43.333332
6.214572 -20.980047 0.355196 9.000000
9.648899 -20.901285 0.373699 6.000000
9.765917 -20.895405 0.374413 6.500000
9.922750 -20.887825 0.375387 6.000000
12.198361 -20.975716 0.393890 3.000000
12.646080 -20.980194 0.397656 3.000000
12.783261 -20.983543 0.398857 3.500000
12.948559 -20.957207 0.399896 3.000000
7.392629 -20.806740 0.358442 36.666668
7.574966 -20.800701 0.359351 37.000000
7.718042 -20.786438 0.359935 27.500000
7.906636 -20.792503 0.361104 41.000000
10.078152 -20.875483 0.376296 6.500000
10.234640 -20.863823 0.377237 7.000000
10.386053 -20.840263 0.377984 7.000000
10.549300 -20.838829 0.379153 14.500000
7.828587 -20.783556 0.360520 25.000000
8.011013 -20.771774 0.361396 32.000000
8.158922 -20.765697 0.362175 28.000000
8.307806 -20.760441 0.362987 27.500000
8.456953 -20.754124 0.363798 29.000000
8.602509 -20.737524 0.364447 25.500000
8.752087 -20.729118 0.365259 30.000000
8.904255 -20.725166 0.366168 25.500000
9.051917 -20.709122 0.366882 28.500000
9.204613 -20.702999 0.367791 25.000000
9.357571 -20.695782 0.368700 26.500000
9.496612 -20.742399 0.370323 11.000000
10.612744 -20.721283 0.377919 13.000000
12.991760 -20.734844 0.397201 83.000000
10.679926 -20.612408 0.376848 25.500000
10.839020 -20.601530 0.377887 24.500000
11.003114 -20.598280 0.379088 21.500000
11.163774 -20.586754 0.380159 29.000000
13.042315 -20.599051 0.395773 24.000000
11.323760 -20.572262 0.381198 22.500000
11.448773 -20.569384 0.382139 23.000000
11.574028 -20.565702 0.383081 24.500000
11.737722 -20.553356 0.384217 22.000000
11.862438 -20.546343 0.385126 18.000000
13.098305 -20.473305 0.394539 22.000000
13.272385 -20.461067 0.395903 26.000000
13.403723 -20.451860 0.396942 19.000000
13.537509 -20.445110 0.398045 23.500000
13.712496 -20.429392 0.399409 21.500000
13.846766 -20.420864 0.400512 20.000000
15.664988 -19.098038 0.400967 32.000000
15.648524 -18.956200 0.399019 34.000000
15.636447 -18.760925 0.396455 33.500000
15.623052 -18.566124 0.393890 37.000000
15.616685 -18.440647 0.392267 33.000000
15.609686 -18.315395 0.390644 36.000000
15.602053 -18.190371 0.389021 35.000000
15.591959 -18.006321 0.386651 37.500000
15.580639 -17.822712 0.384282 36.000000
15.575793 -17.704609 0.382788 38.000000
15.565059 -17.580727 0.381165 37.000000
15.559016 -17.463060 0.379672 41.000000
15.632493 -17.434940 0.380127 48.000000
15.777569 -17.430708 0.381652 48.500000
15.904035 -17.404932 0.382723 7.000000
-3.388251 -10.674852 0.376033 27.000000
-3.402209 -10.489840 0.370261 36.000000
-3.408506 -10.342690 0.365630 37.000000
-3.417793 -10.209002 0.361469 37.000000
-3.426037 -10.075441 0.357308 36.000000
-3.431664 -9.938269 0.353013 36.000000
-3.443556 -9.773232 0.347913 36.000000
-3.452837 -9.606560 0.342745 36.500000
-3.463592 -9.449551 0.337913 32.000000
-3.473924 -9.296531 0.333215 33.000000
-3.483306 -9.102802 0.327242 33.000000
-3.475946 -9.169773 0.329255 35.000000
-3.487055 -8.985668 0.323618 34.000000
-3.495681 -8.842752 0.319255 33.000000
-3.502651 -8.700087 0.314893 32.500000
-3.511001 -8.565086 0.310799 33.000000
-3.517022 -8.428486 0.306638 33.000000
-3.526839 -8.268846 0.301828 34.000000
-4.033784 -6.746493 0.318503 29.200001
-4.041084 -6.612427 0.337111 29.428572
-4.049799 -6.469029 0.313075 30.428572
-4.060345 -6.326900 0.327038 31.142857
-4.071887 -6.163844 0.376428 25.750000
-4.107166 -6.047627 0.372509 6.714286
-4.122304 -5.872153 0.365588 0.000000
-4.131320 -5.711673 0.359197 3.600000
-4.134737 -5.567575 0.353375 0.666667
-4.115676 -5.398890 0.345925 26.200001
-4.130203 -5.261929 0.340856 33.750000
-4.161139 -5.135225 0.336796 5.222222
-4.174460 -4.939942 0.329559 0.000000
-4.190076 -4.803332 0.324796 0.200000
-4.191280 -4.669747 0.319737 0.000000
-4.172210 -4.497702 0.312608 28.090910
-4.183632 -4.349188 0.307507 41.166668
-4.193810 -4.198437 0.302384 41.333332
-4.203011 -4.045452 0.343426 40.636364
-4.210133 -3.907691 0.342735 40.333332
-4.222689 -3.761870 0.337441 42.357143
-4.227346 -3.640488 0.349015 42.833332
-4.234184 -3.579699 0.318713 42.875000
-4.240417 -3.446167 0.334022 42.916668
-4.248015 -3.308957 0.321305 42.857143
-4.254268 -3.218077 0.318271 42.250000
-4.189587 -3.128026 0.311958 49.250000
-3.857073 -2.823038 0.326862 36.000000
-3.864133 -2.708849 0.322716 29.222221
-3.876796 -2.553313 0.355619 56.764706
-3.886878 -2.409224 0.352712 60.833332
-3.894988 -2.256232 0.347164 60.799999
-3.907900 -2.110502 0.342547 62.444443
-3.916138 -1.962343 0.336043 63.666668
-3.925579 -1.834540 0.337112 64.076920
-3.934613 -1.768953 0.332721 64.500000
-3.934537 -1.663921 0.347155 65.868423
-3.946199 -1.514144 0.325999 64.909088
-3.959660 -1.364304 0.323016 65.045456
-3.974614 -1.210718 0.320476 56.208332
-3.982833 -1.057599 0.317806 61.500000
4.092900 -1.022075 0.325342 59.833332
-3.994123 -0.910656 0.314361 59.652172
4.119188 -0.953214 0.326103 11.900000
-4.003181 -0.761995 0.315798 60.000000
-4.018367 -0.612043 0.313397 58.791668
-4.031318 -0.459325 0.312819 57.625000
-4.040572 -0.312473 0.315660 57.000000
-4.054243 -0.160698 0.312784 53.181820
-4.049040 -0.004961 0.337534 67.214287
-4.059832 0.107014 0.334487 62.299999
-4.303982 0.262661 0.332697 34.375000
-4.208560 0.221316 0.337328 35.333332
-4.607445 0.394597 0.348426 30.400000
-4.535849 0.362555 0.350927 34.500000
-4.443831 0.323230 0.338132 35.142857
-4.863297 0.496569 0.334299 35.000000
-4.769631 0.456848 0.327658 33.333332
-5.057135 0.564315 0.318453 33.000000
-4.954184 0.526557 0.311661 33.333332
-5.370600 0.693281 0.323035 36.750000
-5.205331 0.616243 0.306270 33.428570
-5.639169 0.800123 0.339814 35.750000
-5.502637 0.745508 0.331306 36.750000
-5.773087 0.852900 0.331048 35.333332
-6.105271 0.983434 0.315106 38.000000
-5.939596 0.918504 0.306252 37.500000
-6.405110 1.104054 0.331187 37.000000
-6.274297 1.051150 0.324165 38.500000
-6.549290 1.160786 0.338923 38.000000
-6.913012 1.303730 0.358464 37.000000
-6.799236 1.260163 0.352357 37.000000
-6.697046 1.219475 0.346861 36.000000
-7.096808 1.384621 0.368438 31.000000
-7.010887 1.345009 0.363756 39.000000
-7.346424 1.481298 0.381873 35.000000
-7.229568 1.434117 0.375563 36.000000
-7.617450 1.585819 0.328658 34.500000
-7.466208 1.517679 0.322113 31.500000
-8.823442 2.069519 0.304289 34.000000
-9.015247 2.144412 0.311135 33.000000
-9.409348 2.300711 0.325228 33.000000
-9.202783 2.219588 0.317846 33.000000
-9.611611 2.382196 0.332477 33.000000
-9.871614 2.479578 0.341738 35.000000
-10.127223 2.577630 0.350866 34.000000
-10.413280 2.685303 0.361067 31.000000
15.676829 11.899362 0.319488 0.000000
12.165020 15.598553 0.321111 50.000000
12.273047 15.585064 0.322020 15.000000
12.110950 15.681048 0.321631 38.000000
15.908698 -22.686249 0.449789 3.000000
15.892242 -22.511999 0.447322 3.000000
15.870214 -22.331558 0.444725 4.000000
15.863497 -22.174252 0.442583 3.000000
15.858289 -22.020451 0.440505 4.000000
15.856969 -21.873377 0.438558 4.000000
15.847807 -21.716839 0.436415 4.000000
15.797568 -21.505779 0.433169 3.000000
15.517882 -20.986534 0.423690 4.000000
15.359536 -20.909472 0.421158 4.000000
14.641147 -20.878685 0.413952 4.000000
14.743572 -20.884863 0.414990 4.000000
14.883626 -20.873726 0.416159 4.000000
15.055510 -20.836506 0.417295 4.000000
15.215969 -20.851007 0.419016 5.000000
15.411805 -20.706678 0.419016 8.000000
15.397648 -20.552530 0.416873 142.000000
13.981279 -20.411430 0.401616 22.000000
14.165133 -20.403675 0.403207 23.000000
15.442876 -20.478510 0.416354 27.000000
18.669367 -20.431234 0.449270 72.000000
18.752407 -20.393093 0.449724 47.000000
15.478640 -20.325914 0.414731 26.000000
15.618124 -20.309864 0.415899 24.000000
15.732000 -20.259735 0.416386 36.500000
15.729877 -20.061050 0.413822 30.000000
15.718488 -19.917351 0.411874 30.000000
15.711331 -19.780182 0.410056 32.000000
15.700973 -19.640131 0.408173 32.000000
15.684875 -19.494110 0.406161 33.000000
15.683118 -19.367033 0.404538 32.000000
15.670605 -19.227762 0.402655 34.000000
-3.484179 -9.148259 0.498817 32.000000
-3.501854 -9.023768 0.493219 28.000000
-3.516617 -8.895712 0.487417 25.500000
-3.517976 -8.738185 0.479988 25.500000
-3.513722 -8.571751 0.472049 30.500000
-3.518287 -8.431526 0.465535 34.000000
-3.525813 -8.266462 0.457936 35.000000
-3.534573 -8.109720 0.450777 36.500000
-3.542571 -7.957033 0.443822 27.333334
-3.956339 -7.744693 0.443144 16.000000
-3.867519 -7.750064 0.441352 23.400000
-3.716630 -7.750065 0.437973 26.000000
-3.578274 -7.772710 0.436019 25.400000
-3.975389 -7.662965 0.439887 20.666666
-3.984380 -7.506363 0.433034 25.333334
-3.995218 -7.358478 0.426656 27.333334
-4.006885 -7.216872 0.420617 28.000000
-4.017542 -7.052349 0.413577 28.750000
-4.026424 -6.903276 0.486887 30.285715
-4.105724 -6.039442 0.499401 4.333333
-4.119051 -5.865358 0.490123 0.000000
-4.135547 -5.715365 0.482427 0.000000
-4.137353 -5.569099 0.474431 0.500000
-4.118117 -5.392321 0.463986 26.222221
-4.129307 -5.258898 0.457239 33.750000
-4.161788 -5.148762 0.452736 3.875000
-4.188327 -4.954700 0.443662 0.000000
-4.185714 -4.821661 0.497613 0.000000
-4.189212 -4.673996 0.490147 0.000000
-4.172772 -4.496756 0.473150 26.090910
-4.182722 -4.360347 0.466009 39.799999
-4.193188 -4.222767 0.458983 40.333332
-4.201226 -4.075820 0.479791 41.333332
-4.210434 -3.907308 0.493259 42.333332
-4.219861 -3.758671 0.485274 43.142857
-4.225310 -3.622923 0.477950 44.200001
-4.234134 -3.550353 0.474494 43.500000
-4.240693 -3.455132 0.469727 44.000000
-4.246035 -3.306808 0.462149 44.285713
-4.254592 -3.217743 0.458067 44.000000
-4.196986 -3.132969 0.495763 50.000000
-3.859978 -2.825171 0.452744 35.750000
-3.868541 -2.707194 0.449078 30.210526
-3.902280 -2.574252 0.474330 32.888889
-3.892060 -2.401733 0.487579 46.454544
-3.911882 -2.108503 0.500946 59.210526
-3.920623 -1.957266 0.490081 59.428570
-3.926664 -1.847567 0.477577 61.750000
-3.936376 -1.780297 0.491382 62.583332
-3.942476 -1.660083 0.478439 66.761902
-3.951299 -1.512710 0.476767 70.333336
-3.963880 -1.365759 0.470670 70.590912
-3.977693 -1.211658 0.466810 61.500000
-3.986134 -1.058484 0.463017 67.136360
4.095177 -1.022634 0.473846 53.583332
-3.993660 -0.910554 0.461428 63.217392
4.119277 -0.956264 0.470545 11.222222
-4.006238 -0.762598 0.456304 60.739132
-4.021821 -0.612583 0.456803 56.875000
-4.034646 -0.459718 0.455983 55.500000
-4.045805 -0.307048 0.455614 55.708332
-4.056039 -0.160780 0.455814 55.000000
-4.060456 -0.021827 0.448760 55.599998
-4.083942 0.024238 0.494599 49.500000
-4.064855 0.105736 0.436547 57.777779
-4.105138 0.153106 0.475086 41.076923
-4.318674 0.270344 0.485761 32.375000
-4.209423 0.223581 0.473199 34.750000
-4.610723 0.390533 0.457956 25.750000
-4.866647 0.496911 0.463030 34.500000
-4.758219 0.451494 0.458283 32.000000
-5.054761 0.572390 0.481477 33.250000
-4.946402 0.528664 0.470840 34.000000
-5.376481 0.685882 0.465425 24.000000
-5.201626 0.630526 0.495917 31.500000
-5.642437 0.801079 0.489381 35.500000
-5.539255 0.742130 0.479912 29.333334
-5.810334 0.871581 0.478806 33.250000
-6.099463 0.986861 0.458698 32.666668
-5.933426 0.921779 0.445765 35.000000
-6.386487 1.101991 0.443185 34.000000
-6.254566 1.048971 0.489107 33.500000
-6.550159 1.162145 0.454919 32.500000
-6.886072 1.288742 0.479071 30.500000
-6.780196 1.235839 0.471293 28.000000
-7.085299 1.383659 0.493671 27.000000
-7.015149 1.347096 0.488486 33.000000
-7.861997 1.689057 0.479928 32.000000
-7.730549 1.635423 0.471521 33.500000
-7.993587 1.742883 0.416885 34.000000
-8.207499 1.830186 0.428488 37.000000
-8.498726 1.937102 0.444162 28.000000
-8.749477 2.023195 0.457596 30.000000
-8.963360 2.117311 0.469301 34.500000
-9.394691 2.297127 0.492812 32.000000
-9.199921 2.218898 0.482227 34.000000
-3.008835 -16.234222 0.554351 20.000000
-4.298394 -16.042034 0.557618 12.333333
-4.142114 -16.062454 0.556946 17.333334
-4.005813 -16.054447 0.555560 25.000000
-3.870866 -16.049103 0.554307 26.666666
-3.709522 -16.042028 0.552830 26.666666
-3.534435 -16.028637 0.551096 26.500000
-3.388297 -16.023050 0.549877 25.000000
-3.255436 -16.015251 0.548714 26.500000
-3.100482 -16.025530 0.548043 27.750000
-4.356244 -15.761855 0.549050 2.500000
-4.368286 -15.519874 0.541332 1.000000
-4.378689 -15.371505 0.536634 1.000000
-4.387097 -15.219385 0.531802 1.000000
-4.404079 -15.012505 0.525292 2.000000
-4.414850 -14.790459 0.518245 1.000000
-4.425474 -14.657876 0.514084 3.000000
-4.441147 -14.544489 0.510594 1.000000
-4.449071 -14.408234 0.506299 2.000000
-4.459762 -14.283519 0.502406 1.000000
-3.389955 -10.660810 0.570028 30.333334
-3.402180 -10.489752 0.561919 35.000000
-3.408508 -10.342696 0.554897 34.000000
-3.419099 -10.212882 0.548790 34.000000
-3.428287 -10.030544 0.540139 34.500000
-3.436943 -9.902937 0.534134 35.000000
-3.444348 -9.775488 0.528129 34.500000
-3.454360 -9.610796 0.520394 34.000000
-3.465184 -9.453875 0.513066 30.500000
-3.473478 -9.295329 0.505636 34.000000
-3.544612 -7.957899 0.595734 26.000000
-3.962672 -7.753749 0.595461 10.000000
-3.866284 -7.744223 0.591914 22.000000
-3.714812 -7.742835 0.587274 24.600000
-3.578238 -7.769121 0.584927 24.600000
-3.976289 -7.661417 0.590276 18.333334
-3.985306 -7.504943 0.581089 24.333334
-3.998088 -7.360674 0.572811 28.000000
-4.005924 -7.212192 0.564169 30.000000
-4.035951 -6.769860 0.504512 30.250000
-4.044781 -6.605916 0.529693 30.000000
-4.052193 -6.457364 0.521324 30.666666
-4.062278 -6.318164 0.513660 30.500000
-4.070943 -6.160081 0.504928 25.000000
-4.115217 -5.568461 0.594580 3.200000
-4.260871 -3.222488 0.599706 41.750000
-3.889153 -2.417486 0.600256 51.812500
-3.898342 -2.258155 0.505756 51.599998
4.180361 -0.939786 0.518885 0.000000
-3.999424 -0.760600 0.600129 70.347824
-4.009739 -0.610040 0.599461 68.916664
-4.021204 -0.457466 0.598168 67.166664
-4.031645 -0.305257 0.597586 66.583336
-4.041651 -0.159495 0.597817 65.409088
-4.053715 -0.013411 0.599137 63.208332
-4.061626 0.107799 0.600498 61.500000
-4.536283 0.362590 0.551104 30.000000
-4.458995 0.328327 0.501885 29.666666
-6.037061 0.963739 0.524972 34.000000
-6.476496 1.138485 0.564670 31.000000
-6.872876 1.297403 0.600603 31.000000
-6.718185 1.235531 0.586572 27.500000
-7.346380 1.482624 0.512501 32.000000
-7.225745 1.434669 0.503768 31.000000
-7.598674 1.583294 0.530785 30.000000
-7.470693 1.532156 0.521506 31.000000
-8.154821 1.806389 0.571173 28.000000
-8.004499 1.746726 0.560257 30.000000
-8.289272 1.863508 0.580998 30.000000
-8.458461 1.929478 0.593278 33.000000
-9.604567 2.380450 0.504211 31.000000
-9.868254 2.478734 0.518460 31.000000
-10.158515 2.585594 0.534134 30.000000
-10.417253 2.686327 0.548179 32.000000
-6.545717 13.812428 0.513198 34.799999
-6.699198 13.932350 0.519050 29.000000
7.923768 14.485061 0.554351 14.000000
2.337688 14.860714 0.505091 175.000000
2.458915 14.820892 0.504420 255.000000
2.605184 14.835120 0.505717 255.000000
2.741468 14.843616 0.506809 255.000000
2.309667 14.989151 0.509207 170.000000
3.112865 15.191618 0.520661 4.000000
3.176212 15.137635 0.519319 46.500000
8.306120 15.471423 0.589586 62.000000
8.412704 15.455465 0.590816 44.666668
8.777866 15.464407 0.597035 12.000000
8.834345 15.450637 0.597572 1.000000
8.256573 15.554543 0.591263 13.000000
8.308032 31.005997 0.521075 52.000000
8.156210 31.023495 0.520718 66.500000
8.425297 31.053085 0.522309 50.000000
8.025431 31.121651 0.521724 12.000000
8.563068 31.173010 0.524776 47.000000
8.701676 31.292381 0.527243 14.000000
-13.482566 31.609455 0.557843 8.000000
-12.705278 31.605358 0.552953 5.000000
-13.325686 31.700539 0.558211 5.000000
-12.396650 31.697624 0.552498 1.000000
-13.250632 31.801321 0.559250 3.000000
-12.924772 31.861784 0.558146 5.000000
-13.141635 31.963257 0.561003 25.000000
-3.484716 -9.548244 0.695069 26.000000
-3.471918 -9.421171 0.686609 24.000000
-3.474988 -9.294443 0.678558 31.000000
-3.483014 -9.097283 0.666142 34.000000
-3.479889 -9.175344 0.671054 34.000000
-3.490403 -8.989635 0.659456 35.000000
-3.497656 -8.843206 0.650313 34.500000
-3.505430 -8.702604 0.641581 31.500000
-3.513852 -8.567797 0.633257 35.000000
-3.519959 -8.431385 0.624798 35.000000
-3.529354 -8.270741 0.614928 34.666668
-3.537118 -8.111677 0.605149 35.000000
-4.016242 -7.062547 0.612337 29.799999
-4.024195 -6.909000 0.686587 31.000000
-4.036128 -6.757399 0.675893 31.333334
-4.041967 -6.601312 0.664685 30.500000
-4.050997 -6.455466 0.654447 31.333334
-4.062211 -6.318088 0.645007 32.000000
-4.072081 -6.161803 0.634227 27.000000
-4.087618 -6.019480 0.624816 4.750000
-4.089396 -5.862231 0.613779 1.500000
-4.099473 -5.703195 0.603136 3.000000
-4.119468 -5.386905 0.616196 24.857143
-4.128993 -5.258488 0.632786 31.750000
-4.148601 -5.125571 0.627024 17.473684
-4.154320 -4.970161 0.643561 24.307692
-4.159398 -4.812209 0.657768 32.333332
-4.169643 -4.658761 0.646549 31.600000
-4.177177 -4.508004 0.635550 32.666668
-4.189665 -4.353940 0.624852 35.833332
-4.196938 -4.200075 0.614017 38.666668
-4.205651 -4.053033 0.604006 40.333332
-4.216184 -3.907005 0.640624 38.181820
-4.225967 -3.764107 0.635304 39.142857
-4.232441 -3.620481 0.625316 40.458336
-4.244096 -3.457907 0.614554 41.428570
-4.253039 -3.312269 0.605160 41.928570
-4.205218 -3.139108 0.635501 46.500000
-3.960840 -2.926592 0.683804 42.000000
-3.860555 -2.821146 0.615377 32.714287
-3.868353 -2.711331 0.614025 28.055555
-3.879785 -2.558954 0.604104 47.111111
-3.900996 -2.258806 0.625931 56.400002
-3.913154 -2.104560 0.616964 58.500000
-3.934778 -1.955614 0.649544 47.288887
-3.927614 -1.831551 0.640523 60.000000
-3.935573 -1.766692 0.637559 62.750000
-3.942156 -1.659122 0.630322 66.428574
-3.951895 -1.512147 0.627201 68.619049
-3.962304 -1.364450 0.619382 68.818184
-3.976119 -1.210422 0.614309 60.458332
-3.983377 -1.057016 0.609103 70.545456
4.095001 -1.023329 0.623812 39.583332
-3.990923 -0.909213 0.606569 71.086960
4.121214 -0.961280 0.625460 8.375000
-4.115119 0.180456 0.608760 32.375000
-4.303221 0.267208 0.631620 30.571428
-4.203149 0.223983 0.622063 34.500000
-4.616316 0.398694 0.602229 28.666666
-4.541739 0.363824 0.632643 31.000000
-4.443751 0.320964 0.638474 26.250000
-4.877165 0.498415 0.637273 24.000000
-4.762396 0.456579 0.621772 25.666666
-5.032339 0.558327 0.657874 20.250000
-4.941542 0.528139 0.601839 29.500000
-5.355373 0.691793 0.606158 31.250000
-5.202282 0.630601 0.634620 31.666666
-5.648251 0.798851 0.623764 25.333334
-5.490745 0.744393 0.622032 29.250000
-5.805059 0.870818 0.607023 32.666668
-5.688369 0.825791 0.696094 16.500000
-6.110481 0.995154 0.640213 29.000000
-6.038925 0.964036 0.632395 35.000000
-5.959373 0.932149 0.623755 34.000000
-6.380530 1.100963 0.612805 25.000000
-6.243043 1.047044 0.654614 31.500000
-6.572626 1.176738 0.661216 19.750000
-7.027082 1.360906 0.614635 26.000000
-7.320912 1.477484 0.641328 31.000000
-7.204338 1.430419 0.630719 27.000000
-7.584592 1.580360 0.665284 19.000000
-7.445068 1.526901 0.652622 33.000000
-7.758286 1.654771 0.681197 16.500000
-8.627314 1.996532 0.605558 33.000000
-8.795828 2.064662 0.617839 34.000000
-9.166729 2.212585 0.644856 34.000000
-8.991171 2.140343 0.632029 32.000000
-9.396189 2.299231 0.661502 20.000000
-9.574838 2.374855 0.674601 19.000000
-9.815028 2.467185 0.692067 15.000000
-12.091819 3.321562 0.638966 26.000000
-12.516238 3.480470 0.661968 17.000000
12.191636 15.582099 0.664282 50.333332
12.117943 15.690103 0.665624 12.000000
-9.709394 39.000259 0.652415 5.000000
-9.573475 38.976192 0.651506 1.000000
-8.706553 39.731880 0.660271 3.000000
-8.574927 39.727768 0.659752 3.000000
-8.867796 39.868305 0.662998 9.000000
-3.877317 -21.484608 0.733006 25.000000
-3.737455 -21.480974 0.732066 34.000000
-3.561222 -21.464920 0.730545 27.666666
-3.386804 -21.456078 0.729314 43.000000
-3.248037 -21.451241 0.728442 29.500000
-3.108319 -21.437595 0.727301 37.500000
-2.969993 -21.430964 0.726429 34.000000
-2.832393 -21.427404 0.725690 40.000000
-2.659012 -21.408609 0.724326 34.333332
-2.487627 -21.401745 0.723409 43.500000
-2.350931 -21.397081 0.722737 37.500000
-2.213965 -21.387573 0.721932 44.000000
0.853578 -21.438923 0.720388 44.000000
0.954861 -21.440628 0.720590 34.500000
1.089461 -21.432209 0.720523 44.000000
1.223759 -21.418953 0.720321 46.500000
1.391909 -21.407972 0.720299 53.666668
1.560333 -21.401077 0.720456 41.500000
1.695402 -21.398821 0.720724 30.500000
1.831697 -21.409653 0.721462 23.500000
3.954195 -21.397415 0.730590 6.000000
4.091946 -21.389816 0.731194 6.500000
4.267235 -21.394295 0.732469 6.000000
4.408835 -21.402298 0.733677 6.000000
4.514195 -21.402767 0.734415 5.500000
4.689703 -21.401106 0.735601 5.666667
4.830819 -21.401190 0.736630 5.000000
-2.077617 -21.381165 0.721261 38.000000
-1.907199 -21.369568 0.720344 45.000000
-1.737630 -21.363346 0.719650 39.000000
-1.601265 -21.345936 0.718711 44.500000
-1.466019 -21.339622 0.718174 42.500000
-1.330672 -21.328463 0.717503 53.000000
-1.162430 -21.325571 0.717078 42.333332
-0.993812 -21.310791 0.716295 54.000000
-0.859492 -21.306629 0.715959 44.500000
-0.725061 -21.295628 0.715422 54.500000
-0.557439 -21.287300 0.714975 47.333332
4.195383 -21.384056 0.731663 6.000000
4.334427 -21.380783 0.732469 6.000000
4.893563 -21.366423 0.735959 6.000000
-0.389888 -21.272415 0.714348 60.500000
-0.256146 -21.268448 0.714147 49.000000
-0.122477 -21.263639 0.713946 60.000000
0.044515 -21.255907 0.713677 49.000000
0.211298 -21.238955 0.713140 57.000000
0.311384 -21.237749 0.713140 50.000000
0.377961 -21.228672 0.712872 49.000000
0.477993 -21.226627 0.712872 60.500000
0.644429 -21.214186 0.712603 53.333332
0.777729 -21.209785 0.712603 93.000000
1.911349 -21.165899 0.713543 93.000000
2.008799 -21.132753 0.712738 58.000000
2.141942 -21.123692 0.712872 51.000000
2.275268 -21.115778 0.713073 72.000000
2.442499 -21.109789 0.713498 55.333332
2.608858 -21.095291 0.713677 59.500000
2.709268 -21.090717 0.713946 49.000000
2.843331 -21.085165 0.714348 110.000000
4.918141 -21.167925 0.729650 62.000000
2.775509 -21.082104 0.713946 49.000000
2.910105 -21.080088 0.714482 45.000000
3.044219 -21.073185 0.714885 53.333332
3.211130 -21.058552 0.715221 56.000000
3.345588 -21.051777 0.715691 47.500000
3.481045 -21.050062 0.716362 53.000000
3.648997 -21.037785 0.716899 46.000000
3.789601 -21.061729 0.718509 27.000000
4.972144 -20.951946 0.723006 50.000000
5.145295 -20.947790 0.724236 45.666668
5.282022 -20.935795 0.724952 43.000000
5.351729 -20.934589 0.725489 36.000000
5.454357 -20.924583 0.726026 38.500000
5.595012 -20.924662 0.727234 41.000000
5.732721 -20.912226 0.728039 38.000000
5.871575 -20.902733 0.728979 44.000000
6.046678 -20.894327 0.730321 41.666668
6.218582 -20.873060 0.731261 59.000000
6.358933 -20.864168 0.732334 55.500000
6.498816 -20.852428 0.733341 58.000000
6.640026 -20.843559 0.734482 50.500000
6.781981 -20.835644 0.735690 59.000000
6.926019 -20.832451 0.737100 51.000000
7.067045 -20.818810 0.738173 56.000000
7.209496 -20.807991 0.739381 51.000000
7.393462 -20.809061 0.741462 34.333332
7.573747 -20.797361 0.743140 39.500000
7.720272 -20.792461 0.744683 24.000000
7.867745 -20.788410 0.746294 35.500000
8.011155 -20.772137 0.747502 28.500000
8.161257 -20.771618 0.749314 32.500000
8.306446 -20.757051 0.750656 27.500000
8.456322 -20.752575 0.752401 31.000000
8.603394 -20.739655 0.753878 25.000000
8.755305 -20.736748 0.755757 33.000000
8.902782 -20.721731 0.757233 26.000000
9.056023 -20.718500 0.759180 30.500000
9.207947 -20.710506 0.760992 24.000000
9.358468 -20.697781 0.762669 29.500000
9.506714 -20.678522 0.764146 42.000000
9.660992 -20.670897 0.766092 35.000000
9.815556 -20.662146 0.768039 39.500000
9.969526 -20.650463 0.769918 35.000000
10.126351 -20.643055 0.771998 36.500000
10.242181 -20.632740 0.773408 34.000000
10.361734 -20.628864 0.775085 36.500000
10.518394 -20.616768 0.777099 32.500000
10.681747 -20.615940 0.779582 24.500000
10.845510 -20.613869 0.782065 25.500000
11.004956 -20.601736 0.784213 24.000000
11.164668 -20.588415 0.786360 28.000000
11.901295 -20.613646 0.799179 27.000000
11.326580 -20.577400 0.788642 23.000000
11.451610 -20.574480 0.790588 22.000000
11.570990 -20.560318 0.792132 24.000000
11.733658 -20.546219 0.794414 22.500000
15.586542 -18.000061 0.799447 32.500000
15.576547 -17.818031 0.794615 33.000000
15.571714 -17.699972 0.791528 35.000000
15.563643 -17.579128 0.788307 36.000000
15.560282 -17.464479 0.785354 40.000000
15.636422 -17.439323 0.786427 48.000000
15.778805 -17.432083 0.789447 47.500000
15.902565 -17.403324 0.791528 4.000000
-4.363404 -14.960447 0.794076 19.000000
-4.376466 -14.831720 0.787969 21.000000
-4.386477 -14.695404 0.781456 21.000000
-4.395674 -14.559173 0.774942 22.000000
-4.404059 -14.423029 0.768428 21.000000
-4.415166 -14.298431 0.762525 22.000000
-4.431169 -14.140036 0.755061 17.000000
-3.444777 -10.671600 0.766841 9.000000
-3.453287 -10.528231 0.757698 18.000000
-3.461932 -10.388785 0.748829 17.000000
-3.458298 -10.217393 0.737641 15.500000
-3.446826 -10.027365 0.725087 12.000000
-3.440346 -9.907160 0.717173 12.000000
-3.459109 -9.811796 0.711442 14.000000
-3.499719 -9.731676 0.707213 19.500000
-3.563612 -8.535935 0.794302 19.500000
-3.571203 -8.405170 0.784207 18.500000
-3.578861 -8.278315 0.774453 20.500000
-3.585734 -8.118720 0.762133 22.000000
-3.546974 -7.896063 0.743311 26.000000
-3.960990 -7.750459 0.747418 23.000000
-3.865022 -7.741691 0.743037 24.000000
-3.712956 -7.738920 0.737082 26.400000
-3.621554 -7.734705 0.733386 28.000000
-3.564742 -7.771957 0.734242 25.500000
-3.977089 -7.662939 0.741372 19.000000
-3.987439 -7.508969 0.730078 23.000000
-3.995902 -7.356650 0.718899 25.000000
-4.007797 -7.202232 0.743816 27.250000
-4.057733 -6.466199 0.789431 26.000000
-4.066839 -6.325267 0.777637 29.250000
-4.074709 -6.165782 0.764264 27.250000
-4.080453 -6.049566 0.754595 23.500000
-4.084700 -5.974541 0.748424 24.000000
-4.091223 -5.864824 0.739475 25.500000
-4.105489 -5.695354 0.761392 27.857143
-4.113430 -5.555107 0.775978 28.875000
-4.123269 -5.420143 0.779469 29.625000
-4.143820 -5.110208 0.796761 30.833334
-4.155881 -4.947725 0.782511 31.000000
-4.162313 -4.800242 0.769430 28.000000
-4.172067 -4.661468 0.757600 23.799999
-4.181865 -4.498509 0.770966 30.875000
-4.190845 -4.354403 0.785539 34.166668
-4.199275 -4.201694 0.772136 33.333332
-4.208471 -4.055046 0.759637 33.916668
-4.218451 -3.922394 0.785127 37.142857
-4.230209 -3.736904 0.783743 37.666664
-4.238145 -3.609736 0.773003 35.428570
-4.244987 -3.457380 0.760193 31.142857
-4.255519 -3.313020 0.797076 37.642857
-4.253968 -3.205652 0.787258 38.666668
-4.202103 -3.125312 0.773980 44.000000
-3.950606 -2.919030 0.769906 45.000000
-3.862661 -2.816726 0.792262 32.666668
-3.877281 -2.712286 0.786434 27.684210
-3.938661 -2.646216 0.743737 29.750000
-3.910782 -2.553554 0.779220 21.875000
-3.904552 -2.422446 0.742964 19.545454
-3.927681 -2.248323 0.742832 32.077271
-3.982179 -2.113250 0.749065 38.000000
-3.976598 -1.816710 0.780708 47.000000
-3.977302 -1.646636 0.777743 42.466667
-3.983994 -1.509917 0.784342 37.652172
-4.001814 -1.360231 0.778360 35.523811
-4.012305 -1.214181 0.770291 31.181818
-4.016455 -1.061812 0.765146 30.391304
4.094578 -1.027312 0.778602 32.615383
-4.011108 -0.910263 0.756008 36.590908
4.122534 -0.964828 0.772438 8.428572
-4.015220 -0.759807 0.751110 43.875000
-4.022515 -0.608523 0.746173 44.217392
-4.032482 -0.458387 0.745979 43.500000
-4.043796 -0.308851 0.747024 43.043480
-4.049788 -0.162798 0.743384 41.260868
-4.088500 0.008261 0.788178 56.428570
-4.045586 -0.021862 0.728521 36.411766
-4.119894 0.141567 0.788531 33.833332
-4.044170 0.126453 0.706922 29.700001
-4.288463 0.255025 0.794705 17.000000
-4.540308 0.356440 0.754990 18.833334
-4.459873 0.315208 0.750739 15.125000
-5.020197 0.513475 0.790965 13.000000
-4.926267 0.472718 0.775687 11.666667
-4.766987 0.442286 0.793386 15.250000
-5.084647 0.568622 0.762885 14.714286
-5.509894 0.704034 0.771274 10.000000
-5.376586 0.652542 0.752019 11.000000
-5.677039 0.779752 0.795663 13.000000
-5.771060 0.859085 0.789526 21.200001
-6.254531 0.998455 0.767026 10.000000
-6.175248 0.965915 0.756927 9.000000
-6.046664 0.946306 0.795396 22.000000
-6.413927 1.065391 0.787384 12.333333
-6.932118 1.286043 0.729086 10.000000
-7.236493 1.389600 0.762002 9.000000
-7.111802 1.342505 0.748424 10.000000
-7.480439 1.509791 0.789157 16.666666
-7.349243 1.435204 0.774345 11.000000
-8.017138 1.749484 0.704640 15.000000
-8.350120 1.849650 0.734413 17.000000
-8.738542 1.993368 0.769662 16.000000
-8.565900 1.925697 0.753920 9.000000
-8.939782 2.113347 0.788827 25.500000
-8.837070 2.045074 0.778902 19.000000
-10.569067 2.692060 0.745827 9.000000
-13.831903 3.893185 0.732195 18.000000
-14.292170 4.071231 0.757232 23.000000
-14.513459 4.183604 0.769649 26.000000
-12.128606 7.502481 0.726699 26.000000
-5.489637 12.833028 0.711228 5.000000
-5.284368 12.910275 0.710821 4.000000
-5.190542 13.030021 0.714689 0.000000
-6.536952 13.760437 0.776265 22.000000
-6.442285 13.727847 0.772703 40.000000
-7.042247 13.857038 0.792041 26.000000
-6.846512 13.956989 0.792142 3.500000
-6.749143 13.979939 0.791023 43.500000
-6.039557 13.996787 0.776774 4.000000
-6.288126 14.179268 0.790371 28.600000
-5.749836 14.174335 0.779420 1.000000
-5.680004 14.193836 0.779013 12.000000
2.544682 14.762856 0.763339 0.000000
2.481997 14.816036 0.765476 0.000000
2.652861 14.833089 0.767817 0.000000
3.110584 15.180483 0.789598 4.000000
3.169782 15.146449 0.788512 61.000000
12.042367 -20.707476 0.804279 25.000000
12.163115 -20.690098 0.805823 26.000000
12.328716 -20.673347 0.808172 27.000000
12.492505 -20.651918 0.810387 28.000000
12.617827 -20.638906 0.812199 28.000000
12.703563 -20.633205 0.813541 28.000000
12.785176 -20.620377 0.814615 29.000000
12.928581 -20.562162 0.815510 25.333334
13.086184 -20.454372 0.815286 22.000000
13.264486 -20.448881 0.818373 24.000000
13.395749 -20.439693 0.820521 22.000000
13.527254 -20.429621 0.822668 23.000000
13.707696 -20.422235 0.825823 22.500000
13.838547 -20.408743 0.827903 21.000000
13.974120 -20.400974 0.830252 21.500000
14.159019 -20.394871 0.833608 21.000000
14.306601 -20.401613 0.836628 22.000000
14.443036 -20.391010 0.838977 21.500000
14.579653 -20.379673 0.841326 21.000000
14.720032 -20.372257 0.843876 21.500000
14.904419 -20.356785 0.847097 21.500000
15.045327 -20.347448 0.849648 22.000000
15.186510 -20.337132 0.852198 21.500000
15.330303 -20.329229 0.854882 21.000000
15.471960 -20.317146 0.857433 23.500000
15.667686 -20.308159 0.861191 27.000000
15.721436 -20.180534 0.858909 26.000000
15.715690 -20.042957 0.855151 26.000000
15.704276 -19.899342 0.851124 25.000000
15.694607 -19.759127 0.847232 26.000000
15.686709 -19.622290 0.843473 26.000000
15.683121 -19.491928 0.839983 26.000000
15.673835 -19.355568 0.836225 24.000000
15.666369 -19.222567 0.832601 25.000000
15.660764 -19.092888 0.829111 27.000000
15.646864 -18.954187 0.825219 27.000000
15.637384 -18.762039 0.820051 27.000000
15.624033 -18.567289 0.814749 28.000000
15.620282 -18.444895 0.811528 27.000000
15.608136 -18.313578 0.807903 29.000000
15.605732 -18.194660 0.804816 30.000000
-3.008814 -16.234108 0.841301 23.000000
-4.274916 -16.055037 0.846594 35.500000
-4.140728 -16.057129 0.844965 19.000000
-4.004324 -16.048496 0.842828 26.500000
-3.868962 -16.041224 0.840826 28.333334
-3.707108 -16.031567 0.838452 29.000000
-3.547228 -16.026787 0.836416 29.000000
-3.387466 -16.019123 0.834313 29.000000
-3.253846 -16.007427 0.832345 28.500000
-3.122932 -16.006315 0.830988 30.333334
-3.030928 -16.071476 0.833363 28.000000
-4.299275 -15.845817 0.836619 13.000000
-4.282368 -15.589548 0.823795 15.000000
-4.290654 -15.429764 0.816060 16.000000
-4.305555 -15.297002 0.809750 17.000000
-4.337900 -15.138294 0.802422 17.000000
-3.438352 -9.901417 0.900050 41.000000
-3.445823 -9.774233 0.889954 41.500000
