# This PCD file was generated using the MATLAB® pcwrite function
# from Computer Vision Toolbox®.
# .PCD v.7 - Point Cloud Data file format
VERSION .7
FIELDS x y z intensity
SIZE 4 4 4 4
TYPE F F F F
COUNT 1 1 1 1
WIDTH 1202
HEIGHT 1
VIEWPOINT 0 0 0 1 0 0 0
POINTS 1202
DATA ascii
-9.483281 -20.439314 -0.416117 28.000000
-9.501687 -20.311613 -0.414123 28.000000
-9.515979 -20.176764 -0.411981 28.000000
-9.534669 -20.052860 -0.410060 31.000000
-9.549218 -19.921827 -0.407992 28.000000
-9.566513 -19.798107 -0.406072 28.000000
-9.591980 -19.614496 -0.403228 29.000000
-9.616094 -19.431065 -0.400385 30.000000
-17.968142 -17.381966 -0.461687 2.000000
-17.490150 -16.603334 -0.445365 8.000000
-17.771687 -16.554977 -0.448540 11.000000
-17.643951 -16.591915 -0.447285 10.000000
-17.371391 -16.594662 -0.443666 7.000000
-17.215376 -16.549376 -0.441007 7.000000
-17.085690 -16.528301 -0.439013 8.000000
-15.405167 -16.444998 -0.416141 33.000000
-15.269903 -16.438126 -0.414344 43.000000
-15.123236 -16.434801 -0.412461 42.500000
-14.976901 -16.430569 -0.410577 44.000000
-14.825623 -16.419277 -0.408546 44.000000
-14.688071 -16.421947 -0.406884 43.000000
-14.536283 -16.407108 -0.404816 44.500000
-14.392837 -16.400331 -0.402970 43.000000
-14.293928 -16.391212 -0.401641 44.000000
-14.205694 -16.393723 -0.400607 45.000000
-15.780890 -16.256201 -0.418406 11.000000
-15.798343 -16.172216 -0.417520 47.000000
-15.805522 -16.027840 -0.415711 45.000000
-16.294334 -15.862154 -0.419957 0.000000
-16.218708 -15.888078 -0.419293 10.000000
-16.034172 -15.856024 -0.416449 48.500000
-15.862188 -15.884277 -0.414566 52.000000
5.624022 -12.697308 -0.497567 3.000000
5.616604 -12.573730 -0.493414 3.000000
-2.534699 -11.723346 -0.429750 37.500000
-2.445391 -11.756666 -0.430251 0.000000
-2.644625 -11.697050 -0.429678 20.500000
11.861687 -7.003927 -0.493557 0.000000
11.898623 -6.925112 -0.493270 0.000000
11.986546 -6.900922 -0.495562 1.000000
5.109737 -5.785716 -0.410889 6.000000
5.086943 -5.669622 -0.405467 9.333333
6.935073 -5.672166 -0.476908 0.600000
7.064435 -5.674979 -0.482351 1.000000
7.189254 -5.694048 -0.488177 0.000000
5.063452 -5.572471 -0.400790 3.000000
11.002548 -5.531397 -0.441232 0.000000
10.971688 -5.386881 -0.437937 0.000000
10.964664 -5.234669 -0.435335 0.000000
7.194645 -5.114850 -0.469891 0.000000
10.970633 -5.069177 -0.433008 0.000000
4.578866 -4.944750 -0.476097 0.666667
10.996057 -4.914206 -0.431540 0.000000
4.711164 -4.863194 -0.478352 0.583333
-10.834926 -4.744986 -0.423806 40.666668
4.776108 -4.743087 -0.475534 3.666667
11.038463 -4.788229 -0.431110 0.000000
11.079404 -4.723482 -0.431540 0.000000
-10.835793 -4.657669 -0.422588 63.500000
4.846860 -4.659254 -0.474970 69.166664
4.982657 -4.612205 -0.479668 41.833332
5.171441 -4.638510 -0.410026 37.666668
5.270081 -4.603755 -0.412970 43.000000
11.125561 -4.619663 -0.431626 4.000000
-10.899680 -4.583970 -0.423663 41.666668
11.266531 -4.554261 -0.435407 6.000000
11.332734 -4.539654 -0.437412 5.000000
11.448805 -4.523615 -0.441065 4.000000
11.583593 -4.513927 -0.445433 0.000000
11.712948 -4.500830 -0.449586 0.000000
6.163004 -4.474040 -0.405396 0.000000
6.312494 -4.452964 -0.411208 0.000000
6.639370 -4.473105 -0.426145 0.000000
6.770379 -4.413382 -0.430202 3.000000
11.864863 -4.495195 -0.454599 0.000000
12.002007 -4.482532 -0.459039 0.000000
12.176319 -4.460666 -0.464625 0.000000
12.556245 -4.443934 -0.477229 0.000000
12.672002 -4.440155 -0.481096 0.000000
6.778464 -4.398623 -0.430131 0.000000
6.925165 -4.382407 -0.436244 38.000000
11.695653 -3.722253 -0.439761 0.600000
11.436312 -3.548897 -0.429034 2.500000
11.429912 -3.429287 -0.427565 3.250000
11.367376 -3.313288 -0.424235 2.000000
11.350180 -3.250341 -0.423018 2.000000
11.420982 -3.135166 -0.424350 0.200000
11.403577 -2.976898 -0.422278 0.000000
11.335859 -2.832708 -0.418650 0.000000
11.337934 -2.676004 -0.417396 0.000000
11.331214 -2.521941 -0.415928 0.285714
11.335097 -2.376264 -0.414962 2.500000
11.401072 -2.222265 -0.416186 2.000000
11.407556 -2.099847 -0.415594 1.333333
-7.802587 -1.888229 -0.427325 40.000000
-7.805344 -1.777675 -0.426127 62.166668
-9.077772 -1.607191 -0.490728 3.000000
-8.883991 -1.601686 -0.480522 4.000000
-7.814002 -1.625352 -0.424851 59.666668
-8.678551 -1.592812 -0.469679 6.000000
-8.465404 -1.581197 -0.458410 3.000000
-8.311277 -1.579449 -0.450330 4.000000
-8.106265 -1.566890 -0.439487 4.000000
-7.944528 -1.561536 -0.430982 4.000000
5.886070 -0.917524 -0.420849 0.000000
4.547575 -0.870787 -0.489513 0.000000
4.640904 0.171796 -0.449880 0.000000
4.985297 0.270942 -0.439874 0.000000
5.326052 0.314560 -0.470065 0.000000
5.643187 0.351084 -0.498150 0.000000
5.706323 0.328098 -0.403795 1.000000
6.672864 0.494378 -0.472715 1.250000
6.801035 0.465926 -0.481594 0.500000
6.715372 0.566266 -0.476097 0.000000
6.657235 0.624578 -0.472376 2.400000
12.311677 1.061932 -0.442759 1.000000
-11.139297 1.133454 -0.401176 8.000000
12.208489 1.123958 -0.439274 0.500000
-11.177668 1.226115 -0.402895 7.750000
12.058226 1.263146 -0.434404 0.500000
12.115771 1.211451 -0.436266 0.000000
12.489549 1.209207 -0.449586 1.000000
-11.199072 1.371093 -0.404255 7.000000
12.068052 1.321667 -0.434977 0.000000
5.195223 1.449504 -0.475214 7.166667
6.024080 1.451783 -0.437761 1.000000
6.120172 1.444492 -0.444245 1.000000
6.295673 1.465049 -0.456648 0.000000
12.114601 1.442434 -0.437126 0.000000
-11.198785 1.514119 -0.404900 7.250000
6.460383 1.503473 -0.410582 0.000000
6.630449 1.521062 -0.421212 0.000000
6.767587 1.530170 -0.429583 3.000000
6.939884 1.546196 -0.419470 6.000000
12.017571 1.526646 -0.434046 0.000000
-11.239676 1.661201 -0.407089 6.000000
-11.268682 1.813057 -0.408946 5.750000
6.111787 1.864994 -0.451433 0.000000
-11.325033 1.931801 -0.411632 4.500000
-11.251925 2.055942 -0.409829 4.250000
-11.295028 2.164859 -0.412061 8.000000
-11.086613 2.179091 -0.404828 53.000000
-11.015489 2.219111 -0.402608 12.000000
-10.877872 2.567459 -0.400460 40.500000
5.021133 2.633919 -0.499554 4.000000
5.167471 2.695632 -0.411752 4.909091
5.242225 2.645677 -0.414835 2.000000
-10.887418 2.714579 -0.402035 32.000000
5.943473 2.780329 -0.463554 0.000000
6.009322 2.742376 -0.466654 6.750000
-10.894006 2.862101 -0.403575 37.750000
5.916053 2.824311 -0.463131 0.666667
-10.896676 3.009676 -0.405043 28.250000
-10.904070 3.159717 -0.406762 32.500000
-10.910360 3.310713 -0.408516 26.750000
-10.918133 3.444587 -0.410199 35.333332
-11.394716 3.673803 -0.428962 3.000000
-11.455331 3.733119 -0.431683 4.000000
-11.406317 3.796619 -0.430728 3.333333
-11.398097 3.900221 -0.431635 4.000000
-11.466021 3.977189 -0.434834 3.000000
-11.452816 4.066953 -0.435455 4.000000
-11.417185 4.067723 -0.434261 3.000000
-11.413960 4.201876 -0.435789 2.666667
-11.459427 4.369109 -0.439417 3.166667
-11.459225 4.486197 -0.440921 3.000000
-11.410387 4.549969 -0.440134 3.500000
-11.199693 4.576359 -0.433488 28.000000
-11.082972 4.622395 -0.430251 9.000000
-10.973940 4.678560 -0.427434 25.000000
-10.980955 4.824951 -0.429750 21.750000
-10.986166 4.972018 -0.432065 31.000000
-10.980673 5.073799 -0.433402 20.000000
10.412844 5.049469 -0.414639 3.000000
-10.995611 5.164789 -0.435264 20.500000
10.389797 5.139529 -0.415320 3.000000
-10.993443 5.269561 -0.436804 27.000000
10.370406 5.272634 -0.416835 3.000000
-11.005577 5.425073 -0.439632 17.750000
10.360189 5.411636 -0.418793 4.500000
-11.012481 5.579735 -0.442330 24.666666
10.365271 5.581213 -0.421801 5.000000
-11.014993 5.712121 -0.444574 18.666666
10.372118 5.732881 -0.424617 4.000000
-11.025568 5.872357 -0.447581 24.500000
7.215651 5.893362 -0.495925 0.000000
10.384921 5.868382 -0.427386 2.666667
5.049458 5.922637 -0.414291 0.000000
5.129954 5.903366 -0.416311 0.000000
7.159586 5.952451 -0.495618 0.000000
-11.030519 6.031591 -0.450446 19.000000
4.929893 6.066152 -0.416098 0.000000
5.886599 6.046874 -0.449214 0.000000
5.995650 6.025023 -0.452456 0.000000
6.267793 6.027420 -0.462875 0.000000
7.154383 6.005389 -0.497213 0.000000
10.423751 6.020673 -0.431301 23.666666
-11.038322 6.171681 -0.453119 24.000000
10.439822 6.117663 -0.433545 65.000000
10.508878 6.224858 -0.437627 6.000000
-11.043284 6.311820 -0.455745 18.000000
-11.054646 6.457282 -0.458705 22.000000
-11.062933 6.626400 -0.462047 18.250000
6.047328 6.615872 -0.477120 0.000000
-11.078648 6.770439 -0.465198 22.666666
-11.623246 7.237731 -0.490597 2.666667
-11.559038 7.349777 -0.490788 2.333333
4.706826 7.354373 -0.464788 0.000000
4.713897 7.485536 -0.470883 0.000000
-11.594284 7.539474 -0.495526 2.500000
-11.588217 7.652711 -0.497567 1.500000
-11.379427 7.879386 -0.495920 7.000000
-11.311017 7.911235 -0.494559 44.000000
-11.221379 7.927505 -0.492268 11.500000
-11.118641 7.986704 -0.490501 16.333334
-11.127716 8.126417 -0.493700 13.500000
-11.135803 8.253654 -0.496636 20.500000
-11.129955 8.371809 -0.498999 13.000000
-11.586609 18.485111 -0.402896 15.000000
-17.054892 18.540569 -0.465232 6.000000
-17.066719 18.670801 -0.467153 8.000000
-11.587994 18.682230 -0.405998 9.000000
-17.080587 18.804253 -0.469147 8.000000
-17.093773 18.937983 -0.471141 8.000000
-17.095615 19.060062 -0.472840 9.000000
-17.094540 19.240578 -0.475314 4.000000
-9.630678 -19.307711 -0.398465 27.000000
-9.646376 -19.188030 -0.396618 30.000000
-10.015484 -19.092840 -0.398169 12.000000
-9.854012 -19.075451 -0.396507 50.500000
-9.704964 -19.079948 -0.395326 46.500000
-9.978177 -18.734837 -0.392002 2.000000
-9.997212 -18.559074 -0.389306 2.000000
-10.007772 -18.439703 -0.387460 2.000000
-10.029198 -18.341501 -0.386056 2.000000
-9.998003 -18.148766 -0.382659 5.000000
-10.037659 -18.019327 -0.380923 16.000000
-10.094021 -17.921318 -0.379852 1.000000
-10.112775 -17.823429 -0.378449 1.000000
-10.128923 -17.657639 -0.375938 1.000000
-10.147893 -17.498989 -0.373574 1.000000
-9.934530 -17.007727 -0.363751 18.000000
-9.949381 -16.910940 -0.362348 32.000000
-9.971663 -16.767628 -0.360280 36.000000
-9.992938 -16.624466 -0.358212 34.000000
-10.006727 -16.471249 -0.355922 36.500000
-14.063187 -16.384562 -0.398760 43.500000
-13.923630 -16.377575 -0.396987 45.000000
-13.788355 -16.374126 -0.395326 44.500000
-13.604660 -16.363567 -0.392999 44.500000
-13.468909 -16.356535 -0.391300 44.000000
-13.336084 -16.351597 -0.389675 45.000000
-13.162863 -16.347836 -0.387607 45.000000
-12.985222 -16.336304 -0.385392 45.500000
-12.856132 -16.331366 -0.383841 43.000000
-12.727409 -16.325485 -0.382290 45.000000
-12.557514 -16.317966 -0.380259 46.000000
-12.389418 -16.310562 -0.378264 46.500000
-12.265524 -16.306484 -0.376824 45.000000
-10.025709 -16.328466 -0.353854 33.000000
-12.139586 -16.298306 -0.375310 46.500000
-11.976542 -16.292089 -0.373427 46.000000
-11.812876 -16.282856 -0.371506 46.000000
-11.653296 -16.277084 -0.369697 45.000000
-11.491951 -16.266689 -0.367814 46.500000
-11.336914 -16.263117 -0.366115 45.000000
-11.176712 -16.250004 -0.364231 46.000000
-11.065110 -16.251289 -0.363087 45.000000
-10.944833 -16.238544 -0.361646 45.000000
-10.796085 -16.237055 -0.360095 46.500000
-10.643410 -16.227648 -0.358397 45.500000
-10.491276 -16.216970 -0.356698 46.000000
-10.342918 -16.210085 -0.355110 45.500000
-10.198263 -16.207054 -0.353633 46.000000
-10.063519 -16.218155 -0.352488 40.500000
-15.868969 -14.689682 -0.399351 46.000000
-15.868699 -14.551230 -0.397615 47.000000
-15.878279 -14.377428 -0.395584 48.500000
-15.886316 -14.204069 -0.393553 48.000000
-15.885763 -14.069369 -0.391891 49.000000
-15.893213 -13.942939 -0.390451 49.000000
-15.901912 -13.774721 -0.388531 48.500000
-15.910645 -13.608247 -0.386647 49.000000
-15.919439 -13.443508 -0.384801 49.500000
-15.921310 -13.317002 -0.383324 49.000000
-15.928408 -13.195915 -0.381994 50.000000
-15.936707 -13.034809 -0.380222 50.000000
-15.935848 -12.909200 -0.378745 51.000000
-15.945168 -12.833999 -0.378006 48.000000
-15.947575 -12.712606 -0.376640 51.000000
-15.953275 -12.554039 -0.374904 50.500000
-15.959196 -12.397123 -0.373205 52.500000
-15.966951 -12.243071 -0.371580 51.500000
-15.970225 -12.086983 -0.369882 51.500000
-15.975839 -11.973207 -0.368700 53.000000
-15.982260 -11.860865 -0.367555 52.500000
-15.988718 -11.710581 -0.366004 53.500000
-17.545639 -11.503420 -0.387460 5.000000
-17.643181 -11.331067 -0.387238 8.000000
-17.566078 -11.398832 -0.386721 13.500000
-13.906588 -10.018769 -0.316531 46.666668
-13.915831 -9.860279 -0.314968 51.000000
-17.826078 -9.779716 -0.375495 0.000000
-17.725258 -9.796982 -0.374018 0.000000
-17.380821 -9.749678 -0.368035 0.000000
-17.235209 -9.739301 -0.365598 0.000000
-17.121113 -9.745913 -0.363825 0.000000
-16.962036 -9.726049 -0.361092 0.000000
-13.918509 -9.731403 -0.313639 51.000000
-16.547991 -9.627298 -0.353559 0.000000
-16.380411 -9.668058 -0.351269 2.000000
-15.528501 -9.699520 -0.338123 3.000000
-15.416707 -9.697147 -0.336350 3.000000
-15.291567 -9.685611 -0.334282 3.000000
-15.147539 -9.683464 -0.332017 3.000000
-14.971237 -9.681625 -0.329260 3.000000
-14.796573 -9.667770 -0.326416 3.000000
-14.625664 -9.654841 -0.323646 3.000000
-14.062680 -9.603705 -0.314488 33.000000
-13.939892 -9.616484 -0.312752 43.500000
-16.376196 -9.596334 -0.350531 2.000000
-14.302159 -9.505928 -0.317147 18.000000
-14.191235 -9.561322 -0.316014 42.000000
-16.300747 -8.876387 -0.342776 2.000000
-14.343215 -8.772321 -0.310500 15.000000
-14.244073 -8.773298 -0.308949 2.000000
-14.141673 -8.771624 -0.307324 39.000000
-14.206621 -8.627576 -0.306954 39.000000
-14.267246 -8.526840 -0.306954 50.250000
-16.452002 -7.882503 -0.336904 0.000000
-16.418505 -7.771513 -0.335464 1.000000
-15.485950 -7.660366 -0.319067 1.500000
-16.469954 -6.774883 -0.328890 1.000000
-16.512617 -6.611271 -0.328484 2.000000
5.035110 -5.506423 -0.397175 1.000000
5.000553 -5.366451 -0.390456 0.200000
5.018957 -5.219232 -0.385438 1.400000
-17.744530 -5.078106 -0.340855 5.000000
-17.710363 -5.008191 -0.339895 10.000000
5.026783 -5.081635 -0.380484 16.250000
-17.753019 -4.929994 -0.340264 8.000000
5.027468 -4.925149 -0.374637 32.166668
5.049751 -4.839155 -0.372298 29.000000
-16.591038 -4.748001 -0.318698 8.000000
5.092505 -4.758909 -0.371023 32.714287
-16.593519 -4.636137 -0.318181 9.333333
5.425627 -4.581578 -0.398507 0.500000
5.562723 -4.588679 -0.383851 0.000000
5.745418 -4.543070 -0.389893 0.000000
5.874192 -4.533465 -0.394978 0.000000
6.009053 -4.503363 -0.399726 0.500000
-16.600433 -4.469839 -0.317492 9.000000
-16.743830 -4.339602 -0.319436 0.000000
-16.606331 -4.359684 -0.317073 7.000000
-10.678267 -1.905932 -0.388644 0.500000
-10.730356 -1.828390 -0.390004 2.000000
-10.700928 -1.857991 -0.389145 2.000000
-10.589240 -1.701808 -0.384275 56.000000
-10.691124 -1.632166 -0.387498 108.000000
-10.355043 -1.697561 -0.375968 24.000000
-10.065784 -1.682629 -0.365656 25.000000
-9.595452 -1.635009 -0.348755 4.000000
-9.350019 -1.623434 -0.340019 4.000000
-9.116566 -1.612418 -0.331711 3.000000
-8.906880 -1.604208 -0.324264 6.000000
-8.693406 -1.593970 -0.316673 7.000000
-8.491876 -1.584608 -0.309511 7.000000
-8.333691 -1.582202 -0.303926 6.000000
-10.695049 -1.465539 -0.386782 133.000000
-10.950214 -1.303741 -0.395113 42.666668
-10.710974 -1.360702 -0.386853 160.500000
-10.971138 -1.184088 -0.395375 27.750000
-10.961585 -1.013523 -0.394427 39.875000
4.831671 -0.988285 -0.348405 2.000000
-10.971335 -0.871181 -0.394337 41.750000
-10.967457 -0.732311 -0.393836 89.250000
-10.973679 -0.577054 -0.393728 159.399994
-10.981780 -0.421878 -0.393764 143.000000
-10.992815 -0.301294 -0.394015 99.000000
-10.971645 -0.266257 -0.393227 118.250000
-10.765049 -0.125887 -0.385736 96.199997
-10.774986 0.026334 -0.386066 61.250000
-10.772300 0.178622 -0.386023 82.400002
4.745445 0.160739 -0.335439 1.000000
5.014081 0.232950 -0.354607 0.000000
5.375110 0.283579 -0.380258 0.000000
5.716866 0.283602 -0.304685 3.000000
-10.781921 0.331313 -0.386495 56.250000
5.847578 0.308505 -0.311702 0.000000
6.612298 0.369685 -0.352525 3.000000
-10.787890 0.467235 -0.386889 60.750000
-10.793536 0.620486 -0.387369 54.400002
-10.803265 0.774391 -0.388071 61.250000
-10.805135 0.928257 -0.388572 47.000000
-10.814264 1.048915 -0.389288 68.500000
5.382155 1.450202 -0.393788 4.000000
5.575430 1.492818 -0.307237 1.500000
5.314035 1.503737 -0.390164 5.285714
5.465132 1.537235 -0.302205 5.166667
5.477371 1.605847 -0.303835 1.000000
6.049891 1.856576 -0.336862 0.000000
6.078782 1.907305 -0.339130 0.000000
6.929418 2.198141 -0.386969 0.000000
-10.864622 2.277701 -0.397739 40.750000
6.924245 2.256491 -0.387660 0.000000
5.276839 2.358234 -0.307662 0.000000
-10.875137 2.422948 -0.399207 32.500000
5.950089 2.481658 -0.343169 0.000000
6.849033 2.472578 -0.387607 0.000000
6.902021 2.454984 -0.389946 0.000000
5.976959 2.525979 -0.345402 0.000000
6.880219 2.532808 -0.390265 0.000000
5.327930 2.646719 -0.316688 3.095238
5.895613 2.757885 -0.346465 0.500000
6.864755 3.029139 -0.399408 0.500000
5.914002 6.092130 -0.304212 0.000000
5.991395 6.094760 -0.306217 0.000000
5.905935 6.122187 -0.304785 0.000000
6.004044 6.107492 -0.306862 0.000000
6.797592 6.154962 -0.328560 1.000000
6.898397 6.148396 -0.331091 0.666667
7.062314 6.156344 -0.335686 0.750000
7.232736 6.166339 -0.340544 1.333333
7.383534 6.175701 -0.344888 0.000000
7.531259 6.192746 -0.349352 0.166667
7.656662 6.202456 -0.353052 0.000000
4.940508 7.256108 -0.314524 0.000000
4.945243 7.362254 -0.317771 0.000000
6.644036 7.335017 -0.354599 4.200000
6.740570 7.302128 -0.356060 2.000000
4.943885 7.460904 -0.320683 0.000000
5.923676 7.452394 -0.341093 4.500000
-11.273926 11.690831 -0.299938 15.500000
-11.868743 13.045856 -0.325714 2.750000
-11.827004 13.186039 -0.327118 2.000000
-11.626147 13.294482 -0.326158 17.000000
-11.552847 13.294714 -0.325271 47.000000
-11.929211 13.384355 -0.331106 2.000000
-11.815513 13.340926 -0.329112 7.000000
-11.718060 13.314932 -0.327561 10.000000
-11.508405 13.327918 -0.325197 19.000000
-11.382855 13.351251 -0.324016 17.333334
-11.368352 13.505134 -0.326010 13.000000
-11.381366 13.650721 -0.328226 16.000000
-11.391941 13.839310 -0.331032 14.500000
-11.384790 13.964106 -0.332731 17.000000
-11.401703 14.120310 -0.335168 14.000000
-11.395056 14.248815 -0.336941 19.000000
-11.409658 14.405836 -0.339378 13.000000
-11.416222 14.601690 -0.342296 14.500000
-11.424477 14.754912 -0.344622 15.000000
-11.421956 14.847792 -0.345951 20.000000
-11.434192 15.009642 -0.348463 14.000000
-11.435660 15.159114 -0.350678 21.000000
-11.454971 15.334620 -0.353485 15.500000
-11.451633 15.481643 -0.355627 15.000000
-11.452675 15.585217 -0.357178 13.000000
-11.469624 15.763539 -0.360021 17.000000
-11.475929 15.929346 -0.362570 14.000000
-11.479364 16.040119 -0.364268 20.000000
8.437221 16.084263 -0.335427 51.500000
8.549444 16.052086 -0.335870 63.500000
8.709876 16.048275 -0.337212 48.000000
8.875034 16.050564 -0.338713 56.500000
9.041350 16.052353 -0.340240 61.000000
9.197727 16.034044 -0.341372 56.500000
9.347553 16.060635 -0.343182 55.000000
9.500129 16.089405 -0.345065 52.000000
9.639569 16.074690 -0.346148 51.000000
9.916044 16.093048 -0.349090 45.000000
9.789793 16.114031 -0.348204 59.500000
10.106915 16.118052 -0.351343 35.000000
10.209505 16.112453 -0.352266 50.500000
-11.496053 16.224594 -0.367223 14.500000
8.412008 16.221479 -0.337458 65.000000
10.090052 16.204044 -0.352525 86.000000
-11.497645 16.389875 -0.369734 15.000000
8.328108 16.309631 -0.338196 64.000000
8.399435 16.322506 -0.339009 55.000000
-11.503257 16.507950 -0.371580 13.000000
8.399744 16.578306 -0.343219 57.000000
-11.510425 16.685444 -0.374350 17.500000
-5.835779 16.636450 -0.325591 13.666667
8.410492 16.729675 -0.345804 60.000000
-11.523090 16.873236 -0.377341 16.000000
-11.519420 16.982166 -0.378966 15.000000
7.815567 16.914436 -0.344105 34.000000
-6.493503 17.067350 -0.337236 19.000000
-6.389857 17.035938 -0.336018 24.000000
-6.274375 17.053242 -0.335574 29.000000
-6.134992 17.087553 -0.335291 22.000000
-11.524108 17.104509 -0.380886 14.000000
-11.537045 17.240339 -0.383102 22.000000
2.031339 17.265955 -0.321061 0.000000
-11.538174 17.359766 -0.384949 12.000000
7.310780 17.451309 -0.349423 63.000000
7.946652 17.413170 -0.353485 75.000000
-11.552874 17.560976 -0.388198 17.500000
6.959894 17.533966 -0.348389 27.000000
7.076954 17.507111 -0.348733 33.000000
7.239171 17.511406 -0.349940 68.500000
7.404490 17.520353 -0.351269 70.000000
7.538686 17.529736 -0.352402 70.333336
7.706950 17.540213 -0.353817 69.500000
7.842295 17.548038 -0.354962 69.500000
7.944675 17.554644 -0.355848 66.000000
8.282578 17.561441 -0.358581 57.333332
8.453217 17.564358 -0.359985 59.000000
8.595023 17.575571 -0.361314 61.000000
8.773824 17.589878 -0.363013 53.000000
-6.142630 17.629318 -0.344770 4.000000
2.163474 17.670998 -0.328779 11.000000
2.277274 17.678871 -0.329186 24.500000
2.430096 17.680285 -0.329585 43.599998
2.590116 17.689610 -0.330170 63.666668
2.733640 17.699062 -0.330737 68.000000
6.950153 17.671120 -0.350678 24.000000
-11.559539 17.752615 -0.391227 15.000000
-6.123724 17.754391 -0.346838 16.000000
2.877275 17.705957 -0.331278 66.333336
3.022067 17.717018 -0.331918 66.000000
3.166761 17.724192 -0.332509 66.333336
3.340328 17.728931 -0.333174 65.666664
3.486786 17.739470 -0.333876 68.000000
3.632557 17.743496 -0.334479 69.000000
3.778741 17.747055 -0.335094 69.000000
3.927820 17.761040 -0.335931 68.000000
4.076700 17.771271 -0.336719 68.500000
4.225414 17.777569 -0.337458 70.333336
4.374929 17.784653 -0.338233 68.000000
4.525169 17.791691 -0.339033 66.333336
-11.562351 17.879515 -0.393221 14.000000
4.677112 17.802708 -0.339932 66.000000
4.828141 17.807196 -0.340732 65.666664
4.980934 17.815632 -0.341631 64.500000
5.136028 17.829082 -0.342652 64.000000
5.290289 17.836805 -0.343588 63.500000
5.445405 17.844387 -0.344548 62.333332
5.600934 17.850723 -0.345508 62.000000
5.727637 17.860878 -0.346395 61.500000
5.885277 17.868473 -0.347429 58.666668
6.042705 17.872894 -0.348426 57.500000
6.171844 17.883720 -0.349386 57.000000
6.331919 17.890574 -0.350481 56.000000
6.493585 17.899239 -0.351639 54.000000
6.928901 17.864017 -0.353854 28.500000
-6.133819 17.966566 -0.350605 17.000000
6.623969 17.906843 -0.352599 53.500000
6.788973 17.919046 -0.353879 49.000000
-11.573124 18.020067 -0.395510 12.000000
-11.572366 18.144007 -0.397431 20.000000
-6.141361 18.175190 -0.354297 14.000000
-11.579511 18.281630 -0.399646 11.000000
-6.106758 18.357599 -0.357289 12.500000
-5.959750 18.396700 -0.357129 5.000000
-5.806245 18.415016 -0.356587 5.000000
-5.678041 18.411009 -0.355812 6.500000
-5.518172 18.404547 -0.354839 4.000000
-5.366357 18.423046 -0.354371 4.500000
-5.208051 18.417126 -0.353460 5.333333
-5.054620 18.426003 -0.352857 4.500000
-4.930474 18.426491 -0.352266 7.500000
-4.778099 18.435562 -0.351712 9.000000
-4.627309 18.449291 -0.351269 6.500000
-4.475965 18.459118 -0.350777 8.666667
-4.332934 18.459024 -0.350161 5.333333
-4.233540 18.469786 -0.349940 7.000000
-4.141637 18.468044 -0.349534 5.500000
-4.023814 18.485889 -0.349386 5.500000
-3.870459 18.478386 -0.348660 4.000000
-3.721906 18.491920 -0.348352 6.500000
-3.630493 18.487694 -0.347946 1.000000
-2.567504 -11.785516 -0.222756 4.000000
-2.493031 -11.738797 -0.221624 5.000000
-10.544539 -11.209173 -0.284206 13.000000
-10.710948 -11.033555 -0.283985 22.000000
-10.586582 -11.078249 -0.282987 59.500000
-14.270329 -7.712723 -0.299569 5.000000
-14.278272 -7.630321 -0.298978 41.000000
-14.292884 -7.551726 -0.298535 41.000000
-14.294613 -7.466702 -0.297833 42.000000
-14.330874 -7.380868 -0.297698 32.000000
11.912057 -7.185807 -0.256916 4.500000
12.006834 -7.140427 -0.257986 2.500000
-14.363850 -6.661274 -0.292404 10.000000
-14.238151 -6.684799 -0.290484 6.000000
-14.322339 -6.560299 -0.290927 26.000000
9.617146 -6.548036 -0.214868 3.200000
-14.342241 -6.417325 -0.290174 46.000000
-14.277333 -6.485502 -0.289598 44.000000
5.635661 -5.724967 -0.287837 12.333333
11.548956 -5.715377 -0.237971 1.000000
11.579103 -5.798368 -0.239153 1.500000
-14.323857 -5.604807 -0.284058 0.000000
11.502234 -5.647340 -0.236641 0.000000
5.574136 -5.531532 -0.281367 5.500000
11.453397 -5.534410 -0.234918 0.333333
-14.177322 -5.496176 -0.280809 57.000000
-14.111838 -5.369081 -0.278839 59.000000
5.457131 -5.314022 -0.272917 5.000000
5.515615 -5.354343 -0.275424 4.000000
11.402573 -5.377859 -0.232825 0.000000
-14.113049 -5.217814 -0.277879 59.666668
5.486172 -5.239460 -0.271814 6.600000
11.393414 -5.221193 -0.231453 0.000000
5.505063 -5.113881 -0.269217 9.000000
-14.120196 -5.069700 -0.277066 59.333332
5.524466 -5.035730 -0.267833 10.000000
11.396297 -5.071579 -0.230364 0.000000
-14.129583 -4.923237 -0.276328 61.333332
5.556078 -4.922688 -0.265971 10.000000
11.426538 -4.935289 -0.229865 0.000000
-14.133677 -4.775771 -0.275515 62.666668
-10.843084 -4.748556 -0.218608 39.166668
5.581503 -4.760417 -0.262844 13.333333
11.470152 -4.783924 -0.229514 0.000000
11.524093 -4.700550 -0.229847 0.000000
-14.141650 -4.630424 -0.274808 62.000000
-10.863272 -4.639086 -0.218149 54.000000
5.632447 -4.667856 -0.262104 32.666668
5.722289 -4.607241 -0.263226 56.666668
11.584333 -4.640341 -0.230462 4.666667
11.716235 -4.608063 -0.232505 3.000000
11.872065 -4.604790 -0.235164 0.000000
5.887443 -4.574832 -0.267145 63.799999
6.014998 -4.553986 -0.270315 45.666668
6.131996 -4.544665 -0.273472 28.500000
6.332238 -4.518245 -0.278718 48.599998
12.061476 -4.591302 -0.238340 0.000000
12.176581 -4.569600 -0.240187 0.000000
12.346153 -4.566897 -0.243104 0.000000
12.493399 -4.554634 -0.245578 0.000000
12.616735 -4.554745 -0.247720 0.000000
12.828346 -4.562867 -0.251450 0.000000
13.015368 -4.537482 -0.254552 1.000000
-14.147480 -4.485152 -0.274088 62.000000
6.494083 -4.496579 -0.283015 49.000000
6.615536 -4.489151 -0.286452 4.000000
-14.157647 -4.317641 -0.273349 67.750000
-14.252565 -4.224504 -0.274531 132.000000
-14.402852 -4.195303 -0.277042 103.000000
-14.409879 -3.904290 -0.275712 1.000000
-14.422894 -3.726014 -0.275103 1.250000
-14.436190 -3.608751 -0.274808 1.750000
11.777080 -3.513138 -0.226966 1.000000
11.778140 -3.453090 -0.226671 4.000000
11.830356 -3.387851 -0.227261 1.000000
11.739375 -2.211825 -0.220614 3.333333
11.757016 -2.138732 -0.220688 2.000000
11.881787 -2.122888 -0.222904 3.000000
12.073538 -2.118028 -0.226375 3.000000
-10.735412 -1.829251 -0.201116 2.000000
-10.697117 -1.874626 -0.200562 1.500000
-7.799859 -1.878347 -0.287455 53.000000
-7.810394 -1.777385 -0.287001 61.666668
-7.815764 -1.624293 -0.286022 59.166668
-8.136358 -1.571234 -0.296908 4.000000
-7.970558 -1.565208 -0.291035 4.000000
-10.948754 -1.303575 -0.203627 44.666668
-10.979723 -1.187524 -0.203954 26.000000
-10.966031 -1.026966 -0.203405 42.200001
-10.968616 -0.882530 -0.203221 53.166668
4.683817 -0.843673 -0.253337 0.666667
-10.972413 -0.725220 -0.203078 111.857140
4.650339 -0.725005 -0.250538 1.777778
-10.977128 -0.584896 -0.203011 255.000000
4.611876 -0.555809 -0.247278 8.055555
-10.980959 -0.421840 -0.202944 255.000000
4.617674 -0.425163 -0.246852 86.818184
-10.975361 -0.272107 -0.202753 185.833328
4.605619 -0.276102 -0.245612 10.952381
4.613997 -0.148968 -0.245742 2.000000
4.647476 0.011458 -0.247396 1.222222
5.021447 0.185883 -0.267477 0.000000
5.339428 0.231257 -0.284486 0.000000
5.743343 0.238759 -0.205959 2.500000
6.309193 0.292016 -0.226297 2.000000
-10.809148 0.791891 -0.200156 57.333332
-10.812615 0.928904 -0.200421 50.599998
-10.809293 1.042723 -0.200549 75.333336
-11.152503 1.134798 -0.207024 10.000000
-11.183922 1.226850 -0.207781 9.000000
12.527367 1.292367 -0.232579 0.000000
-11.181699 1.386847 -0.208083 8.000000
12.366351 1.346535 -0.229728 0.800000
13.008902 1.300754 -0.241442 1.000000
13.753335 1.331564 -0.255180 2.000000
14.147676 1.324894 -0.262418 0.000000
-11.196133 1.513774 -0.208649 8.000000
5.729570 1.546169 -0.247168 2.833333
5.876931 1.536579 -0.252956 1.333333
6.031631 1.523498 -0.287776 0.800000
6.141992 1.520617 -0.281655 1.000000
6.311732 1.541488 -0.289442 0.000000
6.451684 1.585879 -0.238042 0.000000
6.588719 1.597631 -0.242911 0.000000
13.266481 1.558460 -0.246686 0.000000
-11.221801 1.658545 -0.209493 7.000000
5.650174 1.649378 -0.217307 4.875000
6.737555 1.611326 -0.248211 2.000000
6.881745 1.615355 -0.253271 6.000000
13.249158 1.683137 -0.246649 0.000000
14.207623 1.601173 -0.264043 1.000000
-11.273413 1.811165 -0.210865 5.571429
5.554352 1.818619 -0.209412 6.111111
-11.335223 1.951824 -0.212416 7.000000
-11.272204 1.986608 -0.211382 5.250000
5.516433 1.941594 -0.209540 6.250000
14.183769 1.937881 -0.264375 1.500000
5.485401 2.011858 -0.226189 5.000000
14.017216 2.072383 -0.261679 0.000000
-11.245553 2.100464 -0.211271 4.500000
-11.101113 2.163832 -0.208871 133.000000
5.470950 2.125578 -0.221546 5.333333
14.165974 2.185414 -0.264708 2.000000
-11.063804 2.228844 -0.208428 61.000000
-10.871697 2.279187 -0.205141 42.250000
5.463731 2.277780 -0.212097 6.000000
14.171659 2.277543 -0.265077 2.666667
14.137393 2.363251 -0.264708 0.000000
-10.880260 2.424096 -0.205861 32.750000
5.472871 2.424241 -0.214471 5.142857
-10.884943 2.569128 -0.206544 40.750000
5.450218 2.580116 -0.268279 3.125000
5.517219 2.641685 -0.219172 3.833333
-10.896428 2.716823 -0.207394 33.000000
13.991022 2.701891 -0.263157 2.000000
-10.892369 2.861673 -0.207985 35.250000
-10.902774 3.011358 -0.208889 30.000000
-10.908246 3.160928 -0.209739 36.000000
-10.912627 3.311412 -0.210606 25.750000
-10.922005 3.445813 -0.211505 35.000000
-11.407697 3.677988 -0.221353 4.000000
-11.449320 3.731160 -0.222387 4.000000
-11.409241 3.847429 -0.222362 3.833333
-11.456308 3.973820 -0.223938 4.000000
-11.436995 4.074817 -0.224221 3.833333
-11.429354 4.207516 -0.224923 3.666667
-11.452997 4.366642 -0.226363 3.833333
-11.453449 4.483942 -0.227151 4.000000
-11.399052 4.545431 -0.226634 3.000000
-11.200674 4.568563 -0.223396 30.000000
-11.073425 4.618421 -0.221574 10.000000
-10.977882 4.680245 -0.220393 26.666666
-10.992779 4.836995 -0.221796 22.666668
10.573222 4.863132 -0.214927 1.500000
10.672958 4.817804 -0.216257 0.000000
-10.989170 4.962982 -0.222682 34.250000
10.524157 4.961257 -0.214872 1.000000
-10.985846 5.076189 -0.223495 21.000000
-10.997171 5.165523 -0.224381 20.500000
10.448478 5.188943 -0.215444 1.000000
10.480750 5.102757 -0.215278 0.000000
-11.005519 5.275366 -0.225390 25.000000
10.432289 5.283504 -0.215961 1.250000
-11.013460 5.428940 -0.226763 20.250000
10.412926 5.439182 -0.216958 1.500000
-11.017661 5.582379 -0.228099 24.333334
10.394227 5.575728 -0.217832 0.000000
-11.020183 5.714811 -0.229256 19.666666
10.402887 5.728611 -0.219322 1.000000
-11.031642 5.875601 -0.230825 24.500000
10.417654 5.886913 -0.220984 2.000000
-11.034542 6.033800 -0.232259 20.333334
5.167585 6.097696 -0.286380 0.500000
5.225325 6.087855 -0.287455 0.000000
10.431812 6.003415 -0.222276 0.000000
10.481203 6.097757 -0.223938 0.000000
-11.044679 6.175254 -0.233687 24.000000
5.106597 6.161860 -0.286738 0.000000
-11.051964 6.316771 -0.235090 20.000000
-11.058702 6.459652 -0.236518 23.000000
-11.062580 6.602533 -0.237922 20.666666
-11.079446 6.745507 -0.239551 21.799999
-11.615142 7.232685 -0.252693 3.333333
-11.564464 7.353271 -0.253087 2.666667
-11.589683 7.536493 -0.255309 3.000000
-11.595360 7.657395 -0.256620 2.500000
-11.623486 7.781226 -0.258319 3.500000
-11.571786 7.825854 -0.257986 3.000000
-11.358452 7.864930 -0.255143 14.000000
-11.623175 7.913942 -0.259685 3.000000
-11.545478 7.914237 -0.258503 5.000000
-11.313068 7.912670 -0.254958 44.000000
-11.171450 7.958179 -0.253309 16.833332
-11.139418 8.134962 -0.254737 17.500000
-11.142655 8.258736 -0.256140 22.750000
-11.132002 8.373348 -0.257248 15.000000
-11.143907 8.437246 -0.258134 15.000000
-11.151947 8.554182 -0.259562 19.666666
-11.155876 8.725444 -0.261556 14.333333
-11.168978 8.877888 -0.263489 20.000000
-11.175079 9.026920 -0.265298 16.000000
-11.180132 9.147576 -0.266776 26.000000
-11.416850 9.401288 -0.273127 2.000000
-11.642842 9.648918 -0.279258 2.000000
-11.729177 9.782792 -0.282064 2.000000
-11.696987 9.881194 -0.282778 2.666667
-11.751187 10.054206 -0.285609 3.000000
-11.696842 10.092881 -0.285314 2.666667
-11.746765 10.276279 -0.288231 2.500000
-11.463423 10.285508 -0.284428 34.500000
-11.640087 10.312719 -0.287197 6.500000
-11.360107 10.322351 -0.283468 18.500000
-11.235485 10.371531 -0.282384 20.333334
-11.241730 10.541981 -0.284612 16.000000
-11.243427 10.677118 -0.286348 20.000000
-11.249619 10.818249 -0.288231 13.000000
-11.260226 10.965439 -0.290262 18.000000
-11.260870 11.104774 -0.292072 13.000000
-11.272943 11.257261 -0.294214 18.000000
-10.694418 11.265631 -0.286865 255.000000
-10.870650 11.379460 -0.290632 44.000000
-10.686419 11.328263 -0.287604 255.000000
-11.279309 11.406082 -0.296245 13.000000
-10.686111 11.435497 -0.289044 255.000000
-11.292660 11.563982 -0.298498 18.500000
-10.693285 11.551740 -0.290706 255.000000
-10.681307 11.611771 -0.291370 16.000000
-7.803534 -1.879232 -0.148233 55.000000
-10.610023 -1.705148 -0.198457 84.000000
-10.391496 -1.703537 -0.194468 26.000000
-7.808226 -1.776884 -0.147889 62.833332
-10.692919 -1.649634 -0.199811 115.666672
-10.090249 -1.686718 -0.188929 25.000000
-9.607858 -1.637122 -0.179992 5.000000
-9.374126 -1.627620 -0.175709 4.000000
-9.152367 -1.618750 -0.171646 5.000000
-8.922883 -1.607090 -0.167436 6.000000
-7.818142 -1.624781 -0.147470 58.833332
-8.709303 -1.596885 -0.163522 8.000000
-8.511602 -1.588289 -0.159903 7.000000
-8.349405 -1.585185 -0.156949 7.000000
-8.140192 -1.571974 -0.153108 5.000000
-7.990011 -1.569028 -0.150375 7.000000
-10.697138 -1.478667 -0.199432 129.199997
-10.716020 -1.361343 -0.199491 165.000000
5.028180 -0.868763 -0.182828 0.333333
5.636226 -0.816235 -0.105174 0.500000
5.711433 -0.854599 -0.106651 0.000000
4.872191 -0.744792 -0.176598 0.000000
4.908423 -0.797629 -0.178173 0.000000
5.539174 -0.744631 -0.103217 1.000000
5.429060 -0.680904 -0.101048 1.000000
4.784569 -0.395885 -0.172014 0.000000
-10.765322 -0.125895 -0.198826 116.800003
-0.485944 -0.085061 -0.130310 11.629722
0.480958 -0.072223 -0.129477 14.841584
4.814566 -0.057127 -0.172516 0.000000
-10.775064 0.026339 -0.198992 61.000000
-0.484917 0.029253 -0.129533 13.549713
0.440088 0.046736 -0.122191 15.689156
4.858145 0.003463 -0.174067 0.000000
4.956274 0.073533 -0.177600 1.000000
5.419394 0.021107 -0.100087 0.000000
5.510170 0.099066 -0.101777 1.000000
-10.771776 0.178641 -0.198959 91.400002
-0.490780 0.186323 -0.138235 10.126343
0.477591 0.177091 -0.132726 11.978005
5.170268 0.157966 -0.185334 0.000000
5.281611 0.177977 -0.189345 0.000000
5.609372 0.136186 -0.103623 0.666667
5.772322 0.176361 -0.106651 0.000000
5.923627 0.199612 -0.109458 0.000000
5.504731 0.202811 -0.197365 0.000000
-10.784004 0.331375 -0.199251 54.500000
-0.485733 0.330893 -0.145618 23.376122
-0.250514 0.394210 -0.131411 4.705883
-0.161776 0.381542 -0.116550 4.500000
0.338695 0.380309 -0.146799 1.000000
0.476884 0.320392 -0.139686 7.771615
-10.790976 0.467372 -0.199472 60.750000
-0.463606 0.465373 -0.134957 16.186827
-0.281746 0.439544 -0.136661 4.441748
-0.124471 0.467240 -0.134093 6.929412
0.000042 0.459909 -0.101669 23.079626
0.191166 0.448398 -0.133172 7.347281
0.333392 0.439048 -0.139479 6.516835
0.452838 0.448870 -0.135869 43.704311
-0.422116 0.583786 -0.138246 13.839142
-0.261764 0.580130 -0.139374 8.965368
-0.112608 0.574228 -0.136833 26.130909
0.061392 0.581682 -0.136058 38.100754
0.181200 0.593664 -0.139216 21.342560
0.330905 0.600285 -0.138070 12.275229
0.441172 0.594894 -0.126480 22.272728
-10.796226 0.620631 -0.199712 58.799999
-0.513019 0.658047 -0.116879 7.392857
-10.797986 0.722878 -0.199860 79.000000
-0.466110 0.733641 -0.126968 18.820292
-0.268269 0.765516 -0.134722 21.869822
-0.115600 0.741199 -0.113780 55.910133
0.058327 0.733971 -0.102181 58.590496
0.181391 0.774949 -0.134171 36.302013
0.307032 0.779792 -0.131255 18.146790
0.465700 0.710575 -0.119870 5.000000
-0.473904 0.942425 -0.124473 22.122223
-0.245891 0.902294 -0.132109 43.250000
0.205599 0.936092 -0.135350 21.080000
-0.505872 1.041512 -0.127228 59.411766
-0.416707 1.050035 -0.130658 20.648275
-0.262521 1.066889 -0.126234 45.726620
-0.187402 1.030167 -0.110790 51.750000
0.023699 1.040043 -0.125728 93.272728
0.180182 1.060860 -0.131630 47.889473
0.315681 1.086238 -0.129830 33.573769
-0.523306 1.269726 -0.120998 1.333333
-0.533382 1.321557 -0.125561 1.666667
6.422267 1.848539 -0.123423 1.750000
6.296029 1.938918 -0.121663 3.000000
6.138460 2.084878 -0.119724 3.000000
6.209304 2.006658 -0.120512 3.000000
6.091023 2.154559 -0.119318 2.750000
6.077129 2.268621 -0.119798 2.857143
6.108222 2.453183 -0.121564 2.083333
6.124346 2.541791 -0.122457 1.500000
6.136877 2.660728 -0.123528 0.000000
5.432745 6.177399 -0.151926 0.000000
5.520691 6.152911 -0.152665 0.000000
5.924639 6.199806 -0.158370 0.000000
6.000295 6.161613 -0.158832 0.000000
5.354768 6.218904 -0.151557 0.000000
6.768614 6.206471 -0.169597 0.000000
6.921056 6.207587 -0.171696 0.000000
7.065300 6.217844 -0.173813 0.666667
7.166587 6.227623 -0.175339 0.000000
5.382874 6.331666 -0.153477 0.000000
5.949115 6.324095 -0.160346 0.000000
5.361480 6.438519 -0.154733 0.000000
5.356174 6.652226 -0.157724 0.000000
5.331478 6.729084 -0.158549 0.000000
5.217978 6.869463 -0.159312 0.000000
5.207197 6.922746 -0.159977 0.000000
5.269495 7.263236 -0.165719 0.250000
5.391730 7.286521 -0.167399 0.500000
5.225818 7.362792 -0.166742 0.000000
-6.909109 -31.216530 -0.035713 2.000000
-7.085550 -31.086706 -0.035615 4.000000
-3.955952 -31.053015 -0.034967 10.000000
-3.859361 -31.073227 -0.034976 12.000000
-6.870387 -30.585840 -0.035016 10.000000
-6.788652 -29.784113 -0.034122 3.000000
-6.686110 -28.506371 -0.032706 15.000000
-6.641418 -27.920971 -0.032058 16.000000
-6.800562 -27.812637 -0.031982 50.000000
-6.710338 -27.822199 -0.031969 50.000000
-6.513584 -26.280830 -0.030244 4.000000
-6.466514 -25.744267 -0.029650 3.000000
-8.797592 -25.477791 -0.030108 3.000000
-8.666494 -25.486809 -0.030070 3.000000
-8.528522 -25.474224 -0.030007 4.000000
-8.348351 -25.466496 -0.029936 5.000000
-8.211060 -25.452291 -0.029873 4.000000
-8.080744 -25.458260 -0.029835 5.000000
-7.901056 -25.445499 -0.029762 6.000000
-7.767037 -25.436577 -0.029708 6.000000
-7.637897 -25.442211 -0.029672 4.500000
-7.463802 -25.441725 -0.029616 2.500000
-7.332193 -25.436291 -0.029570 1.000000
-8.856023 -25.260559 -0.029900 1.000000
-6.427977 -25.254778 -0.029109 2.000000
-8.876589 -25.066708 -0.029704 1.000000
-8.905454 -24.899342 -0.029538 1.000000
-6.400408 -24.820021 -0.028631 9.000000
-8.922479 -24.701948 -0.029337 1.000000
-8.950693 -24.538513 -0.029176 2.000000
-8.976587 -24.371395 -0.029011 2.000000
-6.344902 -24.288933 -0.028041 6.000000
-8.998733 -24.196857 -0.028837 2.000000
-9.019864 -24.022425 -0.028662 2.000000
-6.323980 -23.901522 -0.027617 8.000000
-9.071692 -23.818903 -0.028470 3.000000
-9.157950 -23.708738 -0.028390 3.000000
-9.139397 -23.441336 -0.028104 1.000000
-6.293441 -23.487438 -0.027161 5.000000
-9.136827 -23.218958 -0.027872 1.000000
-9.143290 -23.022848 -0.027671 1.000000
-6.256173 -23.058344 -0.026688 5.000000
-9.170932 -22.882622 -0.027537 1.000000
-9.202283 -22.753576 -0.027416 1.000000
-6.219447 -22.641294 -0.026227 5.000000
-9.265866 -22.502975 -0.027184 1.000000
-9.217800 -22.587523 -0.027251 1.000000
-9.252114 -22.270590 -0.026938 1.000000
-6.178024 -22.216997 -0.025758 3.000000
-9.272556 -22.123362 -0.026795 2.000000
-9.289049 -21.968859 -0.026643 2.000000
-9.309371 -21.825510 -0.026504 2.000000
-6.136166 -21.800890 -0.025298 3.000000
-9.335203 -21.696951 -0.026384 2.000000
-9.352364 -21.550097 -0.026241 3.000000
-9.370297 -21.407017 -0.026102 3.000000
-6.099425 -21.412195 -0.024869 4.000000
-9.389041 -21.267693 -0.025968 2.000000
-6.085787 -21.112352 -0.024543 3.000000
-9.442224 -20.853956 -0.025571 3.000000
-6.081520 -20.851212 -0.024261 1.000000
-9.461176 -20.722307 -0.025445 4.000000
-9.479394 -20.590742 -0.025320 4.000000
-6.059830 -20.536592 -0.023917 1.000000
-9.493512 -20.452017 -0.025186 4.000000
-9.515325 -20.331520 -0.025075 5.000000
-9.526237 -20.189383 -0.024936 6.000000
-9.538072 -20.050991 -0.024802 6.000000
-9.554317 -19.923546 -0.024681 8.000000
-9.569859 -19.796198 -0.024561 10.000000
-9.591697 -19.683332 -0.024458 16.000000
-8.811710 -19.570341 -0.023974 10.333333
-9.611732 -19.490837 -0.024275 17.500000
-9.628541 -19.294994 -0.024087 21.000000
-9.653166 -19.193178 -0.023998 26.000000
-9.671816 -19.080698 -0.023895 27.000000
-9.688547 -18.892546 -0.023716 31.500000
-9.716749 -18.729502 -0.023569 37.000000
-9.736984 -18.554235 -0.023406 37.500000
-9.765306 -18.396845 -0.023265 38.000000
-9.779664 -18.284946 -0.023162 38.000000
-9.799034 -18.115534 -0.023006 39.500000
-9.822940 -17.956848 -0.022863 37.000000
-9.834900 -17.845325 -0.022760 37.000000
-9.855533 -17.685234 -0.022615 36.500000
-9.876976 -17.528812 -0.022474 35.000000
-9.899010 -17.376080 -0.022338 35.500000
-9.919964 -17.223507 -0.022202 34.000000
-9.933879 -17.123060 -0.022112 35.000000
-9.945242 -17.019243 -0.022019 36.000000
-9.960111 -16.922419 -0.021934 34.000000
-9.978325 -16.772177 -0.021800 35.000000
-9.999599 -16.628973 -0.021674 33.000000
-15.437515 -16.456467 -0.025204 6.500000
-15.283536 -16.447042 -0.025079 11.000000
-15.128677 -16.434948 -0.024952 13.000000
-14.982313 -16.430746 -0.024838 16.000000
-14.848093 -16.421116 -0.024729 16.333334
-14.688099 -16.416210 -0.024606 18.000000
-14.538963 -16.404366 -0.024485 22.000000
-14.400784 -16.403612 -0.024382 24.000000
-10.017540 -16.482552 -0.021545 35.500000
-14.301847 -16.394516 -0.024302 27.000000
-14.200490 -16.381937 -0.024217 30.000000
-14.061929 -16.377296 -0.024112 42.000000
-13.918489 -16.365738 -0.023998 48.000000
-13.780674 -16.359200 -0.023893 49.000000
-13.597040 -16.348593 -0.023752 47.500000
-13.466423 -16.347700 -0.023658 50.000000
-13.332367 -16.341190 -0.023558 49.000000
-13.156662 -16.334299 -0.023428 55.000000
-12.984058 -16.328983 -0.023303 56.000000
-12.853743 -16.322468 -0.023207 52.000000
-12.727505 -16.319725 -0.023118 52.000000
-12.558828 -16.313799 -0.022997 50.000000
-12.393162 -16.309576 -0.022881 50.000000
-12.265643 -16.300722 -0.022787 49.000000
-12.146879 -16.302170 -0.022709 48.500000
-10.036544 -16.339716 -0.021420 34.000000
-15.805915 -16.276295 -0.025343 2.000000
-11.981421 -16.292767 -0.022590 46.500000
-11.818896 -16.285181 -0.022476 46.500000
-11.659281 -16.279444 -0.022367 45.500000
-11.495586 -16.265816 -0.022249 45.000000
-11.341680 -16.263901 -0.022148 45.000000
-11.182579 -16.252460 -0.022036 45.000000
-11.069826 -16.252119 -0.021965 46.000000
-10.952877 -16.244370 -0.021884 45.000000
-10.800755 -16.237930 -0.021784 46.500000
-10.645852 -16.225206 -0.021677 45.500000
-10.499153 -16.222927 -0.021585 45.500000
-10.348589 -16.212715 -0.021485 44.500000
-10.165336 -16.204767 -0.021368 44.333332
-10.045742 -16.240070 -0.021330 35.000000
-15.812238 -16.180790 -0.025271 13.000000
-15.818020 -16.034929 -0.025160 13.000000
-16.019487 -15.852625 -0.025174 13.000000
-15.861987 -15.878559 -0.025070 14.500000
-16.047047 -15.714429 -0.025088 5.000000
-16.034258 -15.538356 -0.024941 8.666667
-16.044460 -15.418373 -0.024856 15.000000
-16.045908 -15.275037 -0.024746 25.000000
-14.208871 -15.290541 -0.023316 0.000000
-16.049376 -15.134746 -0.024641 30.000000
-16.050146 -15.040488 -0.024570 30.000000
-14.813835 -15.016840 -0.023562 0.000000
-14.719135 -15.062209 -0.023524 0.000000
-15.411202 -14.997209 -0.024020 0.000000
-14.925356 -14.988006 -0.023627 0.000000
-15.994859 -14.894587 -0.024413 29.000000
-15.105836 -14.885981 -0.023690 0.000000
-14.915742 -14.884532 -0.023538 1.000000
-15.859548 -14.675823 -0.024136 54.000000
-15.872463 -14.549580 -0.024051 48.500000
-15.882006 -14.375753 -0.023929 55.500000
-15.887028 -14.199703 -0.023801 58.000000
-15.896908 -14.074288 -0.023716 63.000000
-15.901355 -13.945171 -0.023625 62.500000
-15.911547 -13.778220 -0.023511 61.000000
-15.918770 -13.610376 -0.023395 62.000000
-15.926024 -13.444298 -0.023281 59.000000
-15.935546 -13.324183 -0.023203 54.000000
-15.934963 -13.196646 -0.023111 52.500000
-15.939797 -13.074472 -0.023028 49.000000
-15.943582 -12.994010 -0.022975 51.000000
-15.948572 -12.873521 -0.022894 51.000000
-15.955629 -12.714480 -0.022789 50.000000
-15.959749 -12.554621 -0.022682 50.000000
-15.965654 -12.397669 -0.022579 51.500000
-15.971806 -12.242359 -0.022479 50.500000
-15.978233 -12.088667 -0.022380 51.000000
-15.980642 -11.972453 -0.022304 52.000000
-15.987049 -11.860086 -0.022235 51.500000
-15.996706 -11.712142 -0.022146 51.500000
-17.560663 -11.508889 -0.023453 4.000000
-17.648153 -11.329911 -0.023426 10.000000
-17.571049 -11.397707 -0.023395 14.500000
-10.553771 -11.215063 -0.017202 13.000000
-10.714694 -11.033561 -0.017180 20.000000
-10.595163 -11.083330 -0.017127 58.500000
-13.911782 -10.018820 -0.019150 46.333332
-13.915018 -9.856059 -0.019047 50.000000
-16.412886 -9.753011 -0.021326 1.000000
-15.777395 -9.713914 -0.020696 3.000000
-15.539618 -9.702694 -0.020464 3.000000
-15.427792 -9.700363 -0.020356 3.000000
-13.920935 -9.729479 -0.018971 50.500000
-16.381435 -9.664810 -0.021246 2.000000
-15.265453 -9.698874 -0.020202 3.000000
-15.086597 -9.685421 -0.020026 3.000000
-14.972112 -9.678486 -0.019914 3.000000
-14.861176 -9.673100 -0.019807 3.000000
-14.740386 -9.660539 -0.019686 3.000000
-14.603125 -9.636304 -0.019543 3.000000
-14.063442 -9.600627 -0.019020 33.000000
-13.942289 -9.614552 -0.018918 42.500000
-16.395678 -9.569364 -0.021205 2.000000
-14.369549 -9.547104 -0.019271 12.000000
-14.199741 -9.563445 -0.019123 40.000000
-16.401733 -9.435249 -0.021136 2.000000
-16.405041 -9.266484 -0.021046 2.000000
-16.414980 -9.102749 -0.020966 2.000000
-16.413933 -8.967783 -0.020893 2.000000
-16.456039 -8.890329 -0.020893 0.000000
-14.347184 -8.771308 -0.018784 14.000000
-14.183143 -8.773310 -0.018629 22.333334
-14.207121 -8.624486 -0.018565 39.000000
-14.272876 -8.526822 -0.018571 28.250000
-16.448895 -8.392005 -0.020627 2.000000
-16.468678 -8.252655 -0.020576 1.600000
12.706822 -7.970974 -0.016755 0.000000
12.765685 -7.896560 -0.016767 0.333333
-16.314178 -7.718646 -0.020160 1.000000
-14.281140 -7.715345 -0.018131 9.000000
12.753231 -7.751133 -0.016670 0.500000
-16.116554 -7.687199 -0.019945 0.000000
-15.958941 -7.673662 -0.019780 0.000000
-15.779980 -7.648736 -0.019588 0.000000
-15.542637 -7.642436 -0.019347 0.600000
-14.285557 -7.631010 -0.018091 39.500000
12.721076 -7.622487 -0.016565 0.500000
-14.296631 -7.550514 -0.018060 41.000000
-14.303660 -7.468255 -0.018024 41.500000
12.728221 -7.491590 -0.016498 0.000000
-16.506653 -7.307852 -0.020164 1.000000
-14.310285 -7.386086 -0.017988 34.000000
12.769439 -7.354552 -0.016460 0.000000
12.926043 -7.310207 -0.016588 0.000000
-16.484425 -6.828135 -0.019930 2.000000
-16.509905 -6.727513 -0.019914 3.000000
-16.518433 -6.610258 -0.019874 1.500000
-14.454138 -6.672630 -0.017783 13.000000
-14.324313 -6.667365 -0.017649 9.000000
-14.238114 -6.681749 -0.017568 22.000000
-14.325917 -6.558914 -0.017600 29.000000
9.618297 -6.551280 -0.012999 3.600000
-14.331359 -6.425705 -0.017544 40.500000
-14.284533 -6.485765 -0.017524 42.000000
-14.345896 -5.610543 -0.017206 0.000000
-14.169500 -5.490300 -0.016974 56.000000
-14.121405 -5.369900 -0.016876 60.333332
-14.127621 -5.220377 -0.016824 59.333332
-17.717876 -5.037061 -0.020575 9.000000
-14.134774 -5.072149 -0.016775 60.333332
-17.764608 -4.929866 -0.020593 7.000000
-14.140930 -4.936881 -0.016731 61.000000
-16.596794 -4.774749 -0.019291 7.500000
-14.147016 -4.777536 -0.016679 61.000000
-10.855364 -4.757104 -0.013239 38.799999
-16.599716 -4.634745 -0.019251 10.000000
-14.152134 -4.631125 -0.016633 61.000000
-10.867332 -4.642924 -0.013201 56.214287
-16.609182 -4.469090 -0.019213 9.333333
-14.159563 -4.486264 -0.016591 61.333332
-14.169346 -4.342849 -0.016554 61.000000
-14.372567 -4.208279 -0.016728 32.000000
-14.185804 -4.226272 -0.016534 51.000000
-14.443352 -4.179787 -0.016795 6.000000
-14.444723 -3.732982 -0.016665 0.166667
-14.443151 -3.605387 -0.016628 0.800000
12.371235 -3.377413 -0.014325 4.000000
12.319984 -3.259794 -0.014235 6.666667
12.235173 -3.114215 -0.014103 4.000000
12.192750 -2.981330 -0.014021 3.666667
12.172164 -2.834839 -0.013960 3.000000
12.171669 -2.673914 -0.013920 3.000000
