# This PCD file was generated using the MATLAB® pcwrite function
# from Computer Vision Toolbox®.
# .PCD v.7 - Point Cloud Data file format
VERSION .7
FIELDS x y z intensity
SIZE 4 4 4 4
TYPE F F F F
COUNT 1 1 1 1
WIDTH 1218
HEIGHT 1
VIEWPOINT 0 0 0 1 0 0 0
POINTS 1218
DATA ascii
-9.465477 -13.927979 3.246220 16.000000
-9.335125 -13.923562 3.231456 16.000000
-9.232479 -13.911796 3.218585 20.000000
-9.139875 -13.914082 3.209120 16.500000
-7.210379 -13.827381 3.291382 20.000000
-7.069199 -13.820239 3.276375 20.000000
-6.900149 -13.809227 3.258202 21.333334
-6.760750 -13.800363 3.243471 20.500000
-6.624222 -13.794777 3.229841 21.666666
-6.461806 -13.788080 3.213871 22.000000
-10.203680 -13.679404 3.289755 12.000000
-10.386514 -13.521255 3.286727 12.000000
-10.238558 -13.547621 3.273477 14.500000
-12.135871 -12.059780 3.298084 3.000000
-11.975416 -12.050823 3.274991 3.500000
-11.818293 -12.043144 3.252656 3.000000
-11.675418 -12.048065 3.234106 2.500000
-10.295288 -11.751999 3.297577 12.000000
-10.301395 -11.610956 3.276100 12.500000
-10.310061 -11.474676 3.255862 12.500000
-10.315413 -11.372325 3.240580 12.000000
-10.317307 -11.267315 3.224472 13.000000
-10.700551 -11.146743 3.261231 4.000000
-10.589837 -11.101011 3.238102 1.000000
-10.513203 -11.125175 3.230667 20.000000
-10.365982 -11.143347 3.212219 13.000000
-10.672682 -11.024996 3.238652 2.666667
-10.378677 -9.921593 3.297943 10.333333
-10.382021 -9.780213 3.276154 15.000000
-10.386631 -9.631642 3.253618 15.500000
-10.395196 -9.488901 3.232873 16.000000
-10.401791 -9.346151 3.211980 17.500000
-12.583559 -9.263779 3.297990 4.000000
-12.443952 -9.251808 3.272796 3.000000
-12.321994 -9.251537 3.252144 3.500000
-12.153040 -9.244659 3.222820 3.000000
-14.107342 -6.530355 3.281056 3.000000
-13.916914 -6.522117 3.243884 3.000000
-13.783115 -6.512307 3.217451 3.000000
-10.532301 -6.341013 3.285620 23.666666
-10.542745 -6.190430 3.267461 24.250000
-10.547621 -6.049289 3.249645 24.500000
-10.557363 -5.890737 3.231055 25.000000
-10.559866 -5.740751 3.212293 26.000000
-10.784220 -5.388497 3.221932 14.666667
-10.909185 -5.365621 3.249129 3.000000
-10.850919 -5.273610 3.224342 1.000000
-10.855536 -5.150037 3.211174 1.000000
-16.457355 -3.705807 3.251899 0.000000
-15.509654 1.885113 3.297577 1.000000
-15.235681 1.900407 3.240580 1.000000
-14.166314 1.948099 3.284511 1.000000
-13.924637 1.959461 3.229889 1.000000
-11.278938 4.161067 3.212981 0.666667
-11.280166 4.282727 3.224686 0.666667
-11.381631 4.403223 3.261522 1.000000
-11.239883 4.429691 3.228817 8.000000
-14.788504 4.728146 3.276926 3.000000
-14.632058 4.728850 3.245536 3.000000
-14.468318 4.726182 3.212494 1.000000
-11.022987 4.749577 3.207817 25.000000
-11.026052 4.853893 3.219695 26.500000
-11.035899 4.941232 3.231571 25.500000
-11.036546 5.045982 3.243276 24.666666
-11.044744 5.197347 3.262297 26.750000
-11.051614 5.349749 3.281489 23.666666
-11.352681 6.264433 3.219179 1.000000
-11.360695 6.503700 3.250021 0.000000
-11.386017 6.661452 3.275080 0.000000
-11.362020 6.816165 3.289538 17.500000
-11.269234 6.857132 3.275081 12.000000
-11.143309 6.876876 3.250985 15.500000
-11.130543 6.990371 3.263193 20.000000
-11.140418 7.143859 3.285683 20.000000
-13.652196 7.589354 3.296751 1.000000
-13.513943 7.596006 3.271970 1.500000
-13.333361 7.605144 3.239754 1.000000
-13.188868 7.605391 3.213320 2.000000
-11.194906 8.350540 3.207950 17.500000
-11.199860 8.492004 3.228396 17.333334
-11.207163 8.608887 3.246007 16.000000
-11.212641 8.697462 3.259439 16.500000
-11.217552 8.814703 3.276900 16.500000
-11.224534 8.952189 3.297764 13.000000
-11.506492 10.112257 3.233145 2.000000
-11.714647 10.165449 3.273622 8.000000
-11.608953 10.137846 3.252970 4.000000
-11.407667 10.153030 3.223233 16.000000
-11.285482 10.172201 3.206712 17.000000
-11.288686 10.304520 3.225986 14.000000
-11.301224 10.479763 3.252970 14.000000
-11.303622 10.614868 3.272796 13.500000
-11.314693 10.759855 3.295512 13.500000
-11.632729 11.966374 3.217070 0.000000
-11.579827 12.526939 3.288493 15.333333
-11.427351 12.558464 3.273098 15.000000
-11.400669 12.688494 3.288241 13.000000
-13.013662 13.215086 3.240318 3.000000
-13.099490 13.218921 3.251333 3.000000
-12.907731 13.217761 3.227698 2.666667
-12.787227 13.232308 3.214847 2.000000
-12.707380 13.232630 3.205210 3.000000
-11.485206 14.376967 3.214847 13.000000
-12.721227 16.027199 3.207219 4.000000
6.894069 19.741533 3.277520 39.500000
7.037877 19.753662 3.286811 45.500000
7.180742 19.761051 3.295482 71.500000
6.833730 19.869123 3.293314 23.000000
3.885964 20.047508 3.200715 1.000000
4.052282 20.060875 3.207838 1.000000
4.225624 20.052050 3.211967 3.666667
4.346369 20.051830 3.215890 62.500000
4.480019 20.058838 3.221465 43.000000
4.618379 20.084206 3.230136 1.000000
4.788464 20.099813 3.238601 0.000000
4.956439 20.103191 3.245311 0.000000
5.056411 20.100719 3.248718 0.000000
5.222089 20.090954 3.253673 52.500000
5.392711 20.097616 3.261519 66.333336
5.565474 20.109283 3.270397 69.000000
5.703571 20.115740 3.277210 67.000000
5.128319 20.119200 3.254293 1.000000
5.841975 20.121248 3.284024 62.500000
5.981226 20.127710 3.291147 63.000000
6.121944 20.136992 3.298889 64.000000
19.027761 25.278219 3.271834 17.000000
-17.169832 26.755020 3.287469 1.000000
16.341120 26.971771 3.261136 43.000000
16.107895 27.356701 3.282943 18.000000
15.749031 27.532776 3.280063 31.000000
15.887096 27.572798 3.290761 44.000000
-17.892931 33.893925 3.291170 2.000000
-17.743814 33.868786 3.283299 2.000000
-17.624462 33.899601 3.280903 3.000000
-17.506920 33.933552 3.278850 32.000000
-17.492840 34.169308 3.296303 4.000000
-7.821050 -38.753174 3.394864 2.000000
-7.224148 -31.669271 3.359061 4.000000
-6.586244 -23.368671 3.371160 2.000000
-6.544431 -22.944000 3.312847 3.000000
-6.743538 -22.824310 3.304595 26.000000
-6.633155 -22.846291 3.303219 47.000000
-6.364998 -20.587429 3.377552 2.000000
-6.568021 -20.444685 3.365783 28.500000
-6.428767 -20.451620 3.360209 46.000000
-6.161212 -18.098438 3.340137 14.000000
-5.895704 -14.688244 3.340531 3.000000
-5.875701 -14.506411 3.303359 7.000000
-10.177644 -13.962151 3.330641 20.000000
-10.071527 -13.954182 3.317391 16.000000
-10.202517 -13.858698 3.317391 12.000000
-8.112400 -13.865908 3.390645 18.333334
-7.963906 -13.860809 3.373986 18.000000
-7.816044 -13.854135 3.357328 18.666666
-7.639104 -13.843806 3.337227 18.333334
-7.495649 -13.839750 3.321945 19.000000
-7.351534 -13.831909 3.306113 19.333334
-10.663383 -13.584781 3.329126 4.666667
-10.543641 -13.548780 3.309441 5.000000
-10.270915 -12.336359 3.388029 10.000000
-10.277576 -12.187809 3.364900 12.000000
-12.597411 -12.093155 3.366226 1.000000
-12.466975 -12.081261 3.346540 3.500000
-12.298309 -12.068571 3.321555 3.500000
-10.285324 -12.042639 3.342597 12.000000
-10.287816 -11.893414 3.319054 11.500000
-13.033552 -9.282946 3.377290 4.000000
-12.892741 -9.274615 3.352096 4.000000
-12.760257 -9.270794 3.328967 4.000000
-10.426258 -8.848404 3.395077 17.000000
-10.431063 -8.740332 3.378692 17.000000
-10.435941 -8.605876 3.358291 17.000000
-10.654255 -8.399028 3.368250 10.000000
-10.460932 -8.434904 3.336283 16.750000
-10.507971 -7.093177 3.388296 20.500000
-10.511981 -6.928805 3.364800 21.666666
-10.519467 -6.792387 3.346554 21.666666
-10.526172 -6.633916 3.325296 22.500000
-14.585200 -6.557905 3.375225 3.000000
-14.436202 -6.545516 3.345488 3.000000
-14.305227 -6.540384 3.319880 3.000000
-13.195386 -6.490076 3.377638 2.000000
-10.530220 -6.475767 3.303866 22.666666
-14.942492 -5.997754 3.398355 6.000000
-16.745014 -3.660215 3.304141 1.333333
-15.586310 -3.664345 3.379356 0.000000
-15.334873 -3.656114 3.327315 0.000000
-16.763390 -3.499013 3.301112 0.666667
-15.810884 1.871342 3.360357 1.000000
-14.673045 1.923924 3.399129 1.000000
-14.400327 1.934207 3.337343 1.000000
-13.473505 1.982383 3.381101 1.000000
-13.267582 1.994693 3.330982 0.000000
-15.363222 4.699944 3.390920 2.000000
-15.224997 4.710012 3.363661 3.000000
-15.001037 4.718194 3.319054 3.000000
-11.060978 5.505253 3.302059 24.500000
-11.065478 5.660109 3.321768 22.000000
-11.220652 5.828665 3.379259 0.000000
-11.548304 6.829626 3.330982 1.500000
-11.146217 7.296733 3.307529 19.333334
-11.158720 7.456105 3.331946 18.333334
-14.078728 7.567872 3.373573 1.000000
-13.943181 7.579986 3.349618 1.000000
-13.804428 7.588978 3.324836 1.000000
-11.161728 7.611239 3.354114 18.666666
-11.169164 7.771530 3.378210 18.000000
-11.167778 7.875084 3.392667 19.000000
-12.001431 10.348397 3.344662 4.000000
-12.209232 10.460886 3.393398 4.000000
-11.321577 10.902672 3.317402 13.500000
-11.327101 11.046005 3.339292 13.000000
-11.334063 11.192574 3.362009 13.500000
-11.342380 11.342446 3.385551 13.500000
-11.834424 12.536397 3.323322 4.333333
-11.746008 12.547662 3.313226 6.000000
-11.414555 12.865650 3.315498 13.000000
-11.420199 13.036081 3.340862 13.000000
-11.432061 13.174281 3.362440 13.000000
-11.435076 13.303986 3.381747 12.500000
-11.700996 15.527658 3.396816 18.000000
-11.552031 15.583298 3.389014 14.500000
7.324673 19.769274 3.304463 71.000000
7.470374 19.780167 3.314064 70.000000
7.615810 19.788155 3.323355 70.000000
7.763072 19.798779 3.333265 68.000000
7.910027 19.806498 3.342866 68.500000
8.059629 19.818634 3.353395 68.500000
8.208934 19.827850 3.363616 69.500000
8.394451 19.833698 3.375694 58.750000
8.545457 19.842329 3.386224 73.000000
8.660209 19.850704 3.394585 70.000000
6.819669 20.032648 3.316851 21.000000
6.297219 20.143557 3.307973 60.333332
6.474356 20.153099 3.317780 60.000000
6.615021 20.155201 3.324903 56.500000
6.756598 20.158203 3.332336 49.500000
-17.356600 21.859369 3.380203 6.000000
-17.381306 22.032257 3.398477 4.000000
18.147453 26.633116 3.332728 29.000000
18.114986 26.765785 3.342191 12.000000
-17.166945 26.936333 3.303104 1.000000
17.147673 27.325136 3.336020 5.000000
16.311476 27.504450 3.306807 33.000000
17.776579 27.552158 3.390742 14.000000
15.593762 27.867479 3.302281 2.000000
-17.679859 35.352085 3.394179 2.000000
-17.586432 35.443150 3.397602 4.000000
-8.006327 -39.671219 3.475286 3.000000
-7.861475 -39.594540 3.466389 3.000000
-7.328439 -32.439800 3.439156 18.333334
-6.945054 -28.000784 3.493694 3.000000
-7.055841 -27.341951 3.419636 55.000000
-6.926399 -27.372944 3.419396 32.000000
-6.415051 -21.220898 3.474797 2.000000
-6.382325 -20.875637 3.421529 2.000000
-6.289931 -18.963421 3.490553 43.000000
-6.348395 -18.842113 3.473687 2.000000
-6.218811 -18.457504 3.402782 2.000000
-6.078825 -16.968163 3.474497 3.000000
-6.160158 -16.860704 3.460363 26.000000
-6.095429 -15.324927 3.480959 26.000000
-6.006611 -15.382310 3.485365 28.000000
-14.087578 -14.136838 3.486767 2.000000
-13.943320 -14.124490 3.467492 2.000000
-13.804949 -14.116855 3.449593 2.000000
-13.697375 -14.095159 3.433760 2.000000
-11.396208 -14.133532 3.499861 5.000000
-11.236360 -14.143212 3.482068 4.400000
-5.843402 -14.044784 3.494046 3.000000
-9.012754 -13.910250 3.498306 16.500000
-8.853499 -13.902420 3.478756 16.666666
-8.696604 -13.895828 3.459895 17.500000
-8.570070 -13.886915 3.444200 18.000000
-5.828652 -13.886165 3.459124 4.000000
-8.415775 -13.879562 3.425889 18.000000
-8.264765 -13.875227 3.408680 18.000000
-6.465782 -13.796565 3.499717 21.666666
-6.303036 -13.785985 3.481809 21.333334
-6.143744 -13.779490 3.465392 21.666666
-5.985101 -13.771238 3.448975 21.666666
-5.855125 -13.767038 3.436290 20.500000
-10.367945 -11.145487 3.496434 13.000000
-10.602127 -10.568870 3.438529 0.000000
-10.400373 -9.493622 3.496118 14.333333
-13.364518 -9.298965 3.436353 4.000000
-13.222904 -9.293141 3.411159 4.000000
-10.407290 -9.351086 3.473629 17.500000
-12.002364 -9.239670 3.479122 3.000000
-11.888169 -9.251359 3.460019 0.000000
-10.410563 -9.207355 3.450497 15.333333
-10.419665 -9.041828 3.425116 16.000000
-10.424273 -8.931530 3.408088 16.000000
-10.863708 -8.435871 3.414835 3.333333
-10.506785 -7.237352 3.409726 13.500000
-14.862366 -6.570586 3.429744 3.000000
-14.720117 -6.563055 3.401659 3.000000
-13.656015 -6.504808 3.474346 3.000000
-13.540625 -6.502118 3.450169 3.000000
-13.364341 -6.495054 3.413008 3.000000
-14.925427 -6.472779 3.433668 9.250000
-14.926732 -6.348342 3.423549 9.000000
-14.931643 -6.230771 3.414876 9.000000
-14.937598 -6.077705 3.403724 9.000000
-16.143188 -3.688385 3.495002 1.000000
-15.857007 -3.675458 3.435527 0.000000
-16.112181 1.855690 3.423136 1.000000
-14.934237 1.910470 3.458228 1.000000
-13.916251 1.958281 3.489050 1.000000
-13.679479 1.968806 3.431220 1.000000
-11.344692 6.260026 3.462914 0.000000
-11.138330 6.873811 3.498029 16.000000
-14.545500 7.555786 3.459482 0.000000
-14.428072 7.552436 3.437179 1.000000
-14.279922 7.560756 3.410332 1.000000
-13.074039 7.612289 3.474943 1.666667
-12.887153 7.621366 3.438976 1.500000
-11.177958 7.974725 3.409052 17.250000
-11.184278 8.099041 3.428329 18.000000
-11.192555 8.212826 3.446642 17.333334
-11.199327 8.353849 3.468810 17.000000
-11.205504 8.496293 3.491299 17.000000
-11.293506 10.179433 3.492255 17.000000
-12.769079 10.428998 3.479720 4.500000
-12.621881 10.441662 3.457417 4.500000
-12.467520 10.446619 3.433049 4.500000
-12.316597 10.452567 3.409506 4.500000
-11.441480 13.481880 3.408626 12.500000
-11.448647 13.619807 3.429826 12.000000
-11.454641 13.758149 3.451025 11.500000
-11.464711 13.902856 3.473739 13.000000
-11.471056 14.044971 3.495696 12.000000
-11.937247 15.534461 3.422745 7.000000
-11.857306 15.531169 3.413796 7.000000
-12.087246 15.627785 3.451658 4.000000
-12.300872 15.801166 3.498470 2.000000
-11.553129 15.739198 3.411042 9.000000
-11.552382 15.842272 3.425499 9.000000
-11.565177 16.017956 3.451658 9.000000
-11.574428 16.190855 3.477129 9.000000
-11.582817 16.310671 3.495028 9.000000
1.221334 19.466270 3.407600 2.500000
1.345899 19.491627 3.413452 10.000000
1.499809 19.491545 3.415402 16.333334
1.654722 19.501455 3.419303 22.500000
1.778997 19.510294 3.422745 16.500000
1.902525 19.508533 3.424466 19.000000
8.811207 19.855499 3.404805 66.000000
8.963429 19.860977 3.415335 67.000000
9.118535 19.870708 3.426794 63.000000
9.273284 19.877483 3.437943 66.000000
9.429310 19.884886 3.449401 62.000000
9.588387 19.896442 3.461790 62.000000
9.745352 19.901466 3.473248 51.000000
2.113499 19.920715 3.499847 37.799999
9.869720 19.917324 3.484087 1.000000
-17.385489 22.180517 3.412904 3.000000
-17.379164 22.316481 3.425407 2.000000
-19.416428 35.686325 3.488633 3.000000
-19.277716 35.698051 3.483842 2.000000
-18.166964 35.762615 3.444486 2.000000
-18.036575 35.783928 3.441064 1.000000
-17.617558 35.787846 3.425322 18.000000
-17.679941 36.201122 3.459544 2.000000
-7.413968 -33.975037 3.596055 1.000000
-7.059034 -28.847902 3.596606 52.000000
-6.686698 -24.611132 3.541148 3.000000
-6.736008 -24.338758 3.506490 34.000000
-6.437748 -21.540060 3.523729 2.000000
-6.251239 -19.148329 3.519122 3.000000
-6.121749 -17.432190 3.561567 3.000000
-6.100329 -17.198172 3.517653 13.000000
-5.992882 -15.784674 3.563564 1.000000
-5.971007 -15.579386 3.521435 3.000000
-5.883475 -14.525604 3.599710 9.000000
-5.874510 -14.373526 3.566578 3.000000
-14.677382 -14.183685 3.565933 2.000000
-5.860188 -14.210837 3.530760 9.000000
-14.567779 -14.166544 3.550100 2.000000
-14.426371 -14.161823 3.531857 2.000000
-14.226713 -14.142469 3.504665 2.000000
-11.679609 -14.163463 3.538853 5.000000
-11.559324 -14.152906 3.522574 5.000000
-9.736668 -13.946755 3.589997 16.000000
-9.601126 -13.938350 3.572237 16.000000
-9.470448 -13.935287 3.556129 16.000000
-9.306378 -13.927823 3.535478 16.000000
-9.175563 -13.920759 3.518957 17.000000
-9.108206 -13.913498 3.509871 16.000000
-7.351467 -13.831792 3.597919 19.333334
-7.208347 -13.823467 3.580905 20.000000
-7.069384 -13.820612 3.565682 19.666666
-6.915682 -13.813194 3.548221 20.500000
-6.765197 -13.809454 3.532103 21.000000
-6.625896 -13.798274 3.515836 21.000000
-10.369021 -13.542451 3.599910 16.000000
-10.243577 -13.554277 3.585867 14.500000
-12.014936 -12.052614 3.591925 3.333333
-12.082330 -11.894129 3.578433 4.000000
-12.086753 -11.749749 3.557782 4.000000
-10.302584 -11.760323 3.591203 12.500000
-12.087013 -11.676369 3.547043 4.000000
-10.305120 -11.615164 3.566578 12.500000
-10.312965 -11.514190 3.550460 13.000000
-10.316084 -11.409088 3.532999 12.000000
-10.323071 -11.273596 3.511060 13.000000
-10.739701 -11.152403 3.556280 4.500000
-10.596891 -11.108407 3.526283 2.000000
-10.513626 -11.125618 3.515985 22.000000
-10.391297 -9.933668 3.569047 8.666667
-10.390595 -9.849972 3.554590 13.000000
-10.392996 -9.759718 3.539651 13.000000
-10.395763 -9.640106 3.519892 14.000000
-12.153637 -9.245125 3.507478 3.500000
-12.347557 -9.090103 3.521805 3.000000
-12.270559 -9.182882 3.520313 2.000000
-12.399697 -9.008904 3.520462 3.000000
-12.474796 -8.914630 3.521805 3.000000
-12.533792 -8.838345 3.522701 4.000000
-12.580088 -8.782509 3.524044 2.000000
-10.467184 -8.439957 3.593561 16.500000
-13.954725 -6.486405 3.534640 3.666667
-13.789178 -6.515172 3.503001 3.000000
-14.008234 -6.404598 3.537923 4.000000
-14.044071 -6.327872 3.538147 4.000000
-12.892220 -6.315832 3.564228 3.000000
-14.098629 -6.193259 3.537028 4.000000
-12.948479 -6.192762 3.563505 3.500000
-14.194466 -6.010582 3.540610 1.000000
-14.153427 -6.072017 3.537476 2.500000
-13.024544 -6.032770 3.563678 2.857143
-14.239248 -5.909309 3.541121 1.857143
-13.112404 -5.840070 3.563746 3.750000
-14.296776 -5.773371 3.541505 3.000000
-13.167612 -5.722703 3.564550 4.000000
-13.235662 -5.580077 3.566156 4.000000
-13.298651 -5.435203 3.566798 3.333333
-13.333784 -5.352036 3.567120 3.000000
-12.434972 -5.150746 3.597176 1.250000
-16.372320 -3.632638 3.539608 2.333333
-15.108092 -3.602045 3.567473 2.000000
-15.051231 -3.638495 3.556728 0.000000
-15.139241 -3.509082 3.569563 2.333333
-16.399446 -3.476827 3.538232 2.333333
-16.444851 -3.338261 3.541674 2.000000
-15.155148 -3.362586 3.565682 3.000000
-14.079250 -3.356764 3.593464 2.333333
-15.196888 -3.196919 3.567026 2.250000
-14.097915 -3.197810 3.589047 3.000000
-16.487686 -3.172051 3.543739 2.000000
-16.515972 -3.043174 3.544565 3.000000
-15.250916 -3.033590 3.571652 2.000000
-14.135748 -3.043338 3.589930 2.000000
-16.530338 -2.911761 3.542637 2.000000
-15.278829 -2.889722 3.571652 3.000000
-14.174904 -2.958710 3.595071 2.000000
-16.567528 -2.784335 3.545804 2.000000
-14.191898 -2.869327 3.594749 3.000000
-16.586277 -2.707187 3.547043 2.000000
-15.301546 -2.744915 3.570757 2.333333
-14.215770 -2.734952 3.594107 3.000000
-16.624817 -2.606337 3.551724 1.666667
-15.347239 -2.604041 3.575532 1.666667
-14.246006 -2.601785 3.595392 2.000000
-15.374943 -2.484688 3.577323 2.500000
-16.663517 -2.478487 3.555717 1.500000
-15.382648 -2.411612 3.576428 3.000000
-15.405159 -2.316046 3.578219 2.000000
-16.902534 -0.318641 3.568107 10.500000
-16.907742 -0.185913 3.568796 11.000000
-16.912657 -0.026571 3.569622 11.000000
-16.920860 0.106317 3.571411 11.000000
-16.929251 0.239359 3.573476 11.000000
-16.932764 0.399047 3.574853 11.000000
-16.937378 0.558921 3.576781 11.000000
-16.948301 0.719242 3.580360 11.000000
-16.954544 0.852951 3.582976 11.000000
-16.960962 0.986878 3.585867 10.666667
-16.969131 1.147919 3.589722 9.333333
-15.491617 1.882920 3.584487 2.000000
-15.199355 1.895876 3.518224 2.000000
-14.133862 1.943636 3.542060 1.000000
-13.260343 1.993604 3.583750 0.000000
-11.377252 6.656324 3.522816 1.000000
-11.373718 6.798944 3.541406 1.000000
-11.543970 6.835222 3.585471 2.333333
-11.286715 6.843477 3.527635 19.000000
-11.134132 6.992615 3.513865 20.000000
-11.140373 7.143844 3.536930 18.666666
-11.147986 7.297915 3.561028 19.000000
-11.157980 7.455596 3.586504 18.000000
-13.639736 7.582427 3.584487 2.000000
-13.558022 7.592861 3.569264 2.000000
-13.456008 7.591356 3.548669 2.000000
-13.371085 7.598918 3.532551 2.000000
-13.230347 7.601586 3.504792 2.000000
-11.212966 8.669605 3.518929 15.333333
-11.225483 8.820934 3.544470 14.500000
-11.230579 8.939651 3.563746 14.500000
-11.241315 9.035024 3.580613 0.000000
-11.538941 10.108616 3.523596 7.500000
-11.713037 10.164052 3.562101 8.000000
-11.404838 10.150496 3.506881 16.000000
-11.296406 10.311555 3.513149 14.000000
-12.914714 10.424524 3.502987 3.666667
-11.304228 10.482552 3.541058 14.000000
-11.312028 10.622758 3.564339 14.000000
-11.317099 10.762129 3.587173 13.500000
-11.635171 11.968886 3.523088 0.000000
-11.576002 12.522801 3.599359 14.000000
-11.429012 12.560299 3.584215 15.000000
-13.041388 13.220086 3.579738 2.666667
-12.915282 13.230108 3.564091 2.666667
-12.739563 13.229063 3.540367 2.500000
-12.602672 13.238693 3.523458 2.666667
-11.481378 14.193516 3.519167 12.000000
-11.484844 14.320142 3.538601 10.333333
-12.721158 16.027111 3.574883 2.000000
-12.600448 16.029533 3.562147 2.000000
-11.579363 16.451420 3.514762 5.333333
2.261335 19.940197 3.506042 47.000000
2.389390 19.949070 3.510173 53.500000
2.549159 19.954397 3.514533 59.666668
2.709593 19.961788 3.519466 64.000000
2.838850 19.971676 3.524285 68.000000
2.968033 19.978779 3.528759 67.000000
3.065132 19.984072 3.532202 65.000000
3.161425 19.983002 3.534611 64.000000
3.291728 19.991901 3.539774 67.000000
3.421592 19.996071 3.544249 66.500000
3.551644 19.999393 3.548723 65.000000
3.650085 20.005722 3.552854 61.000000
3.749405 20.015381 3.557673 63.500000
3.881839 20.026243 3.563868 66.500000
4.045257 20.025991 3.569376 64.333336
4.210916 20.034134 3.576604 60.000000
4.343388 20.038090 3.582111 60.500000
4.476508 20.043091 3.587962 63.000000
4.644459 20.053333 3.596223 62.000000
16.329351 24.401779 3.555730 34.666668
16.490334 24.365280 3.562943 4.000000
15.611581 24.533613 3.521586 19.000000
15.761420 24.598125 3.537936 37.000000
15.478232 24.664852 3.526395 4.000000
15.885983 24.621899 3.548516 15.000000
16.349945 24.655300 3.582660 14.000000
15.625646 24.726883 3.542264 6.000000
15.086329 25.078114 3.544188 12.000000
15.253518 25.176636 3.564867 1.000000
-17.727957 37.486855 3.560843 14.000000
-17.672729 37.675861 3.573505 5.000000
-7.495309 -34.873402 3.688631 6.000000
-7.024280 -29.101543 3.625459 3.000000
-6.813071 -25.551544 3.671803 35.500000
-6.171210 -18.117441 3.689523 16.000000
-6.164190 -17.912268 3.651666 3.000000
-6.140469 -17.662800 3.604724 3.000000
-6.118229 -16.268660 3.668472 0.000000
-5.901709 -14.703205 3.639109 3.000000
-10.183089 -13.969621 3.648647 17.000000
-10.077081 -13.961876 3.634191 16.000000
-9.907857 -13.957022 3.612576 16.333334
-10.208141 -13.866339 3.634191 12.000000
-8.112858 -13.866682 3.690150 18.000000
-7.963866 -13.860725 3.671793 17.500000
-7.815501 -13.853197 3.653436 18.666666
-7.640647 -13.846595 3.632543 18.666666
-7.494203 -13.837091 3.614484 19.500000
-10.214333 -13.693694 3.605692 11.500000
-10.658622 -13.578747 3.643415 5.000000
-10.495906 -13.531136 3.614366 4.500000
-10.284959 -12.392693 3.699104 9.000000
-10.276358 -12.303470 3.682091 11.000000
-10.274821 -12.223378 3.667764 11.000000
-10.282957 -12.155323 3.657018 12.000000
-10.290710 -12.048935 3.639557 12.500000
-10.294800 -11.901483 3.614484 12.000000
-10.429367 -9.050241 3.690470 14.666667
-10.429371 -8.935899 3.670503 15.000000
-10.435974 -8.856661 3.658110 15.000000
-10.439590 -8.747469 3.640036 15.500000
-10.441830 -8.610731 3.617143 15.333333
-10.886580 -8.417138 3.677733 2.000000
-10.869229 -8.458421 3.680831 4.000000
-10.660107 -8.403637 3.627815 11.666667
-13.142181 -3.155163 3.612151 1.500000
-13.186268 -3.034604 3.616282 1.000000
-13.205732 -2.886539 3.612668 2.000000
-13.254606 -2.744895 3.617573 2.250000
-13.269204 -2.639410 3.615766 3.000000
-13.290961 -2.578694 3.618348 2.500000
-14.303051 -2.449983 3.602781 2.250000
-13.313664 -2.453094 3.618090 1.750000
-14.321495 -2.291372 3.600854 3.000000
-13.360574 -2.288567 3.622737 2.500000
-14.362937 -2.159322 3.605994 1.333333
-13.382107 -2.141070 3.621963 3.000000
-13.400448 -2.036194 3.622479 2.000000
-15.704178 -0.296046 3.607769 2.000000
-14.644275 -0.299086 3.636515 3.000000
-14.641934 -0.207000 3.635551 4.000000
-13.676454 -0.236328 3.655700 3.500000
-15.717681 -0.172815 3.610455 2.000000
-15.716012 -0.024671 3.609858 2.000000
-14.650078 -0.046027 3.637238 4.000000
-13.688139 -0.028650 3.658282 4.000000
-14.657181 0.115124 3.639086 4.000000
-13.689146 0.096779 3.658626 4.000000
-15.732440 0.123590 3.613738 2.000000
-15.746168 0.272115 3.617320 3.333333
-14.660620 0.253352 3.640371 3.666667
-13.698609 0.258244 3.661725 3.750000
-14.667930 0.391787 3.642941 4.333333
-13.707212 0.409227 3.664995 4.000000
-15.759792 0.420942 3.621200 4.000000
-15.765513 0.569834 3.623588 4.000000
-14.671744 0.553380 3.645190 4.250000
-13.710854 0.560282 3.667405 4.000000
-14.676449 0.715228 3.648081 4.000000
-13.711622 0.711402 3.669471 4.000000
-15.767231 0.718751 3.625379 4.000000
-15.766245 0.867682 3.626872 3.666667
-14.680681 0.854212 3.650973 3.666667
-13.709620 0.848125 3.671020 3.666667
-14.688764 0.993666 3.655149 2.666667
-13.722807 0.971627 3.676700 1.000000
-15.778116 1.017570 3.631647 3.666667
-15.788315 1.117873 3.635527 1.000000
-13.698856 1.632267 3.687028 4.000000
-15.774243 1.816769 3.647168 3.000000
-14.671148 1.759828 3.668562 4.750000
-13.698297 1.752366 3.690814 4.000000
-15.768457 1.866321 3.647168 2.000000
-14.654948 1.898133 3.668803 3.500000
-13.680399 1.903154 3.691417 3.500000
-14.389993 1.932819 3.604709 1.000000
-13.465348 1.981183 3.637454 2.000000
-14.224307 7.560016 3.700000 2.000000
-14.124881 7.564174 3.680300 2.000000
-13.998213 7.571904 3.655526 1.666667
-13.805700 7.580271 3.617619 1.666667
-11.165969 7.614130 3.611979 17.666666
-11.175125 7.775682 3.638487 18.333334
-11.176853 7.907828 3.659143 17.000000
-11.187550 8.048039 3.683241 15.333333
-11.975201 10.325780 3.631946 5.000000
-12.211849 10.463129 3.693732 4.000000
-11.323671 10.904684 3.610903 14.000000
-11.326707 11.010900 3.628364 13.000000
-11.339437 11.092773 3.643587 14.000000
-11.341087 11.199514 3.661048 13.500000
-11.350432 11.350500 3.687016 12.500000
-11.825628 12.527100 3.635981 4.666667
-11.739172 12.540360 3.625517 6.000000
-11.409985 12.698862 3.603214 13.000000
-11.415680 12.866919 3.630474 12.500000
-11.422153 12.996982 3.651951 12.000000
-11.430099 13.130393 3.674254 12.500000
-11.439717 13.267082 3.697383 12.000000
-11.768988 14.928887 3.664538 0.000000
6.892305 19.736485 3.652328 42.500000
7.034038 19.742895 3.661622 47.000000
7.178126 19.753862 3.671948 73.500000
7.321960 19.761944 3.681930 74.000000
7.466865 19.770842 3.692255 73.000000
7.574733 19.774105 3.699484 72.000000
6.826770 19.848886 3.667129 24.000000
4.811451 20.056519 3.603451 60.500000
4.947287 20.066059 3.610680 61.500000
5.083901 20.076595 3.618252 62.500000
5.219857 20.082394 3.625136 62.000000
5.390032 20.087666 3.633626 60.333332
5.561452 20.094763 3.642690 60.000000
5.699965 20.103018 3.650607 59.000000
5.837701 20.106539 3.657835 56.500000
5.976828 20.112900 3.665752 58.000000
6.816442 20.023169 3.695354 21.000000
6.116830 20.120190 3.674013 56.000000
6.224374 20.132580 3.681585 54.000000
6.327453 20.129307 3.686404 55.000000
6.467677 20.132292 3.694321 55.000000
17.348961 24.295427 3.615360 7.000000
17.819603 24.302870 3.649504 7.000000
17.143360 24.329296 3.604300 33.000000
17.293226 24.378962 3.619689 10.000000
18.308565 24.402416 3.694468 7.000000
-17.093437 24.548500 3.622574 14.000000
-17.072708 24.683723 3.634596 1.000000
17.299107 24.714863 3.653351 11.000000
-17.123241 24.923801 3.662007 14.000000
16.357744 25.006779 3.618727 10.000000
16.453699 24.981798 3.622574 34.000000
17.343788 24.945148 3.679319 45.000000
-17.112011 25.075871 3.676434 29.000000
15.036546 25.721657 3.608147 44.000000
14.908339 25.874117 3.616322 2.000000
15.023437 25.885540 3.624497 44.000000
15.469290 26.084352 3.672587 7.000000
15.602067 26.120853 3.684609 30.000000
-18.886267 30.259588 3.688631 2.000000
-18.753387 30.257891 3.681225 2.000000
-18.481985 30.242723 3.665178 2.000000
-18.300146 30.264740 3.657361 2.500000
-17.867231 30.296246 3.637200 3.000000
-17.745821 30.307598 3.631851 3.000000
-17.552994 30.304733 3.621564 3.500000
-17.360498 30.300882 3.611278 34.000000
-17.326206 30.462481 3.624033 8.000000
-17.786190 38.866310 3.670354 6.000000
-7.089150 -29.780184 3.707211 2.000000
-6.837566 -26.477018 3.796956 1.000000
-6.785341 -25.937952 3.722689 1.000000
-6.548117 -22.956923 3.741755 4.000000
-6.746269 -22.833553 3.731845 37.000000
-6.633640 -22.847980 3.729058 56.500000
-6.374511 -20.618202 3.770390 7.000000
-6.569496 -20.449299 3.752491 34.000000
-6.431432 -20.460098 3.746984 49.500000
-6.210875 -18.423323 3.747823 2.000000
-6.162509 -16.867151 3.790176 25.000000
-6.154523 -16.522526 3.721339 0.000000
-6.011015 -15.393623 3.795813 24.666666
-6.113394 -15.370093 3.799395 33.000000
-13.707948 -14.101114 3.790979 2.000000
-5.850228 -14.061190 3.781089 3.000000
-8.856600 -13.907281 3.787157 16.666666
-8.694679 -13.892748 3.764472 18.000000
-8.572403 -13.890711 3.749249 16.500000
-8.418608 -13.884212 3.729550 17.333334
-5.838781 -13.910296 3.745428 3.000000
-8.262394 -13.871247 3.708507 17.000000
-6.602763 -13.805698 3.799402 21.500000
-6.466682 -13.798505 3.783338 22.000000
-6.307835 -13.796462 3.766310 21.000000
-6.144855 -13.782022 3.746392 22.000000
-5.985810 -13.772861 3.728400 22.000000
-5.852619 -13.761139 3.712657 19.500000
-10.328304 -11.279316 3.796992 12.500000
-10.372086 -11.149939 3.780768 13.000000
-10.406252 -9.649845 3.792888 14.500000
-10.410786 -9.503141 3.767241 15.000000
-10.414497 -9.328106 3.736601 15.666667
-12.184892 -9.208689 3.791932 4.500000
-12.008456 -9.244363 3.762455 3.000000
-10.419378 -9.185945 3.712331 14.000000
-12.214265 -9.051320 3.774342 5.000000
-12.216957 -8.905578 3.753459 5.000000
-12.227580 -8.796121 3.739645 5.000000
-12.234085 -8.713634 3.729043 5.000000
-12.234596 -8.598648 3.712657 5.000000
-12.252051 -8.505869 3.703019 3.333333
-13.535812 7.067319 3.791049 1.666667
-13.506448 7.178518 3.797474 1.333333
-13.442737 7.307973 3.798759 1.666667
-14.516337 7.540637 3.757309 1.000000
-14.426953 7.551850 3.740295 1.000000
-14.323851 7.555302 3.719700 2.000000
-13.222531 7.606305 3.787193 2.000000
-13.069571 7.609679 3.754745 1.666667
-12.889944 7.623024 3.717958 0.500000
-11.197396 8.216378 3.711814 16.000000
-11.203815 8.357189 3.735569 17.000000
-11.215796 8.504086 3.761732 15.666667
-11.219618 8.646544 3.785658 15.500000
-11.432900 10.143415 3.794583 16.500000
-11.309711 10.161896 3.774824 14.500000
-11.296851 10.311955 3.797474 13.666667
-12.770508 10.430173 3.787306 4.500000
-12.614609 10.435654 3.760443 5.000000
-12.459143 10.439595 3.733579 4.000000
-12.313049 10.449564 3.709402 4.500000
-11.441273 13.353478 3.711426 12.000000
-11.447474 13.445974 3.727121 12.000000
-11.452046 13.580574 3.749424 12.000000
-11.460386 13.765062 3.780401 11.500000
-11.887493 15.525643 3.769401 6.500000
-11.730469 15.521717 3.750473 20.500000
-11.590468 15.538425 3.736844 19.500000
-11.554228 15.694828 3.756908 9.500000
-11.561192 15.860165 3.783408 9.000000
1.194489 19.473478 3.760946 1.666667
1.348912 19.485743 3.765237 8.500000
1.503234 19.491474 3.768518 17.333334
1.658306 19.503242 3.773187 23.000000
1.782759 19.513954 3.777351 17.000000
1.905545 19.504318 3.777730 19.500000
7.648187 19.779613 3.704991 69.000000
7.759306 19.789173 3.713596 73.000000
7.943117 19.798876 3.727020 72.666664
8.129011 19.810669 3.741132 74.000000
8.276859 19.815559 3.751802 72.500000
8.428174 19.826626 3.763850 53.500000
8.579185 19.834753 3.775553 69.500000
8.729822 19.839970 3.786911 64.500000
8.845661 19.849031 3.796549 69.000000
6.610629 20.141800 3.703614 53.500000
6.752702 20.146568 3.712219 48.500000
18.712389 24.377649 3.721638 1.000000
-17.167013 25.499123 3.722600 9.000000
-17.108898 25.585934 3.727409 2.000000
17.938971 25.629023 3.788482 12.000000
15.903554 26.342743 3.726447 31.500000
-19.148369 30.254631 3.702620 1.000000
-17.472921 31.639095 3.737593 5.000000
-17.398306 31.739183 3.742942 1.000000
-7.200925 -31.116299 3.867830 2.000000
-6.887442 -27.020504 3.871773 2.000000
-6.629533 -23.808487 3.873686 3.000000
-6.598171 -23.410990 3.812366 2.000000
-6.427272 -21.261324 3.880534 2.000000
-6.400721 -20.935808 3.824773 2.000000
-6.265026 -19.179214 3.889407 2.000000
-6.271214 -18.895964 3.837922 4.500000
-6.104888 -17.211025 3.854332 16.000000
-6.099530 -17.025959 3.817160 3.000000
-6.017894 -15.850554 3.894313 5.000000
-5.979764 -15.602233 3.837899 3.000000
-5.885138 -14.399531 3.862051 3.000000
-11.230581 -14.245929 3.828725 2.000000
-5.868187 -14.230235 3.821570 8.000000
-14.426052 -14.156572 3.896221 2.000000
-14.242090 -14.152807 3.870479 2.000000
-14.086485 -14.130808 3.846250 2.000000
-13.945253 -14.121511 3.825808 2.000000
-13.807113 -14.114133 3.806122 2.000000
-11.257983 -14.097546 3.807798 4.333333
-11.547726 -14.048368 3.838224 4.000000
-11.404974 -14.053789 3.820051 4.500000
-9.602302 -13.940073 3.888044 17.500000
-9.464119 -13.925974 3.867449 17.000000
-9.319382 -13.923626 3.848421 17.500000
-9.174036 -13.918443 3.828945 16.000000
-9.108912 -13.914578 3.819990 17.000000
-9.015697 -13.914780 3.808349 17.000000
-7.354054 -13.836671 3.890323 20.000000
-7.211341 -13.829214 3.872171 21.000000
-7.097701 -13.822453 3.857713 19.500000
-7.015783 -13.822887 3.848557 20.000000
-6.903948 -13.816849 3.834742 20.666666
-6.738234 -13.809200 3.814823 20.333334
-10.225842 -13.530886 3.895656 13.500000
-10.408875 -13.289253 3.877299 4.000000
-10.343733 -13.335060 3.876404 3.000000
-10.233653 -13.365754 3.866554 9.000000
-10.445940 -13.207962 3.867897 20.500000
-10.734587 -13.017466 3.875508 2.000000
-10.456824 -13.052308 3.841481 22.500000
-10.629396 -12.972722 3.852226 1.000000
-10.483366 -12.918229 3.821333 1.500000
-11.972549 -12.010221 3.895208 1.000000
-11.861325 -12.048987 3.883567 2.666667
-11.680845 -12.053657 3.855361 2.000000
-12.045004 -11.932017 3.894313 1.000000
-12.089937 -11.864202 3.890731 2.500000
-12.097040 -11.722906 3.869240 4.000000
-10.309286 -11.767977 3.884218 12.500000
-10.312168 -11.623112 3.857713 12.000000
-10.316365 -11.517984 3.838919 13.000000
-10.321009 -11.414548 3.820606 12.500000
-10.775517 -11.154478 3.850485 4.000000
-10.658478 -11.137733 3.827353 3.500000
-10.518892 -11.131186 3.802293 23.500000
-10.393259 -9.914678 3.838846 14.000000
-10.397129 -9.794444 3.817502 14.333333
-12.930306 6.751214 3.898404 4.000000
-13.436272 7.414163 3.810004 1.000000
-13.379131 7.465096 3.803739 1.500000
-13.347164 7.557620 3.808076 1.500000
-11.227870 8.794388 3.811650 15.333333
-11.233584 8.942051 3.837297 15.500000
-11.277203 9.063867 3.866732 0.000000
-11.540217 10.109742 3.809040 13.500000
-11.704995 10.157074 3.847593 9.000000
-12.909745 10.420525 3.810737 4.666667
-11.308092 10.486128 3.828799 13.500000
-11.311021 10.588368 3.846629 14.000000
-11.311607 10.655797 3.858195 13.000000
-11.321709 10.766518 3.878918 13.500000
-11.616879 11.950069 3.828049 0.000000
-12.904159 13.218722 3.898939 1.666667
-12.733809 13.223074 3.874570 2.000000
-12.607494 13.243776 3.859289 2.000000
-11.466431 13.904941 3.803943 12.000000
-11.477462 14.052813 3.829551 12.000000
-11.482553 14.194967 3.853506 12.000000
-11.489058 14.325389 3.875809 9.000000
-12.074619 15.617092 3.805365 4.000000
-12.294885 15.799163 3.859122 2.000000
-11.566599 15.972754 3.801579 9.000000
-11.575803 16.145212 3.829593 9.000000
-11.581511 16.314861 3.856850 9.000000
-11.580080 16.458529 3.879312 6.000000
2.072172 19.915825 3.859879 32.500000
8.960996 19.855576 3.805842 67.000000
9.114336 19.861553 3.817889 66.500000
9.269760 19.869957 3.830625 67.000000
9.426506 19.878967 3.843704 66.500000
9.582871 19.885014 3.856440 65.500000
9.741417 19.893414 3.869864 63.500000
9.846407 19.870277 3.874339 2.000000
2.232607 19.935326 3.866945 40.666668
2.392450 19.945168 3.872371 50.500000
2.552776 19.954939 3.878050 56.000000
2.713107 19.961561 3.883350 59.000000
2.841801 19.967449 3.887893 64.500000
3.003214 19.975544 3.893950 66.666664
-17.370121 21.884239 3.879474 12.000000
-17.382248 22.041359 3.897629 13.000000
18.949181 25.339111 3.831763 2.000000
18.930874 25.989283 3.893798 13.000000
18.123589 26.066717 3.844747 8.000000
-17.377253 26.707579 3.858693 2.000000
-17.232924 26.668648 3.845228 5.000000
-17.744638 26.717932 3.884180 1.000000
-17.565096 26.719908 3.872398 1.500000
-17.161928 26.742704 3.848113 23.000000
16.827011 26.814157 3.833686 20.000000
-17.171726 26.943836 3.869272 8.000000
15.453562 27.414467 3.811084 23.000000
15.561181 27.403767 3.816374 15.000000
16.796000 27.333569 3.885142 34.000000
15.380936 27.487139 3.814451 31.000000
15.846057 27.501572 3.843785 23.000000
15.838448 27.689096 3.863021 7.000000
-17.541985 32.729362 3.840043 3.000000
-17.467094 32.837006 3.846215 7.000000
-7.270048 -31.870489 3.958719 2.000000
-6.483355 -21.943691 3.997563 3.000000
-6.460867 -21.617414 3.941802 2.000000
-6.314247 -19.749439 3.996920 2.000000
-6.291711 -19.467890 3.943921 2.000000
-6.149562 -17.688955 3.952632 3.000000
-6.127296 -17.447987 3.903069 2.000000
-6.027051 -16.180313 3.965949 3.000000
-6.007867 -15.975202 3.920281 3.000000
-5.922773 -14.890840 3.978673 3.000000
-5.895773 -14.688418 3.929518 4.000000
-5.898167 -14.561877 3.900604 5.000000
-14.675186 -14.176611 3.933321 2.000000
-14.577067 -14.170629 3.918935 2.000000
-10.199636 -13.946276 3.968635 14.500000
-10.078765 -13.964220 3.955651 16.000000
-9.904488 -13.952291 3.930130 16.000000
-9.738788 -13.949793 3.907744 16.500000
-10.218946 -13.835345 3.950726 11.000000
-8.090372 -13.878305 3.988312 16.000000
-7.970139 -13.871637 3.971927 16.000000
-7.820267 -13.861629 3.951365 17.000000
-7.643646 -13.852004 3.927912 16.666666
-7.493301 -13.835423 3.906386 19.000000
-10.222204 -13.704243 3.926996 11.000000
-5.834427 -13.778467 3.998928 11.000000
-10.288499 -12.357483 3.992167 12.000000
-10.289614 -12.202073 3.962770 12.000000
-10.294222 -12.053051 3.935301 12.500000
-10.299913 -11.907383 3.908796 12.500000
-11.116959 -11.222190 3.921808 1.000000
-10.967457 -11.282021 3.906387 1.000000
-11.220410 -11.115151 3.921165 1.000000
-11.309237 -11.028517 3.921808 1.000000
-11.352719 -10.967022 3.918916 1.000000
-10.356731 -10.788588 3.996862 13.000000
-10.357665 -10.688337 3.977756 13.500000
-10.365074 -10.562364 3.955034 15.500000
-10.366275 -10.398984 3.924223 10.666667
-10.435147 -10.337262 3.925600 4.000000
-10.529792 -10.268402 3.930764 6.250000
-10.585079 -10.161373 3.921469 29.000000
-11.758885 -9.021011 3.960921 1.000000
-11.836453 -8.887085 3.955809 1.500000
-11.976997 -8.701805 3.956583 2.000000
-11.914309 -8.771154 3.954002 1.000000
-12.039696 -8.603723 3.954862 1.333333
-12.098832 -8.531629 3.956583 2.000000
-12.138888 -8.474505 3.956583 2.000000
-12.931616 6.873026 3.913895 3.333333
-12.936172 7.006274 3.931797 3.500000
-12.943631 7.142386 3.951007 3.400000
-12.952268 7.307222 3.974485 3.333333
-12.953709 7.442733 3.992731 2.500000
-11.951471 10.305319 3.917953 4.000000
-12.231645 10.446760 3.993613 4.000000
-11.327947 10.908796 3.904459 14.000000
-11.329341 11.013461 3.922772 13.000000
-11.339088 11.092432 3.938193 14.000000
-11.343272 11.201681 3.957951 13.000000
-11.352273 11.352340 3.985902 11.500000
-11.829364 12.531073 3.958188 5.666667
-11.727934 12.528355 3.941772 6.000000
-11.577527 12.524432 3.917594 13.666667
-11.431564 12.563131 3.901476 15.000000
-11.414899 12.704340 3.922967 12.500000
-11.425400 12.877882 3.954308 12.500000
-11.431562 13.007689 3.977589 12.000000
-11.429102 13.087587 3.991021 12.000000
-13.044714 13.209610 3.918351 2.000000
-12.719104 16.030268 3.944678 2.000000
-12.562426 16.038750 3.927264 2.000000
3.165221 19.984360 3.900385 65.000000
3.294556 19.987329 3.904928 63.500000
3.425050 19.995270 3.910607 63.000000
3.588232 20.002502 3.917421 65.333336
3.752453 20.012352 3.924992 67.000000
3.883733 20.017296 3.930671 64.500000
4.048239 20.022703 3.937864 62.000000
4.214251 20.032616 3.946192 64.000000
4.345859 20.032614 3.951492 65.500000
4.480208 20.043243 3.959064 64.000000
4.647254 20.049479 3.967392 61.000000
4.815108 20.056330 3.976099 63.500000
4.950912 20.065720 3.984049 62.000000
5.085573 20.068481 3.990863 61.000000
5.186961 20.070940 3.996163 60.000000
-17.393551 22.198782 3.915782 13.000000
-17.404043 22.356480 3.933937 12.000000
-17.384632 22.476856 3.945489 5.000000
19.582838 25.846239 3.926980 17.000000
18.834423 26.201221 3.907744 12.000000
18.138731 26.620317 3.901011 63.000000
16.782438 27.504843 3.901973 24.000000
17.864826 27.498913 3.971222 17.000000
17.767588 27.538221 3.968817 33.000000
-17.270889 28.062456 3.990458 13.000000
-17.896955 33.901550 3.964301 2.000000
-17.760809 33.901222 3.957717 2.000000
-17.608339 33.868591 3.947431 3.000000
-17.509155 33.937885 3.949077 26.000000
-17.493097 34.169811 3.969650 2.000000
-7.956882 -38.797272 4.095552 24.000000
-7.830233 -38.798676 4.093084 58.000000
-7.296186 -32.454941 4.028448 3.000000
-7.003771 -28.600441 4.088521 3.000000
-6.979053 -28.116859 4.022507 1.000000
-6.737695 -25.110352 4.074989 2.000000
-6.706721 -24.684830 4.009333 1.000000
-6.513803 -22.304358 4.059519 6.000000
-6.343365 -20.057535 4.055220 2.000000
-6.188470 -18.168112 4.050931 3.000000
-6.170373 -17.930235 4.002194 2.000000
-6.069754 -16.613331 4.062657 5.000000
-6.047703 -16.393017 4.013407 3.000000
-5.957597 -15.256835 4.066381 3.000000
-5.940020 -15.071900 4.022046 3.000000
-5.860556 -14.086014 4.077419 3.000000
-8.858405 -13.910118 4.094333 16.000000
-8.701489 -13.903629 4.072165 16.500000
-8.543232 -13.892127 4.049033 16.000000
-8.394697 -13.894052 4.030238 16.000000
-8.181290 -13.883536 4.000842 16.000000
-5.847946 -13.932131 4.038173 7.000000
-8.268499 -13.881480 4.011444 16.000000
-6.605876 -13.812222 4.091878 19.000000
-6.469332 -13.804149 4.074321 18.333334
-6.305199 -13.790705 4.052632 19.333334
-6.143475 -13.778928 4.031977 20.333334
-5.986128 -13.773603 4.013731 21.333334
-5.880722 -13.767178 4.000993 21.000000
-10.264925 -12.812798 4.076020 11.500000
-10.275515 -12.662132 4.048551 12.000000
-10.278440 -12.504359 4.018672 12.000000
-10.334522 -11.286102 4.089812 13.000000
-10.342167 -11.152942 4.065025 13.500000
-10.345901 -11.017319 4.039206 12.500000
-10.351013 -10.884884 4.014420 13.000000
-12.951645 7.563802 4.008481 2.250000
-11.532434 10.102936 4.097558 17.000000
-11.429701 10.140576 4.083615 16.000000
-11.309679 10.161860 4.063477 14.000000
-11.298465 10.280855 4.082582 15.000000
-12.760584 10.422064 4.090477 4.000000
-12.608102 10.430275 4.062526 4.000000
-12.460487 10.440722 4.036021 4.000000
-12.347412 10.445462 4.015299 4.000000
-11.436479 13.179372 4.008035 12.000000
-11.444066 13.314444 4.032660 12.000000
-11.453284 13.452800 4.058180 12.000000
-11.456305 13.585619 4.081909 12.000000
-11.799990 14.968213 4.022846 0.000000
-11.591522 15.539860 4.091821 18.000000
6.891150 19.722088 4.027205 44.000000
7.032075 19.726494 4.037048 47.000000
7.180038 19.748367 4.050677 53.500000
7.325142 19.759945 4.062412 49.500000
7.471365 19.772316 4.074527 52.500000
7.615204 19.776299 4.085127 59.000000
7.793598 19.774899 4.097367 66.000000
6.827517 19.839796 4.044620 22.000000
5.255958 20.077345 4.000706 58.000000
5.392894 20.084309 4.008782 60.666668
5.564952 20.093746 4.019256 59.500000
5.702353 20.098057 4.027205 58.000000
5.840574 20.103321 4.035534 58.000000
5.980198 20.111404 4.044620 58.500000
6.119017 20.114769 4.052948 57.000000
6.818344 20.017300 4.076419 20.000000
6.294028 20.121016 4.064053 57.000000
6.471479 20.132088 4.076420 56.000000
6.613165 20.137672 4.085884 53.000000
6.753294 20.136688 4.094213 49.500000
15.928123 24.174625 4.019756 5.000000
16.178728 24.222328 4.044512 4.000000
15.593247 24.495359 4.031859 18.000000
15.456541 24.534992 4.026358 15.500000
18.598085 27.479588 4.018350 55.000000
17.466873 28.226151 4.019792 68.000000
16.208475 29.180777 4.042394 4.000000
16.175409 29.557236 4.080385 12.000000
16.302698 29.568867 4.089041 9.000000
-17.663256 35.318882 4.083621 3.000000
-7.375396 -33.295753 4.129917 2.000000
-7.059016 -29.223091 4.174341 4.000000
-6.786301 -25.612709 4.153032 4.000000
-6.579966 -23.068581 4.191004 2.000000
-6.540950 -22.661646 4.120787 3.000000
-6.393659 -20.667334 4.170304 2.000000
-6.363573 -20.343512 4.108976 2.000000
-6.241407 -18.707838 4.162447 4.000000
-6.211379 -18.424820 4.103798 4.000000
-6.104621 -17.040169 4.157575 2.000000
-6.083847 -16.815617 4.107430 3.000000
-5.992215 -15.634718 4.156981 3.000000
-5.969866 -15.431162 4.107826 4.000000
-5.887435 -14.405152 4.159009 3.000000
-5.875206 -14.247256 4.118730 4.000000
-13.953593 -14.129982 4.191360 2.000000
-13.815678 -14.122889 4.169882 3.000000
-13.724865 -14.118516 4.155839 3.000000
-9.472460 -13.938248 4.183969 15.500000
-9.308075 -13.930387 4.159552 15.666667
-9.142590 -13.918213 4.134332 16.000000
-9.016962 -13.916737 4.116982 16.000000
-7.356659 -13.841572 4.189303 18.000000
-7.216734 -13.839577 4.171402 18.500000
-7.102276 -13.831364 4.155394 18.000000
-7.018643 -13.828524 4.144550 18.000000
-6.905732 -13.820429 4.129058 18.333334
-6.741851 -13.816594 4.108747 19.000000
-10.243842 -13.379107 4.183486 11.000000
-10.248652 -13.255426 4.159873 12.000000
-10.253616 -13.133555 4.136741 11.500000
-10.257673 -12.969908 4.105416 12.000000
-10.316839 -11.776594 4.184312 11.500000
-10.317223 -11.665599 4.162107 11.000000
-10.316702 -11.554888 4.139902 12.500000
-10.329479 -11.423920 4.116148 13.500000
-11.706864 10.158695 4.142484 7.000000
-12.906998 10.418297 4.118107 4.000000
-11.309048 10.454125 4.115976 13.666667
-11.315661 10.592713 4.142484 14.000000
-11.313266 10.657360 4.153845 13.000000
-11.323088 10.767820 4.176049 14.000000
-12.594288 13.243807 4.197870 2.000000
-11.466745 13.772686 4.116384 11.500000
-11.476190 13.916775 4.143248 12.000000
-11.476882 14.007042 4.159366 11.000000
-11.484512 14.106515 4.178170 11.000000
-11.491621 14.206179 4.196975 12.000000
-11.724318 15.513567 4.104211 25.500000
-12.039029 15.571061 4.154187 5.000000
-11.884640 15.521923 4.126101 6.000000
-11.560868 15.703842 4.115776 9.500000
-11.568652 15.870401 4.145101 10.000000
-11.571536 15.979572 4.164100 9.000000
-11.579266 16.150047 4.194250 9.500000
1.070152 19.445528 4.110406 0.000000
1.194319 19.470909 4.117290 4.000000
1.348321 19.477238 4.120732 10.500000
1.502106 19.477062 4.123073 17.000000
1.657237 19.490704 4.128580 23.500000
1.782310 19.509140 4.134775 16.000000
1.905464 19.503395 4.136014 21.000000
7.977774 19.785381 4.112384 69.000000
8.127295 19.796633 4.125255 70.500000
8.274990 19.801350 4.136991 69.000000
8.388107 19.809187 4.146833 73.000000
8.465727 19.818857 4.154405 30.000000
8.576980 19.820160 4.163112 68.500000
8.691558 19.828123 4.173333 74.000000
8.768099 19.833050 4.180147 71.000000
8.880735 19.834496 4.189233 70.000000
8.996799 19.842539 4.199832 70.000000
-17.113668 24.422693 4.140783 1.000000
17.161951 24.509806 4.154536 36.000000
17.505032 24.504944 4.181492 9.000000
-17.095701 24.560888 4.155087 21.000000
17.400444 24.521042 4.174891 2.000000
-17.108587 24.744829 4.177092 14.000000
-17.107019 24.909502 4.195796 30.000000
15.149136 25.595457 4.129781 38.666668
15.256261 25.531790 4.129781 47.000000
14.912339 25.683794 4.123729 30.000000
15.028955 25.698380 4.133632 39.000000
19.943254 27.560650 4.119818 23.000000
-17.322792 29.163317 4.107796 13.000000
-19.270607 35.684887 4.193889 2.000000
-17.634289 35.821835 4.128880 15.000000
-17.706755 36.256023 4.172493 3.000000
-7.658801 -34.575165 4.288612 8.000000
-7.542521 -34.564140 4.284284 61.000000
-6.619694 -23.487358 4.263287 4.000000
-6.446763 -21.312372 4.292203 2.000000
-6.417171 -20.976521 4.228604 2.000000
-6.276862 -19.215446 4.266530 2.000000
-6.266035 -18.980076 4.218619 2.000000
-6.143396 -17.493832 4.258761 3.000000
-6.117524 -17.246647 4.203243 4.000000
-6.039734 -16.214363 4.295772 2.000000
-6.023684 -16.017258 4.248545 4.000000
-6.005074 -15.816787 4.200354 2.000000
-5.938504 -14.930390 4.294303 3.000000
-5.927801 -14.768209 4.252992 3.000000
-5.905983 -14.581173 4.204451 3.000000
-14.535479 -14.174595 4.285115 2.500000
-14.389008 -14.164743 4.261573 2.000000
-14.249935 -14.160612 4.240096 2.000000
-14.100138 -14.144504 4.215314 2.000000
-10.205024 -13.953623 4.291917 14.000000
-10.078554 -13.963932 4.275532 15.000000
