# This PCD file was generated using the MATLAB® pcwrite function
# from Computer Vision Toolbox®.
# .PCD v.7 - Point Cloud Data file format
VERSION .7
FIELDS x y z intensity
SIZE 4 4 4 4
TYPE F F F F
COUNT 1 1 1 1
WIDTH 1216
HEIGHT 1
VIEWPOINT 0 0 0 1 0 0 0
POINTS 1216
DATA ascii
3.960431 21.536263 1.880351 54.500000
4.102377 21.546188 1.883431 59.500000
4.244222 21.553223 1.886340 64.500000
4.386711 21.561277 1.889420 59.500000
4.529456 21.568394 1.892500 59.500000
4.671214 21.568722 1.895066 57.500000
4.781848 21.587355 1.898660 59.000000
-17.393770 32.439232 1.875575 7.000000
-17.364954 32.631256 1.883513 28.000000
-17.383627 32.915257 1.896745 29.000000
-7.598870 -38.306919 1.989974 65.000000
-7.845827 -38.289726 1.991602 8.000000
-7.721547 -38.294605 1.990584 77.000000
-6.829710 -28.295439 1.990511 0.000000
-6.816123 -27.855204 1.961038 2.000000
-6.896641 -27.436409 1.934567 13.000000
-6.812333 -27.465687 1.935112 45.000000
-6.428326 -22.286049 1.991745 2.000000
-6.394464 -21.909954 1.959918 2.000000
-6.367338 -21.564867 1.930829 3.000000
-6.576464 -21.443636 1.926038 36.666668
-6.443671 -21.450623 1.923300 51.000000
-6.091293 -17.903292 1.955612 0.000000
-6.094475 -17.729799 1.938743 3.000000
-6.171116 -17.548279 1.923622 45.500000
-5.766857 -13.162226 1.995300 4.000000
-5.760139 -13.035326 1.978796 4.000000
-14.354435 -12.825240 1.990585 1.500000
-14.205174 -12.812863 1.978242 2.000000
-14.065226 -12.807278 1.967132 1.000000
-5.743724 -12.834475 1.952390 4.000000
-5.725731 -12.634026 1.925984 4.000000
-10.094164 -12.527793 1.948342 13.500000
-10.021496 -12.598686 1.949544 18.000000
-9.856184 -12.592512 1.936560 14.333333
-9.690313 -12.583084 1.923335 15.500000
-9.560596 -12.577332 1.913236 14.500000
-9.428954 -12.567274 1.902657 14.500000
-5.717637 -12.511474 1.910030 4.000000
-7.174434 -12.446410 1.994750 18.000000
-7.012044 -12.434104 1.982097 18.333334
-6.855002 -12.427938 1.970727 19.666666
-6.698701 -12.419925 1.959358 19.666666
-6.543770 -12.411248 1.948172 21.333334
-10.098614 -12.373364 1.934155 12.500000
-6.390214 -12.401931 1.937170 20.666666
-6.239793 -12.395545 1.926901 22.000000
-6.090062 -12.387434 1.916632 20.666666
-5.942758 -12.381176 1.906913 23.000000
-10.298116 -12.181862 1.931751 24.000000
-10.153825 -12.204275 1.922614 13.750000
-10.319276 -12.090919 1.925018 26.500000
-10.326223 -11.946235 1.912275 27.000000
-10.334145 -11.842079 1.903378 27.000000
-10.217454 -10.125258 1.997317 14.666667
-10.225351 -9.975049 1.983472 14.500000
-10.230961 -9.886827 1.975495 15.000000
-10.439941 -9.776361 1.985948 29.000000
-10.293949 -9.792381 1.972745 13.500000
-10.448103 -9.692034 1.978796 19.500000
-10.456555 -9.548247 1.966143 31.000000
-10.465422 -9.377012 1.951106 33.000000
-10.469962 -9.233797 1.938362 33.500000
-10.478777 -9.096326 1.926718 33.666668
-10.488636 -8.932938 1.912964 32.666668
-10.489045 -8.820085 1.902879 26.000000
-13.923431 -7.977253 1.943292 2.000000
-13.763721 -7.972043 1.926221 2.000000
-13.594049 -7.959642 1.907706 2.000000
-12.054054 -7.468005 1.968894 0.000000
-11.970026 -7.468091 1.958992 0.000000
-11.840873 -7.465197 1.943588 0.000000
-11.676893 -7.464763 1.924334 1.500000
-11.548391 -7.459562 1.908930 1.000000
-10.367592 -7.411597 1.997544 23.000000
-10.373340 -7.268954 1.985362 21.333334
-10.382030 -7.178144 1.978342 23.000000
-10.562492 -7.060302 1.991350 19.000000
-10.404713 -7.065713 1.971323 19.333332
-10.584588 -6.979314 1.987220 38.666668
-10.592362 -6.842077 1.976484 38.333332
-10.597533 -6.681487 1.963632 38.750000
-10.608991 -6.526742 1.952328 38.333332
-10.619926 -6.373605 1.941334 21.250000
-10.647641 -6.231974 1.933746 1.666667
-10.651733 -6.122581 1.925694 0.000000
-10.735462 -6.103546 1.935604 0.000000
-12.915256 -4.583681 1.902879 3.000000
-10.524019 -4.439073 1.995512 40.250000
-10.534256 -4.288298 1.987079 42.000000
-10.542386 -4.137931 1.978646 44.500000
-10.555326 -4.047581 1.975031 27.000000
-10.751595 -3.834852 1.994307 34.250000
-10.770104 -3.700890 1.989626 11.000000
-10.805920 -3.531950 1.986184 1.200000
-10.804209 -3.363099 1.976925 0.000000
-10.820122 -3.219489 1.972278 0.000000
-10.838682 -3.114099 1.970213 0.000000
-10.818201 -3.034757 1.962984 0.000000
-10.623839 -2.902421 1.924090 31.666666
9.567822 -2.894163 1.926911 4.000000
-10.606292 -2.778605 1.915553 52.200001
9.485995 -2.772138 1.905105 11.000000
-10.612615 -2.620493 1.909805 55.250000
9.564257 -2.686596 1.915049 5.000000
-10.620727 -2.481318 1.905503 56.750000
-10.625604 -2.359544 1.901602 59.333332
-10.916073 -1.276564 1.920131 0.500000
-10.928313 -1.138984 1.919615 0.000000
-10.936609 -0.983781 1.918445 0.000000
-10.943375 -0.828625 1.917378 0.500000
-10.949974 -0.690839 1.916861 0.250000
-10.962149 -0.536129 1.917481 0.000000
-10.964144 -0.380953 1.916689 0.000000
-10.952145 -0.251430 1.913936 27.750000
-10.888914 1.079179 1.911698 5.000000
-11.042423 1.146964 1.939579 0.000000
-11.053702 1.271202 1.943916 0.000000
-11.064837 1.425356 1.949102 0.333333
-11.063459 1.572615 1.952314 0.250000
-16.359831 1.774360 1.992824 1.000000
-11.071053 1.715901 1.957305 0.000000
-11.097186 1.863067 1.965910 0.000000
-11.100045 2.007251 1.970729 0.000000
-11.198299 2.152399 1.992242 1.000000
-11.069225 2.163621 1.970488 21.200001
-10.878571 2.215251 1.939579 35.500000
-10.878342 2.322227 1.943365 47.500000
-10.883847 2.466801 1.949733 44.250000
-10.897779 2.560064 1.955756 2.000000
-11.131164 2.651820 1.999126 0.000000
-12.386673 2.930376 1.995066 2.000000
-10.924232 3.115972 1.984669 44.000000
-10.924858 3.209200 1.989316 43.000000
-10.930747 3.360708 1.997921 40.000000
-11.325128 4.877374 1.932714 6.666667
-11.306576 5.017542 1.938856 6.000000
-11.313725 5.148792 1.948302 1.500000
-12.486275 5.729798 1.907555 0.000000
-11.216567 5.779288 1.977723 12.333333
-11.069352 5.814011 1.959761 20.000000
-11.066271 5.923802 1.967400 24.333334
-11.073499 6.062625 1.978755 21.666666
-11.079089 6.202101 1.990111 22.333334
-11.472441 7.558977 1.907647 0.000000
-11.450052 7.673848 1.913881 0.000000
-11.493656 7.940787 1.939737 0.000000
-11.373029 8.178308 1.945055 17.000000
-11.661178 8.219964 1.980996 4.000000
-11.567444 8.208405 1.969444 6.000000
-11.221569 8.203887 1.930110 17.000000
-11.194333 8.319801 1.936620 17.333334
-11.201931 8.462773 1.949364 16.500000
-11.209960 8.608022 1.962476 17.333334
-11.219102 8.755909 1.976045 16.000000
-11.229604 8.906969 1.990165 17.000000
-11.665938 11.476096 1.981764 9.000000
-11.520461 11.476220 1.969261 22.000000
-11.383819 11.483600 1.958200 19.000000
-11.764402 11.500462 1.992343 8.000000
-11.381008 11.589545 1.967097 13.500000
-11.389511 11.744925 1.981283 13.000000
-11.393763 11.897999 1.994988 13.500000
8.571136 13.193351 1.905302 18.000000
8.531800 13.223550 1.905783 27.000000
-12.032124 13.944276 1.904592 2.000000
-12.456753 14.345015 1.964664 0.000000
-11.528196 14.333062 1.902124 13.000000
-12.606482 14.425651 1.981122 2.000000
-11.536077 14.482166 1.914673 12.500000
-11.545390 14.634747 1.927634 13.000000
-11.554614 14.789347 1.940800 13.500000
-11.560344 14.941157 1.953555 12.000000
-11.569117 15.049957 1.963018 12.000000
-11.578739 15.210381 1.976802 12.500000
-11.589625 15.374369 1.990996 12.000000
-11.780884 18.875340 1.910638 15.000000
-11.786616 19.017265 1.921247 19.000000
-11.806185 19.183180 1.934251 13.000000
-11.799897 19.308588 1.943149 20.000000
-11.815671 19.471630 1.955811 12.000000
-11.818204 19.614473 1.966420 20.000000
-11.840853 19.863377 1.985756 15.000000
6.651801 21.291014 1.915429 30.000000
6.756292 21.272694 1.916626 42.000000
6.943542 21.281521 1.922273 65.000000
7.020350 21.289881 1.925011 63.000000
6.874201 21.295645 1.921589 24.000000
7.097279 21.297968 1.927749 60.000000
7.213560 21.311436 1.932027 55.000000
7.363579 21.312778 1.936304 53.000000
7.520525 21.331871 1.942293 50.500000
7.675993 21.344200 1.947769 47.500000
7.830538 21.351669 1.952902 48.000000
7.988967 21.367374 1.958891 49.500000
8.148602 21.383793 1.965051 51.000000
8.306597 21.393471 1.970698 49.500000
6.638999 21.486961 1.931171 25.000000
8.467230 21.407568 1.976858 46.000000
8.586553 21.413698 1.981136 42.000000
8.707642 21.422806 1.985756 44.000000
8.867977 21.430271 1.991574 46.500000
9.028749 21.436569 1.997391 48.500000
4.924482 21.587967 1.901398 53.000000
4.854888 21.595556 1.900713 60.000000
4.999465 21.603453 1.904135 56.000000
5.143123 21.605135 1.907101 59.666668
5.324399 21.611849 1.911322 62.500000
5.470353 21.618534 1.914915 64.000000
5.618093 21.630028 1.919022 60.500000
5.765181 21.636658 1.922786 60.000000
5.913088 21.644220 1.926722 59.000000
6.062939 21.656530 1.931171 58.500000
6.212066 21.663982 1.935278 57.500000
6.361532 21.670410 1.939384 57.000000
6.513040 21.681540 1.944004 51.500000
6.623867 21.679224 1.946571 29.000000
-17.396957 33.192619 1.909569 31.000000
-17.412418 33.477474 1.922800 29.000000
-17.431759 33.773399 1.936642 29.000000
-17.443928 34.059113 1.949873 27.000000
-17.463541 34.363033 1.964122 27.000000
-17.477802 34.660286 1.977964 26.000000
-17.495743 34.968678 1.992417 25.000000
-7.545039 -38.671722 2.007683 3.000000
-7.130277 -29.540688 2.078110 29.000000
-6.990068 -29.570038 2.077837 40.500000
-6.502190 -23.366941 2.082776 2.000000
-6.542910 -22.953856 2.049581 60.000000
-6.472926 -22.981970 2.050265 20.000000
-6.201670 -19.212196 2.087687 3.000000
-6.403428 -19.049328 2.078223 35.333336
-6.253071 -19.063644 2.074726 50.500000
-5.990949 -16.256651 2.098140 3.000000
-5.982444 -16.077715 2.077462 4.000000
-5.957513 -15.858104 2.051493 3.000000
-5.950973 -15.690796 2.032258 3.000000
-6.061564 -15.467258 2.011820 11.500000
-5.957835 -15.488363 2.009656 26.500000
-5.973964 -13.871393 2.097073 14.000000
-5.775991 -13.296565 2.012904 3.000000
-14.896182 -12.853501 2.034610 2.000000
-14.807661 -12.858498 2.028027 3.000000
-14.645193 -12.838903 2.014038 2.000000
-14.501090 -12.833992 2.002517 2.000000
-8.354206 -12.507536 2.088454 16.000000
-8.208210 -12.500509 2.076443 17.000000
-8.062885 -12.491864 2.064432 16.333334
-7.878537 -12.484184 2.049762 17.000000
-7.751401 -12.477350 2.039585 17.000000
-7.611557 -12.469598 2.028491 17.666666
-7.444917 -12.459158 2.015288 18.000000
-7.333612 -12.450005 2.006302 19.000000
-7.284462 -12.455883 2.003551 18.000000
-10.174773 -11.010864 2.081669 10.000000
-10.181383 -10.880215 2.069016 12.000000
-12.875979 -10.762171 2.032258 1.000000
-12.644001 -10.772306 2.011579 0.000000
-10.189696 -10.752727 2.056914 13.000000
-10.190616 -10.686255 2.050312 16.000000
-10.192734 -10.588177 2.040685 12.500000
-10.201190 -10.431802 2.025923 13.666667
-10.208410 -10.276384 2.011253 13.500000
-10.309247 -8.477182 2.092001 18.000000
-10.317603 -8.349154 2.080336 18.333334
-10.322582 -8.193396 2.065677 19.000000
-10.330601 -8.068272 2.054528 19.500000
-12.859930 -7.930012 2.097806 1.333333
-10.334147 -7.992899 2.047714 20.000000
-10.341172 -7.895051 2.039249 19.333334
-10.348683 -7.747512 2.026242 20.333334
-10.355591 -7.576480 2.011170 20.500000
-10.454740 -5.878937 2.095502 24.500000
-10.461454 -5.775084 2.087700 30.000000
-10.467305 -5.629082 2.076399 31.500000
-10.475383 -5.485755 2.065901 32.000000
-10.483245 -5.343855 2.055747 33.500000
-14.090634 -5.201106 2.085520 1.000000
-13.944288 -5.196918 2.066266 0.000000
-10.491280 -5.182902 2.044388 34.250000
-10.496044 -5.022171 2.032857 35.750000
-10.505585 -4.865461 2.022703 37.000000
-10.512073 -4.728764 2.013812 38.666668
-10.514342 -4.591483 2.004461 39.000000
-10.707962 -4.067574 2.001191 13.000000
-10.745960 -3.985770 2.002396 47.500000
-12.450644 -3.429479 2.024178 1.000000
9.504991 -2.777671 2.090062 22.200001
9.560227 -2.696263 2.096506 20.000000
-10.628851 -2.340814 2.098023 57.750000
-10.637756 -2.185580 2.093481 57.599998
-10.645447 -2.030747 2.089127 58.250000
-16.417002 -1.922750 2.001721 4.500000
-10.653518 -1.876605 2.085304 60.799999
-10.663708 -1.723332 2.082313 61.500000
-10.668981 -1.586890 2.079284 61.750000
-10.676879 -1.434095 2.076672 64.400002
-10.706396 -1.335451 2.079852 49.000000
-10.740628 -0.185602 2.070767 66.000000
-10.744150 -0.084371 2.071221 66.599998
-10.752753 0.067570 2.072849 66.500000
-10.763446 0.219841 2.075310 65.599998
-10.774023 0.372477 2.078149 63.250000
-10.778820 0.525309 2.080307 62.599998
-10.786625 0.678648 2.083449 60.000000
-10.791932 0.815260 2.086288 60.750000
-10.801585 0.969747 2.090604 56.400002
-16.448967 1.705597 2.002683 1.000000
-11.141929 2.691400 2.002568 0.000000
-11.133419 2.726388 2.002568 0.000000
-11.147871 2.804311 2.008304 0.000000
-11.151446 2.917212 2.013812 0.000000
-11.214425 3.028049 2.029415 0.500000
-11.085300 3.086615 2.010370 21.666666
-10.940172 3.514674 2.007559 40.250000
-10.951183 3.670655 2.017885 37.500000
-10.956276 3.826154 2.027522 40.000000
-10.967002 3.965704 2.037447 34.000000
-10.973454 4.085382 2.045708 36.000000
-10.978314 4.165887 2.051444 34.000000
-10.981275 4.246167 2.056952 33.000000
-10.987424 4.328059 2.063147 34.000000
-10.995028 4.431193 2.071064 33.000000
-11.003289 4.575761 2.081964 29.666666
-11.005820 4.658100 2.087930 19.000000
-12.084856 5.730500 2.096337 0.000000
-11.925795 5.747129 2.074968 0.000000
-11.770706 5.740954 2.052670 0.000000
-11.671043 5.737808 2.038424 0.000000
-11.525805 5.779120 2.020926 2.000000
-11.091548 6.370325 2.004821 23.250000
-11.096654 6.536491 2.018603 21.666666
-11.105659 6.683576 2.031610 21.000000
-11.113994 6.832096 2.044824 21.000000
-11.121624 6.982064 2.058244 20.333334
-11.154277 7.100588 2.072490 0.000000
-12.252138 8.550321 2.074518 2.000000
-11.234421 9.055368 2.003551 15.000000
-11.243618 9.209446 2.018038 16.000000
-11.252190 9.365052 2.032708 14.000000
-11.258263 9.490460 2.044536 15.500000
-11.263235 9.585763 2.053613 15.000000
-11.271985 9.685232 2.063515 14.500000
-11.278160 9.814381 2.075893 14.500000
-11.280939 9.910546 2.084970 14.000000
-11.288910 10.012247 2.095147 13.500000
-12.365567 11.350824 2.032738 2.000000
-12.256605 11.357649 2.023602 2.000000
-12.095251 11.350182 2.008694 3.000000
-12.042340 11.443807 2.011820 3.000000
-11.888774 11.549216 2.007251 5.000000
-12.058907 11.604595 2.026727 3.000000
-11.406097 12.061670 2.010377 13.000000
-11.412745 12.221624 2.025044 13.000000
-11.423214 12.387970 2.040673 12.500000
-11.429373 12.551983 2.055821 12.500000
-11.441957 12.685303 2.068806 13.000000
-11.476262 12.803982 2.082271 0.000000
-13.033732 14.541639 2.019386 3.000000
-12.956226 14.546865 2.014449 3.000000
-12.849382 14.564447 2.008483 4.000000
-11.595515 15.534058 2.004574 12.000000
-11.605034 15.700487 2.018975 13.000000
-11.878274 16.176233 2.075343 0.000000
-11.849443 20.092293 2.003038 17.000000
-11.862779 20.260113 2.016043 12.000000
-11.877189 20.431652 2.029389 19.000000
-11.880675 20.586220 2.041025 13.000000
-11.897167 20.765224 2.055056 22.000000
-11.898869 20.920279 2.066692 12.000000
-11.915377 21.103315 2.081065 20.000000
-11.925017 21.276224 2.094412 13.000000
9.150769 21.443308 2.002012 52.000000
9.233848 21.451057 2.005434 52.000000
9.355556 21.454758 2.009883 53.500000
9.520071 21.462948 2.016214 56.500000
9.654564 21.492413 2.023229 28.000000
-17.513695 35.281094 2.007073 24.000000
-17.529840 35.593979 2.021729 22.000000
-17.549467 35.918068 2.036995 22.000000
-17.567213 36.242641 2.052262 21.000000
-17.586571 36.574863 2.067936 21.000000
-17.605732 36.911171 2.083814 20.000000
-17.621229 37.244354 2.099488 19.000000
-7.120306 -31.063944 2.179355 41.666668
-6.993705 -30.220869 2.121228 2.000000
-6.590292 -24.578140 2.185102 2.000000
-6.638954 -24.151970 2.150879 58.000000
-6.564095 -24.176550 2.151221 24.000000
-6.267492 -20.284594 2.195486 0.000000
-6.259998 -20.036940 2.170799 3.000000
-6.241422 -19.759182 2.142821 4.000000
-6.223585 -19.489321 2.115665 2.000000
-6.036826 -16.869471 2.169793 2.000000
-6.033102 -16.693569 2.149596 4.000000
-6.003833 -16.450716 2.120742 3.000000
-5.855286 -14.333634 2.149884 5.000000
-5.848956 -14.190624 2.131180 3.000000
-5.851588 -14.009352 2.108075 19.000000
-5.941092 -13.975937 2.108625 33.500000
-5.752315 -12.799485 2.199466 6.000000
-5.732142 -12.648173 2.176548 3.000000
-9.563919 -12.577122 2.193894 13.500000
-9.401575 -12.567193 2.179224 13.666667
-9.240721 -12.556671 2.164738 14.000000
-9.115077 -12.550370 2.153735 15.500000
-8.957901 -12.539849 2.139799 15.000000
-8.801800 -12.528281 2.125954 16.000000
-8.653223 -12.524720 2.113760 15.000000
-8.502634 -12.515867 2.100924 16.000000
-5.722574 -12.522277 2.157966 4.000000
-6.519641 -12.412783 2.197608 21.000000
-6.391203 -12.403842 2.187078 20.333334
-6.240847 -12.397639 2.175516 22.000000
-6.090022 -12.387342 2.163541 20.333334
-5.943359 -12.382440 2.152805 22.666666
-5.795095 -12.371107 2.141243 22.666666
-5.708964 -12.389387 2.138146 7.000000
-10.305314 -8.573910 2.101189 13.000000
-13.619343 -7.971262 2.191144 2.000000
-13.458890 -7.962656 2.171340 2.000000
-13.308989 -7.958956 2.153185 2.000000
-13.144196 -7.944671 2.132555 2.500000
-12.989953 -7.935323 2.113576 3.000000
-10.391569 -7.064770 2.195321 23.000000
-14.664906 -5.256576 2.163088 1.000000
-14.383816 -5.206869 2.124029 1.000000
-14.237147 -5.204419 2.104774 2.000000
-14.893451 -4.971722 2.180141 8.000000
-14.899231 -4.869850 2.176474 6.333333
-10.529362 -4.351746 2.196262 40.750000
-10.538362 -4.249232 2.190394 42.000000
-10.538569 -4.134317 2.182255 44.250000
-10.555211 -4.045424 2.179037 26.000000
-13.170486 -3.963889 2.155798 1.000000
-13.181871 -3.877128 2.153631 0.500000
-10.800737 -3.660061 2.198344 0.000000
-10.806997 -3.530223 2.191606 0.000000
-10.813293 -3.363876 2.183012 0.000000
-10.831396 -3.226962 2.178658 0.000000
-10.838467 -3.111982 2.173737 0.000000
-10.818094 -3.032697 2.165787 0.000000
-10.731931 -2.954051 2.145723 2.000000
-10.597134 -2.881166 2.116952 45.000000
9.541424 -2.886178 2.103940 7.000000
-10.604704 -2.776204 2.113166 51.599998
-10.614337 -2.618936 2.107488 53.250000
9.591271 -2.672518 2.101462 1.000000
-10.621545 -2.479554 2.102566 55.250000
-10.884239 -1.270901 2.112409 55.000000
-10.894465 -1.133533 2.111463 54.500000
-10.904862 -0.978999 2.110592 55.599998
-10.914324 -0.824491 2.109948 53.750000
-10.921864 -0.687147 2.109570 55.250000
-10.927896 -0.532544 2.109078 55.400002
-10.936924 -0.378106 2.109570 54.250000
-10.942088 -0.257865 2.109885 52.666668
-11.010549 1.128147 2.133609 51.333332
-11.023523 1.269643 2.139060 51.000000
-11.031002 1.428783 2.144209 50.750000
-11.038424 1.571029 2.149319 51.000000
-11.048861 1.714430 2.155376 50.750000
-11.059366 1.858674 2.161812 50.500000
-11.066524 2.021151 2.168589 49.400002
-13.445477 2.170649 2.134739 1.000000
-11.060122 2.163879 2.172475 36.333332
-10.872187 2.215925 2.138909 41.000000
-13.551791 2.384669 2.156728 2.000000
-13.494692 2.309143 2.145888 2.000000
-10.869963 2.322422 2.142694 47.750000
-10.876307 2.467098 2.149887 44.000000
-11.091509 2.626036 2.197208 40.500000
-10.922671 3.117588 2.189637 44.000000
-10.921322 3.210222 2.194369 42.000000
-11.226683 4.793219 2.132676 9.000000
-11.226409 4.876767 2.138413 19.666666
-11.235604 5.028357 2.150574 40.000000
-11.239322 5.179070 2.162048 46.000000
-11.248213 5.312238 2.173292 45.666668
-11.257296 5.468766 2.186544 45.250000
-11.264429 5.603991 2.198074 45.000000
-12.400152 5.713928 2.140004 0.000000
-12.247749 5.713779 2.118325 0.000000
-11.155452 5.792325 2.196009 9.000000
-11.070452 5.814606 2.184650 22.500000
-11.071308 5.926484 2.193944 25.000000
-11.369821 7.750154 2.156728 0.000000
-11.406444 7.880617 2.173038 1.000000
-11.397349 8.034050 2.185633 12.333333
-11.365029 8.172562 2.194098 21.666666
-11.214902 8.199020 2.177477 15.500000
-11.197125 8.321877 2.186665 18.000000
-11.194154 8.429277 2.196369 16.000000
-11.299465 10.149168 2.108900 13.000000
-11.310211 10.287945 2.122929 13.000000
8.564809 13.178576 2.182342 29.000000
8.521216 13.202089 2.181792 37.000000
-11.658909 13.860027 2.193357 20.000000
-11.525918 13.878107 2.184701 20.000000
-11.514569 13.998222 2.195040 12.000000
-12.066627 16.835867 2.141998 4.666667
-11.928112 16.846605 2.134592 16.000000
-11.784423 16.867407 2.127803 23.000000
-11.674238 16.878614 2.122248 20.000000
-11.681982 17.003756 2.133358 9.000000
-11.691305 17.132391 2.144878 9.000000
-11.696105 17.314255 2.160719 9.000000
-11.712887 17.516333 2.179028 9.000000
-11.715037 17.639217 2.189726 9.000000
1.611405 20.989975 2.176971 1.000000
1.677973 20.992743 2.177794 2.000000
1.546040 21.002871 2.177794 0.000000
1.744904 20.999262 2.179028 3.000000
-11.920124 21.425026 2.105363 15.000000
-11.945230 21.629829 2.121790 18.000000
-11.940441 21.782572 2.133083 13.000000
-11.953846 21.970510 2.147799 14.000000
-11.962410 22.151730 2.161830 7.000000
-11.962422 22.319164 2.174492 3.000000
-17.643307 37.596073 2.116179 18.000000
-17.658272 37.937435 2.132260 17.000000
-17.679655 38.297386 2.149359 15.000000
-17.700613 38.661476 2.166661 14.000000
-17.726044 39.040630 2.184778 14.000000
-7.080283 -31.494560 2.207464 1.000000
-6.100607 -17.747637 2.272705 3.000000
-6.178155 -17.568207 2.255272 41.250000
-5.787834 -13.323827 2.276890 3.000000
-5.772573 -13.175272 2.254592 4.000000
-5.760759 -12.981794 2.226100 3.000000
-10.066333 -12.569357 2.235979 14.000000
-9.860463 -12.593464 2.220850 13.000000
-9.692314 -12.581129 2.205172 14.500000
-7.615217 -12.475611 2.290930 17.666666
-7.446630 -12.462018 2.275445 17.666666
-7.309163 -12.453140 2.263263 18.000000
-7.174974 -12.447347 2.251908 19.000000
-7.015922 -12.440989 2.238694 19.333334
-6.856376 -12.430429 2.225067 19.666666
-6.700159 -12.422611 2.212267 20.000000
-6.596594 -12.416844 2.203802 21.000000
-10.106700 -12.378866 2.218925 11.500000
-10.583231 -12.251986 2.247990 4.666667
-10.134020 -12.215229 2.203797 12.333333
-10.448418 -12.198993 2.230203 4.000000
-10.338142 -12.147276 2.214799 4.000000
-10.275692 -12.189760 2.213699 16.500000
-10.215673 -10.413750 2.286490 13.000000
-10.218239 -10.286278 2.272554 13.000000
-10.225676 -10.133400 2.256450 14.333333
-10.232744 -10.013649 2.244062 14.000000
-10.238657 -9.956657 2.238487 14.000000
-10.627458 -9.806676 2.266567 4.000000
-10.261491 -9.823307 2.226564 15.000000
-10.715605 -9.784691 2.274412 0.000000
-10.475370 -9.747953 2.242823 2.000000
-10.416368 -9.784995 2.240036 19.000000
-10.775954 -9.685678 2.271006 2.500000
-10.610483 -9.417125 2.223622 2.500000
-10.786583 -9.393267 2.241894 3.250000
-10.867466 -9.261251 2.237992 1.200000
-10.339195 -8.048917 2.289173 19.666666
-14.073194 -8.001182 2.247807 2.000000
-13.894521 -7.986384 2.225251 2.500000
-13.736809 -7.982183 2.205997 2.000000
-10.343610 -7.896912 2.273569 19.333334
-10.353431 -7.751071 2.259572 20.000000
-10.361389 -7.580742 2.242993 20.250000
-10.368576 -7.412300 2.226758 23.000000
-10.373433 -7.269030 2.212990 21.666666
-10.385906 -7.156758 2.203582 23.500000
-10.772346 -7.046479 2.248901 1.333333
-10.580677 -7.048423 2.221136 8.500000
-10.473801 -7.048721 2.205647 8.000000
-10.469337 -5.627812 2.291282 31.500000
-10.482639 -5.466297 2.278979 32.500000
-10.483779 -5.321071 2.266360 34.000000
-10.491133 -5.180557 2.255508 34.500000
-10.500485 -5.022045 2.243772 35.750000
-10.503467 -4.882269 2.232794 36.333332
-10.507254 -4.744268 2.222383 38.250000
-15.774390 -4.666595 2.284115 1.000000
-10.519247 -4.591429 2.212540 38.000000
-10.522420 -4.455692 2.202761 40.000000
-10.770348 -4.005463 2.215127 12.333333
-10.703730 -4.063828 2.207051 12.000000
-10.800129 -3.850017 2.210269 0.000000
-10.794231 -3.733624 2.201751 0.000000
9.549942 -2.905165 2.292800 8.500000
9.509013 -2.778831 2.275518 29.600000
9.564141 -2.697367 2.282502 26.000000
9.617634 -2.679864 2.293248 13.000000
-10.638397 -2.325414 2.298391 53.000000
-10.644748 -2.169589 2.292898 53.500000
-18.503555 -2.078775 2.254912 3.000000
-10.649067 -2.031430 2.288148 54.000000
-16.419491 -1.920137 2.295393 4.000000
-10.661261 -1.877974 2.284844 56.200001
-10.664571 -1.723468 2.280094 56.750000
-10.674739 -1.587748 2.277823 58.000000
-10.680274 -1.451636 2.274932 60.000000
-10.730611 -1.338472 2.282366 51.000000
-10.687531 -1.367208 2.274106 56.000000
-10.749539 -0.185756 2.269149 60.000000
-10.749925 -0.084419 2.268984 62.000000
-10.758694 0.067609 2.270801 60.750000
-10.767579 0.219923 2.273114 61.000000
-10.773994 0.372481 2.275345 58.000000
-10.783639 0.525544 2.278731 59.000000
-10.792357 0.679029 2.282366 55.250000
-10.800535 0.815912 2.286083 56.750000
-10.808539 0.970386 2.290461 51.799999
-11.109571 2.685636 2.203265 36.000000
-11.112827 2.779013 2.208187 24.250000
-11.120698 2.929978 2.216894 9.000000
-11.090623 3.071403 2.218408 17.500000
-12.564089 3.349995 2.271734 2.000000
-12.392252 3.366903 2.243509 1.000000
-10.929859 3.362515 2.204401 39.000000
-10.939090 3.516426 2.215001 40.000000
-10.948964 3.672033 2.226169 37.000000
-10.956647 3.828440 2.237336 40.250000
-10.963173 3.966491 2.247432 33.666668
-10.971887 4.106657 2.258347 36.000000
-10.981335 4.228552 2.268379 33.500000
-10.987457 4.310374 2.275193 32.500000
-10.989684 4.411178 2.282765 33.000000
-11.004879 4.558454 2.296204 30.000000
-11.266074 5.671174 2.203582 45.000000
-11.252405 5.753181 2.207942 34.333332
-11.074860 6.063379 2.205876 22.000000
-11.082553 6.204050 2.218956 22.666666
-11.094271 6.348664 2.233183 21.666666
-11.099352 6.514662 2.248500 23.500000
-11.110658 6.686584 2.265538 22.000000
-11.119875 6.835711 2.280453 20.666666
-11.126153 6.984898 2.295139 20.333334
-11.208560 8.495433 2.204421 16.000000
-11.210249 8.608244 2.215364 17.333334
-11.219707 8.756385 2.230745 16.000000
-13.879227 8.896627 2.289066 4.000000
-13.744047 8.901573 2.273663 4.000000
-11.231555 8.908505 2.246953 16.666666
-11.239233 9.059256 2.262644 14.500000
-11.247164 9.212377 2.278748 16.000000
-11.253498 9.366125 2.294852 14.000000
-11.606113 11.137646 2.233503 3.000000
-11.793015 11.246043 2.262660 2.000000
-11.569117 11.207384 2.236529 12.000000
-11.572002 11.351997 2.250832 26.500000
-11.517626 11.477386 2.257709 20.333334
-11.381125 11.484889 2.245056 18.000000
-11.382343 11.594957 2.256058 13.000000
-11.391994 11.751591 2.272562 12.000000
-11.396021 11.904496 2.288241 12.500000
-11.925026 13.878803 2.215959 5.666667
-11.820440 13.874240 2.207303 10.000000
-11.525262 14.192060 2.214036 11.500000
-11.535477 14.342113 2.228943 11.000000
-11.544399 14.492619 2.243851 11.500000
-11.552284 14.643485 2.258759 11.000000
-11.557664 14.745341 2.268857 11.000000
-11.565904 14.900040 2.284246 11.500000
-11.573071 15.055102 2.299635 11.000000
-11.729665 17.782219 2.202892 9.000000
-11.710813 17.875557 2.209887 8.000000
-11.719689 18.012312 2.222230 6.000000
-11.727831 18.149294 2.234574 3.000000
-11.739523 18.293201 2.247740 1.000000
-17.667812 20.026033 2.293244 4.000000
-17.502426 20.028101 2.284004 5.000000
-17.415905 20.055902 2.280924 3.000000
-17.344995 20.101471 2.279897 2.000000
1.846769 21.409904 2.222230 7.000000
1.983828 21.425539 2.225110 16.333334
2.154427 21.433096 2.227579 25.000000
2.302393 21.437717 2.229636 34.666668
2.428510 21.447819 2.232105 42.000000
2.565824 21.453865 2.234368 49.000000
2.737691 21.459974 2.237180 56.666668
2.911047 21.473999 2.240951 60.000000
3.049263 21.478920 2.243420 61.000000
3.189126 21.492790 2.246917 61.500000
3.328058 21.497887 2.249591 59.500000
3.467814 21.506012 2.252677 18.500000
3.643492 21.518602 2.256929 18.666666
3.820128 21.533119 2.261523 19.500000
3.960397 21.536079 2.264404 21.000000
4.101956 21.543995 2.267901 41.000000
4.243783 21.550976 2.271398 61.000000
4.386240 21.558979 2.275101 21.000000
4.529788 21.569933 2.279216 22.500000
4.673648 21.579931 2.283330 23.000000
4.780872 21.582949 2.286005 22.000000
4.854763 21.594995 2.288885 23.000000
4.962267 21.597054 2.291559 34.500000
5.142044 21.600584 2.296154 61.000000
18.336546 26.910627 2.226839 9.000000
18.180460 27.045179 2.228477 30.000000
18.437565 27.242409 2.249490 13.000000
19.015524 27.533714 2.288241 21.000000
18.944733 27.616356 2.290151 8.000000
17.042934 28.944715 2.296974 60.000000
-17.739443 39.398460 2.201673 13.000000
-17.758892 39.775002 2.219586 12.000000
-7.239318 -33.682354 2.355920 2.000000
-7.384887 -32.849503 2.302432 3.000000
-7.280786 -32.868641 2.302159 70.000000
-7.175787 -32.883556 2.301613 16.000000
-6.724571 -26.400785 2.339444 2.000000
-6.827781 -25.952068 2.304367 55.500000
-6.702917 -25.974344 2.303511 38.000000
-6.411821 -21.969425 2.366648 2.000000
-6.380534 -21.609556 2.330029 2.000000
-6.578870 -21.451502 2.320292 36.000000
-6.446815 -21.461090 2.317275 48.000000
-5.993806 -16.099651 2.385338 11.000000
-5.969080 -15.880474 2.355631 3.000000
-5.959901 -15.706066 2.332526 3.000000
-6.065712 -15.469886 2.307220 16.000000
-5.962687 -15.492908 2.305020 24.500000
-5.858544 -14.026031 2.382496 18.000000
-5.972898 -13.959417 2.379864 23.500000
-14.900069 -12.856856 2.383310 1.000000
-14.796639 -12.848927 2.373211 2.000000
-14.655327 -12.847771 2.360227 1.000000
-14.508363 -12.840428 2.346281 1.000000
-14.364806 -12.834507 2.332816 1.000000
-14.215676 -12.822335 2.318390 1.000000
-14.074364 -12.815611 2.305165 1.000000
-11.511297 -12.815990 2.391939 5.000000
-11.354309 -12.802102 2.375986 5.000000
-11.189005 -12.800863 2.360692 4.200000
-11.656866 -12.694520 2.393039 2.000000
-8.657082 -12.530283 2.387142 15.000000
-8.506195 -12.521126 2.372586 15.000000
-8.357496 -12.512462 2.358443 15.666667
-8.211948 -12.506197 2.345023 16.500000
-8.064914 -12.495001 2.330984 16.333334
-7.894007 -12.486946 2.315499 16.666666
-7.754307 -12.482038 2.303214 17.500000
-5.720477 -12.414371 2.388074 4.000000
-5.943786 -12.383310 2.399777 21.333334
-5.797272 -12.375745 2.387615 21.333334
-10.186031 -11.023047 2.352456 8.000000
-10.191088 -10.890567 2.337797 12.000000
-10.197863 -10.727592 2.319938 14.500000
-10.208077 -10.570910 2.303317 12.666667
-10.314864 -8.581865 2.344246 12.666667
-10.317519 -8.456905 2.330707 17.666666
-10.324883 -8.328184 2.317513 19.000000
-10.329743 -8.199084 2.304089 18.666666
-10.673435 -6.380330 2.397092 0.000000
-10.456496 -5.877523 2.312293 25.500000
-10.464477 -5.774351 2.303964 30.333334
-14.109837 -5.208194 2.357411 1.000000
-14.233766 -5.203183 2.375374 1.000000
-13.948992 -5.198670 2.333255 0.000000
-16.601126 -4.741515 2.397257 7.666667
-16.610531 -4.603388 2.393314 7.500000
-10.540960 -4.250279 2.398839 38.000000
-10.544051 -4.136462 2.390578 40.750000
-10.554367 -4.045101 2.385622 19.000000
-10.837524 -3.371442 2.395535 0.000000
-10.807764 -3.362079 2.388926 0.000000
-10.866029 -3.231061 2.392643 0.000000
-10.803873 -3.268054 2.382318 0.000000
-10.844086 -3.132037 2.382318 0.000000
-10.813829 -3.077367 2.373025 0.000000
-10.690143 -2.942549 2.340189 2.000000
-10.601140 -2.882255 2.318712 42.000000
-10.611057 -2.777870 2.315078 49.599998
-10.616635 -2.619506 2.307973 50.500000
-10.628704 -2.481224 2.303637 52.250000
-16.760609 -1.560735 2.337293 6.333333
-16.761856 -1.428153 2.335826 2.000000
-16.773838 -1.296578 2.336010 2.000000
-10.919891 -1.285451 2.320694 1.400000
-16.781361 -1.138150 2.335460 2.000000
-10.949301 -1.139232 2.323462 0.250000
-16.790024 -0.979846 2.335276 2.000000
-10.959784 -0.983969 2.322512 0.000000
-16.798513 -0.821581 2.335276 2.000000
-10.961520 -0.828050 2.320158 0.000000
-16.810419 -0.689859 2.336102 2.000000
-10.969109 -0.690104 2.319745 0.000000
-16.834831 -0.505529 2.338577 2.000000
-10.975630 -0.557915 2.319538 0.000000
-16.832375 -0.452527 2.338027 4.000000
-10.987088 -0.457638 2.320984 0.000000
-16.841635 -0.399836 2.339127 1.000000
-11.000095 -0.345698 2.322842 0.000000
-10.976807 -0.267387 2.317473 13.500000
-10.920538 1.084237 2.316234 1.000000
-11.055433 1.150262 2.345972 0.000000
-11.066735 1.239442 2.350377 0.000000
-11.085728 1.418162 2.358858 0.000000
-11.076820 1.576460 2.361460 0.000000
-11.111237 1.724157 2.373231 0.000000
-11.111861 1.867473 2.378187 0.000000
-11.113090 1.975546 2.382318 0.000000
-11.135724 2.069915 2.390578 0.000000
-11.083049 2.157990 2.383144 16.857143
-10.870106 2.215504 2.341428 44.000000
-16.970057 2.303499 2.377911 8.000000
-10.877543 2.341917 2.348450 44.166664
-10.887401 2.469602 2.356297 40.500000
-10.953468 2.575163 2.374883 0.000000
-10.921615 3.117287 2.397187 40.000000
-13.319929 3.306221 2.397712 2.000000
-13.175732 3.314404 2.373617 1.000000
-13.031615 3.321720 2.349523 2.000000
-12.902847 3.332099 2.328183 2.000000
-12.770331 3.340704 2.306154 2.000000
-11.002290 4.658870 2.303207 13.000000
-11.318111 7.204882 2.344016 0.000000
-11.424798 7.323331 2.370864 0.000000
-11.416848 7.409735 2.377886 0.000000
-11.442982 7.591188 2.399088 0.000000
-11.414964 7.572714 2.393237 0.000000
-11.265026 9.526541 2.312402 14.333333
-11.275831 9.688537 2.330158 14.500000
-11.280327 9.816254 2.343784 14.000000
-11.288090 9.948345 2.358340 13.000000
-11.306209 10.123268 2.378677 13.000000
-11.316072 10.293267 2.397672 14.500000
-12.350163 11.340656 2.328125 2.000000
-12.237034 11.343470 2.316847 2.000000
-12.081757 11.341486 2.300894 2.500000
-12.026718 11.396983 2.300618 3.000000
-11.406725 12.066566 2.305570 12.000000
-11.415850 12.229223 2.322898 12.000000
-11.424707 12.393940 2.340503 12.000000
-11.431687 12.519295 2.353981 12.000000
-11.444275 12.652378 2.368834 12.500000
-12.979548 14.542299 2.360548 2.000000
-12.872011 14.544044 2.352052 2.000000
-12.805280 14.560555 2.348205 3.000000
-12.677833 14.553337 2.337385 2.500000
-11.582508 15.215340 2.315745 11.000000
-11.590823 15.375957 2.331855 11.000000
-11.601973 15.491755 2.343877 11.000000
-11.605391 15.598220 2.354457 9.000000
-11.662549 15.778300 2.376097 18.000000
6.647986 21.278803 2.305343 27.000000
6.753006 21.262379 2.306988 30.000000
6.906735 21.281971 2.313777 47.000000
7.055352 21.283470 2.318715 69.000000
7.170154 21.293385 2.323446 70.000000
7.247266 21.300888 2.326738 69.000000
7.360565 21.304075 2.330853 67.500000
7.511474 21.306187 2.336201 62.500000
7.667426 21.320343 2.342990 61.500000
7.823835 21.333384 2.349779 63.000000
7.979310 21.341572 2.356156 61.000000
8.137331 21.354221 2.363151 63.000000
8.297263 21.369434 2.370557 59.500000
8.455523 21.377926 2.377346 56.500000
8.615694 21.388958 2.384546 55.000000
8.735170 21.394207 2.389689 50.000000
6.636308 21.478252 2.324681 24.000000
8.859491 21.409750 2.396067 49.500000
5.323741 21.609161 2.301434 61.500000
5.470133 21.617718 2.305960 60.000000
5.616861 21.625280 2.310486 60.000000
5.763894 21.631853 2.315012 60.500000
5.912812 21.643185 2.320155 59.500000
6.060475 21.647755 2.324681 57.500000
6.210629 21.658970 2.330029 58.500000
6.361725 21.671057 2.335584 56.500000
6.512067 21.678289 2.340727 51.000000
6.619955 21.666418 2.342784 26.000000
17.915922 28.549358 2.304888 15.000000
17.066717 29.194487 2.312529 78.000000
17.431149 29.183088 2.324536 46.000000
-7.475554 -35.321270 2.468899 58.000000
-7.362116 -35.332855 2.468080 21.000000
-6.829725 -27.910791 2.467436 3.000000
-6.860272 -27.474201 2.431674 34.500000
-6.480623 -23.009300 2.471979 8.000000
-6.546334 -22.965868 2.469510 54.000000
-6.598604 -22.876377 2.462104 2.000000
-6.465176 -22.413803 2.412319 2.000000
-6.240382 -19.541924 2.484298 2.000000
-6.217576 -19.261471 2.451116 2.000000
-6.486099 -19.063692 2.438613 13.000000
-6.384830 -19.060133 2.434285 42.000000
-6.255672 -19.071573 2.430678 44.500000
-6.054131 -16.908527 2.493712 3.000000
-6.039854 -16.703133 2.466206 8.000000
-6.020273 -16.486828 2.437049 3.000000
-5.999394 -16.270813 2.407893 3.000000
-5.855102 -14.333182 2.426783 4.000000
-5.851913 -14.197802 2.406963 3.000000
-5.774815 -13.068540 2.496153 4.000000
-5.761310 -12.927963 2.472748 4.000000
-5.759897 -12.816357 2.454849 9.000000
-11.628411 -12.797400 2.400924 4.333333
-5.739952 -12.665406 2.429378 3.000000
-9.701040 -12.592444 2.491510 14.000000
-9.566708 -12.580805 2.477264 13.500000
-9.404108 -12.570586 2.460643 13.666667
-9.246120 -12.564013 2.445055 14.000000
-9.117065 -12.553118 2.431738 15.000000
-8.963088 -12.547106 2.416873 14.666667
-8.809728 -12.539562 2.402008 15.500000
-5.732218 -12.543381 2.409415 4.000000
-6.988976 -12.438905 2.492712 18.000000
-6.857469 -12.432410 2.480550 19.000000
-6.701962 -12.425971 2.466552 19.000000
-6.549632 -12.422359 2.453472 20.000000
-6.393767 -12.408810 2.438787 20.000000
-6.241094 -12.398131 2.425018 20.666666
-6.093839 -12.395107 2.413086 20.000000
-10.138948 -12.221183 2.488929 12.333333
-10.245268 -12.192541 2.496155 13.000000
-11.808630 -10.714923 2.499252 3.000000
-11.679967 -10.732758 2.486245 1.000000
-10.234451 -9.952568 2.494088 15.000000
-10.263094 -9.824863 2.482213 15.000000
-10.473902 -9.746588 2.499595 3.000000
-10.386648 -9.787882 2.493400 10.000000
-13.742318 -7.985385 2.491200 1.000000
-13.590405 -7.982934 2.470450 0.500000
-10.361737 -7.729157 2.491923 21.500000
-10.367069 -7.557096 2.473058 22.000000
-10.374990 -7.414137 2.458168 23.666666
-10.381133 -7.271719 2.443277 23.333334
-10.390924 -7.133538 2.429649 24.000000
-10.827112 -7.039271 2.489463 0.000000
-10.751827 -7.070650 2.480629 2.666667
-10.588857 -7.051208 2.452363 9.000000
-10.443459 -7.049432 2.428892 15.000000
-10.476816 -5.463200 2.493834 29.000000
-10.484177 -5.342023 2.483508 29.750000
-14.822175 -5.260455 2.465186 2.000000
-14.671654 -5.258995 2.442887 1.000000
-14.476704 -5.240494 2.413157 1.000000
-14.883198 -5.163975 2.469212 8.000000
-10.495205 -5.182566 2.470498 30.500000
-14.897922 -5.025318 2.464360 7.666667
-10.499478 -5.021567 2.456455 32.250000
-16.598955 -4.853874 2.401291 5.000000
-14.900798 -4.870371 2.457134 8.000000
-10.505301 -4.883121 2.445097 32.000000
-14.908367 -4.717781 2.450939 8.000000
-10.511055 -4.745982 2.434152 34.250000
-15.103369 -4.623332 2.475715 1.000000
-14.922669 -4.619338 2.448462 5.000000
-10.519647 -4.591606 2.422587 34.250000
-10.526926 -4.438150 2.411229 36.250000
-10.528532 -4.322365 2.402143 37.000000
-10.774610 -4.013449 2.426759 12.000000
-10.717039 -4.068882 2.419490 11.000000
-10.839364 -3.998854 2.438489 0.000000
-10.797893 -3.830161 2.418168 0.000000
-10.802272 -3.660580 2.407306 0.000000
-10.811202 -3.531583 2.400491 0.000000
-10.836949 -3.464764 2.401317 0.000000
9.515490 -2.894681 2.469322 14.000000
9.504932 -2.777636 2.458527 28.200001
9.556289 -2.678951 2.464021 12.000000
-10.647894 -2.257451 2.500097 50.000000
-10.652811 -2.171229 2.497187 51.750000
-10.662021 -2.033909 2.493157 51.250000
-10.670277 -1.879575 2.488635 53.599998
-10.678249 -1.742910 2.485173 55.666668
-10.687743 -1.675569 2.484874 48.000000
-10.681226 -1.588713 2.480397 56.250000
-10.689441 -1.435782 2.477352 55.799999
-10.777654 -1.344339 2.494724 48.000000
-10.746513 -0.185704 2.468756 59.000000
-10.755476 -0.084463 2.470547 58.799999
-10.761483 0.067617 2.471890 57.500000
-10.773053 0.220042 2.475024 57.599998
-10.781568 0.372759 2.477934 55.750000
-10.790562 0.525886 2.481471 55.799999
-10.798820 0.679429 2.485322 52.750000
-10.810810 0.816689 2.490247 53.250000
-10.818335 0.971246 2.494903 49.799999
-11.120448 2.651318 2.412881 0.000000
-11.160542 2.735143 2.425272 0.000000
-11.111563 2.834370 2.420316 0.000000
-11.169185 2.924008 2.436837 0.000000
-11.169554 3.024198 2.442344 1.333333
-11.075453 3.085940 2.426649 20.333334
-13.901286 3.265636 2.494777 1.000000
-13.741467 3.273682 2.467929 1.000000
-13.597060 3.284452 2.443835 2.000000
-13.448895 3.293409 2.419052 3.000000
-10.922999 3.210720 2.402969 38.250000
-10.933224 3.363555 2.414327 35.000000
-10.939464 3.516546 2.425272 36.750000
-10.952848 3.673349 2.438282 33.750000
-10.958479 3.829077 2.450053 36.000000
-10.964823 3.967084 2.461067 29.333334
-10.972428 4.106848 2.472770 32.750000
-10.978959 4.227637 2.483095 29.500000
-10.989312 4.341042 2.493834 29.250000
-11.594527 5.793460 2.498548 0.000000
-11.442969 5.762723 2.469777 2.000000
-11.312733 5.741757 2.445549 2.000000
-11.213600 5.780223 2.431920 19.666666
-11.072208 5.817994 2.411099 23.500000
-11.072879 5.929820 2.421320 25.666666
-11.079655 6.068508 2.435201 22.666666
-11.088220 6.209768 2.449839 24.333334
-11.093969 6.351067 2.464225 22.333334
-11.104980 6.520582 2.482459 24.250000
-11.107962 6.663817 2.497034 21.500000
-11.447375 7.698119 2.410103 0.000000
-11.402035 7.772113 2.410791 0.000000
-11.451265 7.884975 2.429034 0.000000
-11.438264 7.955724 2.434197 0.000000
-11.622042 8.174181 2.482385 3.000000
-11.472034 8.140701 2.457603 3.000000
-11.364131 8.171915 2.445441 15.333333
-11.217434 8.200880 2.427657 15.000000
-11.200567 8.324430 2.438098 17.333334
-11.208247 8.467549 2.454161 16.500000
-11.219478 8.615330 2.471371 16.666666
-11.224519 8.760132 2.487548 16.000000
-11.231115 8.850717 2.498219 17.000000
-13.154001 8.925979 2.491613 3.000000
8.409008 13.073284 2.436384 34.500000
8.490999 13.020182 2.436384 34.500000
8.605361 13.016001 2.445674 24.500000
8.707179 13.036139 2.457134 0.000000
8.349965 13.162580 2.443197 26.000000
-11.750816 13.281881 2.462355 0.000000
8.341463 13.287127 2.458992 3.000000
-11.838550 16.122135 2.422263 15.000000
-11.846351 16.239449 2.434285 6.000000
-11.895475 16.414846 2.454963 2.000000
-12.043367 16.729298 2.496320 3.000000
-11.814734 16.854292 2.492633 26.000000
-11.676214 16.881472 2.485741 14.000000
-11.686077 17.009716 2.499206 9.000000
9.023174 21.423334 2.403884 48.500000
9.186604 21.433870 2.411496 48.000000
9.308088 21.437826 2.416845 49.000000
9.391352 21.444925 2.420959 46.000000
9.518127 21.458588 2.427543 49.000000
9.654999 21.493380 2.436594 24.000000
-6.643860 -24.169817 2.592122 54.000000
-6.567901 -24.190567 2.592122 11.000000
-6.524567 -23.447359 2.516827 2.000000
-6.279706 -20.100019 2.550180 3.000000
-6.256703 -19.807558 2.515556 2.000000
-6.230006 -17.573494 2.588883 42.000000
-6.138634 -17.578320 2.585308 34.500000
-5.788703 -13.268985 2.529197 3.500000
-10.031731 -12.607047 2.525267 15.000000
-10.113161 -12.546894 2.525886 13.000000
-9.863404 -12.597227 2.507717 13.000000
-8.066502 -12.497468 2.598726 16.666666
-7.897830 -12.493001 2.582204 16.666666
-7.754744 -12.482731 2.567403 17.000000
-7.615766 -12.476501 2.553750 17.666666
-7.449334 -12.466543 2.537228 18.000000
-7.274152 -12.460564 2.520764 17.750000
-7.150060 -12.449359 2.508201 18.000000
-7.072809 -12.450397 2.501661 21.000000
-10.114325 -12.388208 2.506685 11.500000
-10.570484 -12.237309 2.534558 4.666667
-10.444556 -12.194485 2.516595 3.000000
-10.344727 -12.155012 2.501730 6.000000
-10.309040 -12.190470 2.502349 18.000000
-10.202290 -10.732244 2.587023 14.500000
-10.207733 -10.570554 2.567289 12.666667
-10.215078 -10.413156 2.548472 13.500000
-10.220602 -10.288662 2.533671 13.000000
-10.226361 -10.165905 2.519215 15.500000
-10.238015 -10.050382 2.506480 14.000000
-10.707873 -9.777632 2.533327 1.000000
-10.623737 -9.803228 2.525525 3.333333
-10.451861 -9.787522 2.501661 24.000000
-10.835779 -9.647545 2.534704 0.000000
-10.793909 -9.519503 2.514396 2.000000
-10.863906 -9.490555 2.520247 1.000000
-10.322547 -8.585231 2.588143 13.333333
-10.317727 -8.481138 2.574641 19.000000
-10.328506 -8.354972 2.560886 19.666666
-10.337035 -8.201938 2.543724 20.000000
-10.344663 -8.050263 2.526815 20.666666
-14.074621 -8.001993 2.537655 0.000000
-13.911726 -7.996270 2.515047 1.000000
-12.579393 -7.930809 2.598037 2.500000
-12.393205 -7.922665 2.569813 2.000000
-12.256418 -7.916904 2.549160 2.000000
-12.116706 -7.907742 2.527820 1.500000
-10.351372 -7.900004 2.510158 20.666666
-10.456980 -5.877809 2.531832 22.500000
-10.465095 -5.774710 2.522746 27.000000
-10.471039 -5.628715 2.509116 28.000000
-10.478669 -5.527110 2.500442 27.000000
-10.564088 -4.048827 2.598596 17.000000
-10.851645 -3.208228 2.599193 0.000000
-10.821360 -3.273344 2.596805 0.000000
-10.846656 -3.132780 2.593224 0.000000
-10.817311 -3.050801 2.581583 0.000000
-10.636908 -2.903998 2.532631 27.333334
-10.623143 -2.781046 2.522304 47.400002
-10.630030 -2.622817 2.514872 48.500000
-10.635571 -2.482844 2.508604 49.750000
-10.644995 -2.344369 2.503679 51.500000
-18.521053 -2.077468 2.587783 3.000000
-16.426128 -1.920910 2.592161 4.000000
-10.936846 -1.287431 2.529468 1.400000
-10.961764 -1.140567 2.531437 0.250000
-10.961222 -0.984085 2.527856 0.000000
-10.982957 -0.823885 2.529796 0.000000
-10.984661 -0.685320 2.528005 0.000000
-10.992263 -0.535686 2.527856 0.000000
-10.992934 -0.380040 2.526513 0.000000
-10.976784 -0.267358 2.522035 14.000000
-10.959332 1.088089 2.529647 1.000000
-11.070394 1.151837 2.556510 0.000000
-11.070134 1.274974 2.559555 0.000000
-11.076563 1.434641 2.565464 0.000000
-11.101075 1.579939 2.575538 0.000000
-16.431166 1.732782 2.589684 0.000000
-16.358852 1.777143 2.579154 0.000000
-11.089971 1.720840 2.577777 0.000000
-16.269787 1.845043 2.566456 1.000000
-11.098228 1.865217 2.584941 0.000000
-16.196173 1.914078 2.556236 2.000000
-11.114718 2.017935 2.594716 0.000000
-11.074808 2.166719 2.592030 20.000000
-10.879198 2.217360 2.550242 44.000000
-10.885399 2.325706 2.556734 42.750000
-10.893330 2.470948 2.565689 40.000000
-11.005541 2.587406 2.596805 0.000000
-10.994688 4.433224 2.502094 28.500000
-11.005673 4.558776 2.514279 27.000000
-11.002960 4.659154 2.521919 4.000000
-11.116765 6.740511 2.506120 23.000000
-11.125431 6.841796 2.517729 22.000000
-11.128082 6.988826 2.533124 20.333334
-11.277273 7.181652 2.577291 0.000000
-13.900376 8.889609 2.586174 3.000000
-13.735077 8.895750 2.564908 3.000000
-13.603706 8.902014 2.548184 3.000000
-13.469314 8.904947 2.530841 2.500000
-13.308056 8.918992 2.511021 3.000000
-11.235498 8.940361 2.508545 16.000000
-11.240458 9.060234 2.522313 15.000000
-11.250182 9.214844 2.540670 16.000000
-11.258783 9.370537 2.559142 15.000000
-11.267526 9.528660 2.578074 14.666667
-11.276079 9.688742 2.597349 14.500000
-12.083674 11.343283 2.597736 3.000000
-11.782827 11.486279 2.579154 7.500000
-11.613070 11.428078 2.553759 3.000000
-11.514001 11.473756 2.547771 19.333334
-11.385098 11.488898 2.535177 16.000000
-11.387540 11.600245 2.547874 13.000000
-11.391438 11.751020 2.565217 12.000000
-11.402097 11.910852 2.584419 12.000000
-11.911953 13.868455 2.538455 6.666667
-11.793811 13.847878 2.525619 5.000000
-11.653875 13.858959 2.514250 21.333334
-11.520164 13.876105 2.504164 18.000000
-11.517500 14.006762 2.517918 11.500000
-11.526484 14.153025 2.534421 11.000000
-11.532982 14.298174 2.550650 12.000000
-11.543430 14.449852 2.567979 11.000000
-11.551346 14.600438 2.585032 11.500000
-11.995523 16.829479 2.502812 7.000000
-11.695259 17.138186 2.512671 8.000000
-11.703201 17.324753 2.531906 9.000000
-11.714220 17.518326 2.552104 9.000000
-11.722841 17.650969 2.566050 8.000000
-11.730736 17.783840 2.579996 8.000000
-17.566048 23.922035 2.548543 10.000000
-17.584761 24.105890 2.562232 9.000000
-17.595474 24.280411 2.574895 8.000000
-17.586626 24.429371 2.584819 3.000000
15.492419 25.570953 2.567366 6.000000
-17.387068 32.440323 2.516929 10.000000
-17.376890 32.667427 2.530301 25.000000
-17.387831 32.937134 2.546947 25.000000
-17.402784 33.217834 2.564413 26.000000
-17.421684 33.509571 2.582697 25.000000
-7.732858 -38.316185 2.673026 67.000000
-7.608559 -38.320721 2.671661 55.000000
-7.855600 -38.303432 2.673845 17.000000
-7.004103 -30.265800 2.667638 3.000000
-7.136621 -29.566971 2.611855 43.000000
-6.994899 -29.590542 2.610999 37.000000
-6.606251 -24.637661 2.637793 2.000000
-6.118223 -17.788786 2.611989 3.000000
-6.001758 -16.121012 2.696219 9.000000
-5.980074 -15.909724 2.664011 3.000000
-5.969738 -15.731990 2.637377 3.000000
-5.969962 -15.511896 2.605168 20.000000
-6.065907 -15.470385 2.604549 19.500000
-5.865010 -14.229575 2.688907 3.000000
-5.861322 -14.032714 2.656896 16.000000
-5.969084 -13.980755 2.655863 28.666666
-11.361691 -12.810408 2.683831 4.000000
-11.200651 -12.814217 2.667603 3.600000
-5.752955 -12.688208 2.685561 4.000000
-8.965403 -12.550338 2.694643 15.000000
-8.806881 -12.535520 2.676515 15.000000
-8.655913 -12.528606 2.660453 15.333333
-8.508150 -12.524004 2.645193 15.500000
-8.358841 -12.514482 2.629245 16.000000
-5.742160 -12.559338 2.662090 4.000000
-8.210890 -12.504591 2.613526 15.500000
-6.397623 -12.410992 2.691618 21.333334
-5.730614 -12.430661 2.638618 4.000000
-6.245042 -12.400576 2.676475 21.666666
-6.097257 -12.396623 2.663099 21.333334
-5.996409 -12.387610 2.653004 22.000000
-5.921881 -12.382045 2.645811 24.000000
