# This PCD file was generated using the MATLAB® pcwrite function
# from Computer Vision Toolbox®.
# .PCD v.7 - Point Cloud Data file format
VERSION .7
FIELDS x y z intensity
SIZE 4 4 4 4
TYPE F F F F
COUNT 1 1 1 1
WIDTH 1222
HEIGHT 1
VIEWPOINT 0 0 0 1 0 0 0
POINTS 1222
DATA ascii
-6.735700 27.799606 -0.031951 5.000000
-6.420638 27.832975 -0.031906 8.000000
-6.284120 27.839550 -0.031879 8.000000
-6.657634 27.859535 -0.031996 24.000000
-6.560908 27.841377 -0.031951 10.000000
-6.193159 27.843534 -0.031862 26.000000
-6.103092 27.851130 -0.031848 7.000000
-5.968825 27.865860 -0.031833 7.000000
-5.788772 27.879309 -0.031806 7.000000
-5.649773 27.869074 -0.031763 4.000000
-5.518760 27.897316 -0.031766 4.500000
-5.337347 27.900013 -0.031730 1.000000
-5.204730 27.918987 -0.031723 1.000000
-5.022830 27.915707 -0.031683 0.000000
-12.384319 27.973166 -0.034172 3.000000
-4.578558 27.959579 -0.031647 1.000000
-17.882044 28.242914 -0.037339 8.000000
-16.425190 37.417610 -0.045646 20.000000
-16.289989 37.428688 -0.045596 15.000000
-16.153313 37.435604 -0.045543 28.000000
-16.018309 37.445717 -0.045494 28.000000
-15.880297 37.447979 -0.045436 33.000000
-15.748630 37.464493 -0.045395 34.000000
-15.613918 37.473171 -0.045346 34.000000
-15.436528 37.488876 -0.045287 34.333332
-15.211944 37.500053 -0.045203 36.000000
-15.077655 37.506828 -0.045154 45.000000
-14.949377 37.528004 -0.045123 32.000000
-14.813788 37.530132 -0.045069 18.000000
-14.545892 37.540413 -0.044971 18.000000
-14.682707 37.542957 -0.045029 25.000000
-14.417855 37.559784 -0.044940 21.000000
-14.232497 37.546249 -0.044852 19.666666
-14.028276 37.600304 -0.044828 25.000000
-13.894820 37.602921 -0.044779 17.000000
-13.765630 37.616337 -0.044743 29.000000
-13.504685 37.634315 -0.044663 22.000000
-13.371665 37.635094 -0.044613 16.000000
-13.177647 37.650444 -0.044558 16.000000
-12.990288 37.683819 -0.044524 16.000000
-12.855051 37.675228 -0.044466 26.000000
-12.725117 37.681316 -0.044426 19.000000
-12.753740 38.161182 -0.044944 7.000000
-12.782002 38.649189 -0.045471 9.000000
-12.818500 39.171963 -0.046039 8.000000
-0.089405 0.223549 0.014787 1.093750
0.014212 0.235092 0.059621 1.500000
-0.043998 0.275725 0.042815 7.948733
-0.003174 0.442154 0.003665 119.349716
0.042140 0.607493 0.000229 86.023666
0.109878 0.786058 0.005003 1.000000
-5.958745 -10.614153 0.197594 7.000000
-5.946571 -10.476372 0.195549 7.000000
-5.940073 -10.351123 0.193731 7.000000
-5.928527 -10.182255 0.191264 7.000000
-5.921183 -10.024284 0.188992 7.500000
-5.910057 -9.863369 0.186655 7.500000
-5.903358 -9.713261 0.184512 8.000000
-5.895029 -9.563617 0.182370 7.500000
-5.893527 -9.428036 0.180487 9.500000
-5.893079 -9.329138 0.179124 9.000000
-5.890161 -9.259959 0.178150 9.000000
-5.882863 -9.153052 0.176624 10.000000
-5.856181 -8.986908 0.174125 8.000000
-5.836484 -8.834803 0.171885 8.000000
-5.825124 -8.698257 0.169937 7.500000
-5.816259 -8.539326 0.167719 7.666667
-5.806170 -8.382120 0.165522 8.000000
-5.796130 -8.228930 0.163391 8.666667
-5.790408 -8.085035 0.161432 7.000000
-6.082750 -7.901484 0.161870 0.000000
-5.974930 -7.940443 0.161313 0.000000
-5.814113 -7.945572 0.159825 2.625000
-6.155477 -7.816593 0.161508 0.000000
-6.257275 -7.718905 0.161302 0.000000
-6.409871 -7.609231 0.161508 0.000000
-6.490211 -7.511067 0.161140 0.000000
-6.608378 -7.385879 0.160880 0.000000
-6.552769 -7.440508 0.160945 0.000000
-6.804160 -7.299131 0.161984 0.000000
-6.700295 -7.347992 0.161426 0.000000
-6.881425 -7.198514 0.161659 0.000000
-6.957478 -7.119643 0.161594 0.000000
-7.125679 -6.977952 0.161897 0.000000
-7.025898 -7.055382 0.161633 0.000000
-10.095360 -6.868551 0.198211 33.000000
-10.002651 -6.897738 0.197237 14.500000
-9.844383 -6.880254 0.194965 9.000000
-9.703044 -6.872627 0.193017 11.500000
-9.565445 -6.865825 0.191134 9.500000
-7.200699 -6.898060 0.161870 0.000000
-9.421848 -6.852867 0.189122 12.000000
-9.259500 -6.846519 0.186936 9.666667
-9.097242 -6.837811 0.184740 12.000000
-8.969781 -6.830622 0.183019 10.000000
-8.807292 -6.816743 0.180790 11.666667
-8.647633 -6.802518 0.178604 10.000000
-8.523395 -6.791918 0.176916 10.000000
-8.367240 -6.775530 0.174774 9.000000
-8.221097 -6.764859 0.172826 9.000000
-7.222474 -6.789486 0.160913 0.500000
-10.102155 -6.734854 0.197091 26.500000
-8.079778 -6.755616 0.170965 9.000000
-7.913272 -6.744123 0.168779 9.000000
-7.752733 -6.734482 0.166702 9.000000
-7.595088 -6.724183 0.164667 8.666667
-7.447232 -6.719568 0.162828 5.666667
-7.306011 -6.739319 0.161351 2.000000
-10.113914 -6.583176 0.195896 26.333334
-10.125441 -6.433331 0.194738 28.000000
-10.132730 -6.282609 0.193537 27.333334
-10.143829 -6.136154 0.192449 29.750000
-10.158085 -5.971703 0.191281 30.750000
-10.166788 -5.827326 0.190226 30.333334
-10.182198 -5.688369 0.189333 33.750000
-10.195738 -5.528998 0.188278 32.500000
-10.200556 -5.387280 0.187261 30.333334
-10.199248 -5.244040 0.186168 30.750000
-10.203495 -5.085118 0.185064 34.000000
-10.212565 -4.930415 0.184090 39.250000
-10.218458 -4.775875 0.183100 40.000000
-10.233937 -4.627313 0.182321 40.500000
-10.239971 -4.475922 0.181412 43.000000
-10.249354 -4.327438 0.180601 43.500000
-10.261252 -4.181334 0.179870 43.500000
-10.271112 -4.035594 0.179140 42.000000
-10.280804 -3.890988 0.178442 29.750000
-10.300523 -3.732858 0.177851 14.600000
-10.337650 -3.609015 0.177744 7.250000
-10.405508 -3.550434 0.178474 3.000000
-10.370922 -3.484179 0.177598 1.500000
-10.927254 -3.367855 0.185616 1.500000
-10.770047 -3.375126 0.183214 1.000000
-10.658741 -3.395483 0.181591 0.000000
-10.459436 -3.422598 0.178648 0.333333
-10.945971 -3.261080 0.185405 0.000000
-11.177103 -3.082885 0.188213 1.000000
-11.039234 -3.100863 0.186135 0.500000
-10.973392 -3.156962 0.185356 0.000000
5.545708 -3.079100 0.102969 0.000000
-11.173535 -2.994040 0.187780 0.000000
-11.136085 -2.958921 0.187044 0.000000
-11.447225 -2.773605 0.191199 0.000000
-11.372427 -2.793333 0.190096 1.000000
-11.226023 -2.851050 0.188018 0.000000
-11.404318 -2.668608 0.190128 0.000000
-11.611047 -2.506155 0.192822 1.000000
-11.505343 -2.520963 0.191199 0.000000
-11.384251 -2.532169 0.189317 0.000000
-11.571758 -2.421682 0.191914 0.000000
-11.616762 -2.355000 0.192411 0.000000
-11.885639 -2.215748 0.196263 0.000000
-11.662014 -2.249897 0.192801 0.333333
-10.720404 -1.922012 0.176799 45.400002
-12.045835 -1.791615 0.197692 0.000000
-10.685947 -1.836188 0.176007 77.000000
-12.075199 -1.686317 0.197919 0.000000
-10.813575 -1.701097 0.177695 2.000000
-10.725022 -1.756244 0.176419 56.666668
7.376552 -0.309169 0.119849 0.000000
-0.156253 0.353438 0.103278 1.000000
7.281973 1.740184 0.121537 0.000000
9.356014 2.996676 0.159478 2.800000
9.356305 3.094302 0.159971 0.000000
-11.191437 4.505707 0.195841 49.000000
-11.131441 4.563066 0.195290 64.000000
-11.117325 4.651453 0.195627 48.400002
-9.703062 7.396990 0.198060 41.000000
-9.557182 7.405260 0.196263 43.000000
-9.420186 7.418175 0.194640 42.000000
-9.249009 7.425678 0.192541 44.000000
-9.144237 7.436618 0.191329 42.000000
-9.032502 7.440526 0.189966 43.000000
-9.092972 7.442513 0.190745 43.000000
-8.958913 7.451006 0.189154 44.500000
-8.824268 7.456981 0.187542 45.000000
-8.670765 7.468474 0.185767 47.333332
-8.519851 7.479492 0.184036 45.666668
-8.370486 7.489237 0.182327 47.333332
-8.196279 7.520967 0.180578 46.400002
-8.161082 7.679979 0.181915 45.000000
-8.165619 7.805993 0.183376 35.500000
4.530589 9.079017 0.164711 0.000000
-6.371118 -17.297554 0.299232 3.000000
-6.351542 -17.078777 0.295791 4.000000
-6.346115 -16.901482 0.293064 4.000000
-6.331135 -16.701950 0.289948 5.000000
-6.319254 -16.513889 0.287026 3.000000
-6.320665 -16.363375 0.284754 8.000000
-6.299400 -16.157122 0.281508 4.000000
-6.294474 -15.995831 0.279041 4.000000
-6.275315 -15.801274 0.275989 6.000000
-6.272851 -15.651546 0.273717 4.000000
-6.260510 -15.479746 0.271055 9.000000
-6.247153 -15.308178 0.268393 4.000000
-6.244959 -15.166436 0.266251 8.000000
-6.223528 -14.980538 0.263329 4.000000
-6.227273 -14.857633 0.261511 11.000000
-6.210059 -14.686962 0.258850 4.000000
-6.205957 -14.549658 0.256772 9.000000
-6.191566 -14.390485 0.254305 4.000000
-6.188979 -14.260897 0.252357 8.000000
-6.174412 -14.105821 0.249955 4.000000
-6.168625 -13.972930 0.247942 7.000000
-6.153930 -13.821949 0.245605 4.000000
-6.145748 -13.630571 0.242716 5.000000
-6.131101 -13.428621 0.239632 5.000000
-6.126428 -13.307570 0.237814 4.000000
-6.112636 -13.168544 0.235672 5.000000
-6.114982 -13.065962 0.234179 9.000000
-6.099679 -12.927323 0.232036 4.000000
-6.086336 -12.743267 0.229245 7.000000
-6.080249 -12.577597 0.226777 5.000000
-6.074178 -12.464955 0.225089 8.000000
-9.249008 -12.413076 0.251286 1.000000
-9.267763 -12.316616 0.250215 1.000000
-6.062008 -12.292736 0.222492 5.500000
-9.277433 -12.249180 0.249436 1.000000
-9.292478 -12.149751 0.248300 1.000000
-6.057453 -12.138756 0.220220 8.000000
-9.315154 -11.983241 0.246384 1.666667
-6.041647 -12.012476 0.218272 5.000000
-9.340878 -11.861617 0.245086 2.000000
-9.343316 -11.788332 0.244177 2.000000
-6.034637 -11.859129 0.216000 6.000000
-9.357496 -11.692652 0.243106 2.000000
-6.020955 -11.695420 0.213533 6.000000
-9.383779 -11.538659 0.241428 2.666667
-6.013127 -11.546326 0.211326 7.500000
-9.411339 -11.388538 0.239827 2.500000
-6.004155 -11.397537 0.209118 6.000000
-9.433561 -11.234651 0.238139 2.666667
-5.992854 -11.247356 0.206878 7.500000
-9.457973 -11.085654 0.236548 2.500000
-5.983479 -11.061735 0.204152 6.500000
-9.476143 -10.931962 0.234850 2.000000
-5.978981 -10.929890 0.202236 6.000000
-9.497442 -10.784158 0.233270 3.000000
-5.966473 -10.786119 0.200094 6.000000
-9.522228 -10.642681 0.231820 2.000000
-9.552950 -10.476605 0.230153 2.000000
-9.568407 -10.329355 0.228563 2.000000
-9.591166 -10.192249 0.227189 2.333333
-9.614820 -10.026357 0.225501 2.000000
-9.629421 -9.915991 0.224375 2.000000
-9.646611 -9.840525 0.223694 2.000000
-9.712070 -9.722198 0.223077 2.000000
-9.765015 -9.562674 0.221865 0.333333
-9.870009 -9.425334 0.221540 0.000000
-9.766511 -9.444594 0.220545 0.000000
-5.715098 -6.720078 0.296191 10.000000
-5.954919 -6.634362 0.299323 13.000000
-5.815653 -6.624385 0.295967 13.666667
-5.725516 -6.626045 0.294021 15.500000
-15.968430 -5.532714 0.274334 1.000000
-15.952622 -5.387286 0.273327 4.666667
-15.962144 -5.223427 0.272635 7.000000
-15.969050 -5.087179 0.272061 7.500000
14.107599 -4.995763 0.242943 0.000000
-15.977278 -4.951932 0.271531 6.333333
-15.986203 -4.790038 0.270904 8.333333
-15.997342 -4.629523 0.270341 11.666667
-16.004309 -4.468513 0.269735 10.666667
-16.013210 -4.335704 0.269302 10.000000
-16.018362 -4.202368 0.268826 9.666667
-16.035286 -4.045659 0.268458 10.333333
-16.041605 -3.886822 0.267939 9.666667
-16.055450 -3.730324 0.267571 11.666667
-16.063864 -3.573066 0.267138 14.333333
-16.073353 -3.416528 0.266749 8.666667
-16.077522 -3.285635 0.266381 11.500000
-16.077160 -3.206699 0.266121 17.000000
-16.095997 -3.131668 0.266186 17.000000
-16.097780 -3.001009 0.265818 10.666667
13.862068 -2.569182 0.228855 0.000000
-16.133438 -2.512009 0.265050 11.000000
-16.140104 -2.383377 0.264844 11.000000
-16.148645 -2.229328 0.264628 16.666666
-16.155716 -2.075333 0.264411 20.666666
-16.166615 -1.922037 0.264282 29.666666
-16.177383 -1.768866 0.264173 17.666666
-16.205278 -1.617485 0.264368 7.666667
-12.277724 -1.616335 0.201024 0.333333
-16.199884 -1.462906 0.264043 14.666667
-12.293736 -1.500715 0.201046 0.000000
-12.391685 -1.433769 0.202496 0.000000
-16.200945 -1.334798 0.263881 43.500000
-12.464119 -1.343066 0.203502 4.500000
-16.210230 -1.207472 0.263870 78.000000
-12.447176 -1.183094 0.202967 17.000000
-12.570704 -1.095373 0.204833 1.000000
-16.220890 -1.054636 0.263870 57.333332
-12.699548 -1.026261 0.206824 0.000000
-12.839133 -0.875205 0.208902 0.000000
-12.731049 -0.948312 0.207235 0.000000
-14.069915 -0.826047 0.228790 70.000000
-12.921593 -0.799375 0.210157 1.000000
-14.078766 -0.737837 0.228855 63.400002
-13.028120 -0.723905 0.211813 0.000000
-14.082001 -0.582821 0.228790 51.250000
-13.008464 -0.599812 0.211391 0.000000
-13.143002 -0.543897 0.213533 0.500000
-13.065496 -0.479092 0.212235 0.000000
-14.094785 -0.428171 0.228907 35.000000
-13.156197 -0.399661 0.213663 0.000000
-14.245990 -0.343188 0.231322 35.000000
-13.242882 -0.298167 0.215026 0.000000
-14.393108 -0.256263 0.233681 35.666668
-13.464092 -0.239716 0.218597 1.000000
-13.192843 -0.193432 0.214182 0.000000
-14.404216 -0.120671 0.233832 34.000000
-13.297737 -0.111409 0.215870 0.000000
-14.398844 0.024119 0.233737 48.200001
-13.378208 -0.028017 0.217169 0.000000
-13.417871 0.098361 0.217818 0.000000
-14.411573 0.159975 0.233958 35.000000
-14.405693 0.309293 0.233903 42.500000
-14.415786 0.468145 0.234135 35.333332
-14.428050 0.604719 0.234417 36.333332
-14.437232 0.786996 0.234709 33.166664
-14.451975 0.901649 0.235055 41.000000
-14.441599 0.969334 0.234958 47.000000
-14.465754 1.062320 0.235456 42.666668
-14.473701 1.200132 0.235758 51.000000
-14.482149 1.361350 0.236126 52.250000
-14.495520 1.523550 0.236603 62.333332
-14.503032 1.662681 0.236970 59.666668
7.327063 1.726644 0.252747 0.000000
-14.515823 1.802909 0.237447 65.333336
-14.528436 1.966934 0.237993 67.750000
-14.542578 2.131919 0.238593 64.333336
-14.548182 2.273008 0.239026 62.000000
-14.557679 2.415246 0.239546 56.666668
-14.571033 2.558805 0.240152 54.000000
-14.585597 2.703299 0.240801 49.333332
-14.587507 2.822327 0.241190 48.000000
-14.597603 2.895701 0.241580 47.000000
-14.605644 3.016764 0.242099 45.750000
-14.619831 3.187675 0.242900 43.333332
-14.625534 3.333614 0.243506 43.333332
-14.633675 3.480862 0.244177 44.000000
-14.646801 3.630177 0.244956 43.333332
-14.633381 3.749020 0.245216 39.000000
-14.456909 3.776520 0.242554 16.000000
-14.379243 3.804532 0.241450 61.000000
-14.382017 3.902155 0.241905 60.333332
-14.393369 4.051250 0.242727 59.000000
-14.401904 4.200524 0.243528 60.000000
-14.411446 4.351111 0.244372 59.000000
-14.423243 4.503437 0.245281 59.000000
-14.432180 4.655948 0.246168 59.000000
-14.436335 4.782765 0.246871 59.000000
-14.442087 4.860299 0.247358 60.000000
-14.456593 4.966565 0.248137 56.666668
-14.579907 5.111528 0.250799 0.000000
-14.719166 5.316646 0.254045 0.000000
-14.728402 5.636013 0.255993 0.000000
-14.763497 5.756047 0.257226 0.000000
-14.782796 5.870839 0.258200 0.000000
-14.556144 6.190687 0.256772 39.333332
-14.549444 6.314263 0.257465 56.000000
12.027117 6.327716 0.220610 2.750000
12.168093 6.256164 0.222103 1.000000
12.304389 6.253177 0.224051 1.000000
12.451670 6.254308 0.226193 1.000000
-17.248766 6.353150 0.298388 0.000000
-17.051918 6.372000 0.295499 4.000000
11.963000 6.414504 0.220350 3.000000
-17.024599 6.484072 0.295726 6.000000
-14.557489 6.481472 0.258676 56.666668
11.914219 6.485071 0.220199 2.000000
-17.079691 6.597359 0.297219 6.000000
-14.566858 6.623182 0.259759 56.000000
-17.159492 6.690207 0.298972 6.000000
-17.137054 6.774652 0.299135 8.000000
-14.578436 6.767154 0.260906 56.333332
-14.585723 6.910251 0.261998 56.000000
-14.598104 7.000510 0.262810 56.000000
-14.537983 7.056048 0.262323 44.500000
-14.377118 7.061958 0.260018 30.000000
-14.230880 7.073481 0.257973 30.500000
-14.081251 7.082132 0.255863 30.000000
-13.937237 7.092109 0.253850 31.000000
-13.748501 7.105173 0.251221 30.500000
-13.603204 7.111585 0.249176 30.000000
-13.472324 7.124132 0.247391 32.500000
-13.338080 7.133842 0.245540 31.000000
-13.252231 7.141555 0.244372 31.000000
-13.162946 7.146897 0.243138 32.000000
-13.032722 7.155855 0.241353 32.500000
-12.863480 7.168486 0.239048 34.000000
-12.692858 7.178291 0.236711 33.000000
-12.575551 7.190435 0.235153 34.000000
-12.448052 7.195512 0.233400 33.500000
-12.292192 7.208850 0.231322 36.000000
-12.131510 7.217437 0.229147 33.500000
-11.983196 7.231523 0.227199 37.500000
-11.831775 7.241947 0.225187 35.500000
-11.684099 7.252863 0.223239 36.500000
-11.531681 7.259017 0.221194 36.000000
-11.393129 7.272162 0.219409 39.000000
-11.251522 7.281669 0.217558 37.000000
-11.153473 7.293067 0.216325 36.000000
-11.050579 7.300312 0.214994 37.500000
-10.914770 7.309510 0.213241 37.000000
-10.784247 7.320663 0.211585 38.500000
-10.625499 7.335389 0.209594 37.666668
-10.460069 7.343231 0.207463 39.000000
-10.335512 7.353162 0.205905 38.000000
-10.178617 7.362554 0.203924 40.333332
-10.028634 7.374807 0.202074 39.500000
-9.879119 7.385040 0.200224 41.333332
12.698588 8.786363 0.250669 0.000000
12.782161 8.784936 0.251773 0.000000
12.865850 8.783072 0.252877 0.000000
12.621407 11.138925 0.273263 0.000000
12.802071 11.120827 0.275275 0.000000
12.919527 11.116416 0.276671 0.000000
13.098854 11.128233 0.279008 0.000000
12.506036 11.142471 0.271899 0.000000
13.247526 11.147552 0.281053 0.000000
12.491183 11.270786 0.273111 0.000000
-11.790270 11.413660 0.266381 2.000000
-11.759280 11.491441 0.266900 2.000000
-11.670870 11.512955 0.266121 9.500000
-11.537098 11.488872 0.264303 39.000000
-11.486825 11.510902 0.263979 36.000000
-11.347660 11.551462 0.262859 17.500000
-11.320873 11.743665 0.264790 13.500000
-11.324841 11.859053 0.266186 23.000000
12.387039 11.866395 0.278456 1.000000
-11.333371 11.980585 0.267712 14.000000
12.440297 12.030251 0.280924 1.000000
12.444192 12.135290 0.282157 1.000000
-11.341150 12.140690 0.269692 19.000000
-11.363615 12.319016 0.272062 14.000000
-11.368137 12.480349 0.274042 17.000000
-11.370868 12.602066 0.275535 13.000000
-11.387270 12.740506 0.277385 15.000000
-11.920979 13.507490 0.292447 1.000000
-11.929625 13.646315 0.294233 2.000000
-11.934169 13.825940 0.296484 1.666667
-11.824898 13.918686 0.296473 11.500000
-11.661325 13.902367 0.294557 27.000000
-11.514444 13.948233 0.293605 18.333334
-11.481825 14.133523 0.295596 15.500000
-11.480345 14.268467 0.297284 19.000000
-11.495157 14.425656 0.299427 14.500000
-6.708952 -23.002436 0.388956 3.000000
-6.698556 -22.701220 0.384217 6.000000
-6.679471 -22.377304 0.379088 5.000000
-6.661884 -22.065222 0.374154 7.000000
10.808871 -21.860519 0.395870 3.500000
-6.647077 -21.768774 0.369479 7.000000
10.930585 -21.846914 0.396552 1.000000
-3.625414 -21.641516 0.356202 40.500000
-6.626928 -21.461180 0.364610 8.000000
-6.608493 -21.165377 0.359935 3.000000
-6.590675 -20.877537 0.355391 5.000000
-6.569898 -20.586208 0.350781 3.000000
-6.548584 -20.299023 0.346236 6.000000
-6.528008 -20.019787 0.341822 6.000000
-6.519516 -19.782663 0.338121 3.000000
-6.507072 -19.538204 0.334291 3.000000
-6.495708 -19.301603 0.330590 4.000000
-6.482923 -19.065268 0.326889 7.000000
-6.459618 -18.802729 0.322734 7.000000
-6.442600 -18.563198 0.318969 3.000000
-6.433403 -18.350378 0.315658 3.000000
-6.429610 -18.156654 0.312671 11.000000
-6.403112 -17.902880 0.308646 6.000000
-6.391386 -17.694597 0.305400 3.000000
-6.383899 -17.501593 0.302413 3.000000
-5.943841 -10.319977 0.399858 7.000000
-5.936021 -10.195137 0.396100 7.500000
-5.927775 -10.035450 0.391335 8.000000
-5.912646 -9.867685 0.386234 7.500000
-5.909111 -9.722737 0.382006 8.500000
-5.896675 -9.566299 0.377308 7.500000
-5.899470 -9.470523 0.374623 9.000000
-5.888829 -9.387598 0.372073 7.000000
-5.876236 -9.270279 0.368516 8.000000
-5.871673 -9.135654 0.364624 8.000000
-5.856942 -8.988047 0.360194 8.000000
-5.851604 -8.857668 0.356436 10.500000
-5.840277 -8.691453 0.351581 8.000000
-5.834358 -8.536930 0.347174 9.000000
-5.821694 -8.376512 0.342499 8.333333
-5.816607 -8.230394 0.338383 9.000000
-5.804031 -8.077336 0.333953 8.666667
-5.796591 -7.934650 0.329926 9.000000
-5.784000 -7.788325 0.325721 8.666667
-5.773468 -7.622992 0.321067 10.333333
-5.762797 -7.461713 0.316549 9.000000
-5.757505 -7.334971 0.313081 9.500000
-5.746332 -7.203596 0.309390 9.000000
-5.739138 -7.057106 0.305408 10.000000
-9.681524 -6.880300 0.398784 9.000000
-9.569439 -6.868689 0.395496 9.000000
-5.726639 -6.885762 0.300699 9.500000
-9.429092 -6.858148 0.391469 13.000000
-9.264074 -6.849906 0.386838 9.000000
-9.099716 -6.839654 0.382207 12.500000
-8.972276 -6.832514 0.378650 9.000000
-8.814034 -6.821956 0.374221 10.333333
-8.661181 -6.813179 0.369993 9.500000
-8.508018 -6.801474 0.365720 13.000000
-8.360718 -6.792097 0.361671 10.000000
-8.218237 -6.784120 0.357801 11.333333
-8.049939 -6.773750 0.353237 10.000000
-7.915441 -6.767546 0.349658 14.000000
-7.775544 -6.754297 0.345810 10.000000
-7.617747 -6.744254 0.341604 12.000000
-7.462830 -6.733615 0.337488 10.000000
-7.314676 -6.726081 0.333640 11.666667
-7.166368 -6.715444 0.329747 11.000000
-7.021802 -6.705383 0.325989 12.000000
-6.881891 -6.696917 0.322410 11.000000
-6.724256 -6.688944 0.318450 12.750000
-6.565723 -6.676546 0.314401 11.333333
-6.416172 -6.669538 0.310732 12.750000
-6.264798 -6.657256 0.306929 12.000000
-6.119725 -6.647978 0.303383 12.000000
-10.137878 -6.241745 0.399724 28.000000
-10.148863 -6.139193 0.398247 29.250000
-10.160587 -5.973192 0.395730 29.250000
-10.167028 -5.827459 0.393460 29.000000
-10.183907 -5.689337 0.391670 31.000000
-10.193097 -5.527563 0.389321 31.250000
-10.204403 -5.389311 0.387464 31.333334
-10.206411 -5.247700 0.385328 33.000000
-10.220556 -5.093632 0.383415 35.750000
-10.232460 -4.940018 0.381503 37.500000
-10.236688 -4.784386 0.379388 36.000000
-10.246825 -4.633138 0.377576 38.500000
-10.256616 -4.483196 0.375831 41.250000
-10.264263 -4.333745 0.374087 39.500000
-10.274414 -4.186686 0.372509 47.500000
-10.283426 -4.040429 0.370966 46.000000
-10.290386 -3.894620 0.369422 47.750000
-10.305844 -3.734805 0.368046 51.400002
-10.312330 -3.573027 0.366436 52.500000
-10.321329 -3.431476 0.365194 54.750000
-10.333160 -3.291803 0.364120 56.250000
-10.342080 -3.134337 0.362838 56.400002
-10.347174 -2.976814 0.361503 60.750000
-10.356775 -2.839156 0.360563 62.500000
-10.369325 -2.685601 0.359644 63.200001
-10.379500 -2.532191 0.358718 67.750000
-10.383232 -2.395268 0.357778 69.500000
-10.392037 -2.311474 0.357443 73.000000
-10.391438 -2.277100 0.357174 73.000000
-10.396378 -2.209836 0.356861 71.666664
-10.401727 -2.091709 0.356235 78.000000
-10.412926 -1.941226 0.355644 80.400002
-10.420260 -1.790536 0.354993 85.250000
-10.433631 -1.641347 0.354624 86.400002
-10.446250 -1.475578 0.354221 95.400002
-10.456191 -1.326490 0.353886 97.750000
-10.459160 -1.176890 0.353389 114.599998
-10.472605 -1.028689 0.353315 115.250000
-10.480284 -0.880062 0.353121 136.600006
-10.490520 -0.731728 0.353080 133.000000
-10.498581 -0.583283 0.353040 147.399994
-10.511009 -0.435022 0.353215 128.000000
-10.523662 -0.286600 0.353470 128.399994
-10.529099 -0.137811 0.353550 115.500000
-10.539623 0.005532 0.353874 104.750000
-10.550773 0.160225 0.354288 88.250000
-10.563797 0.309865 0.354839 78.800003
-10.577971 0.460007 0.355496 66.250000
-10.585139 0.610353 0.355993 62.799999
-10.585660 0.760661 0.356335 61.750000
-10.589143 0.911563 0.356852 62.400002
-10.598707 1.063521 0.357644 58.000000
-10.606006 1.215938 0.358436 59.400002
-10.612974 1.368995 0.359288 59.250000
-10.619671 1.505762 0.360127 57.750000
-10.631250 1.661051 0.361281 55.799999
-10.643788 1.817500 0.362543 53.000000
-10.651567 1.956873 0.363617 51.500000
-10.659653 2.114594 0.364879 49.000000
-10.673117 2.274519 0.366402 47.250000
-10.682680 2.417295 0.367744 43.750000
-10.695125 2.579521 0.369389 42.000000
-10.688746 2.554353 0.368986 42.333332
-10.701888 2.706060 0.370630 39.000000
-10.716293 2.853439 0.372342 38.750000
9.376807 2.938513 0.329926 1.000000
-10.724826 3.000536 0.373919 34.500000
9.341743 3.024557 0.329685 3.000000
-10.737101 3.149984 0.375697 31.750000
-10.740892 3.285913 0.377129 27.333334
-10.761321 3.465515 0.379590 20.666666
-10.772811 3.606684 0.381435 15.750000
-10.789693 3.776453 0.383818 11.000000
-10.800893 3.920621 0.385798 7.500000
-10.851057 4.074357 0.389165 6.000000
-10.838982 4.147676 0.389657 3.000000
-10.927368 4.240683 0.393549 2.500000
-11.074696 4.357971 0.399589 3.000000
-18.479748 6.806551 0.319683 1.000000
-18.267094 6.793472 0.316372 1.000000
-18.148314 6.814270 0.314684 1.000000
-18.033319 6.835815 0.313061 1.000000
-18.854231 6.877286 0.325786 1.000000
-9.279985 7.355134 0.397576 31.333334
-9.127324 7.375279 0.393997 24.333334
-9.000831 7.414384 0.391536 24.333334
-8.920304 7.442674 0.390059 30.000000
-8.821473 7.454629 0.387778 36.666668
-8.666012 7.464386 0.384019 43.000000
-8.513165 7.473633 0.380350 42.666668
-8.365882 7.485117 0.376905 44.333332
-8.193326 7.518268 0.373362 43.400002
-8.165325 7.683971 0.376458 44.000000
-8.167871 7.808155 0.379388 31.000000
4.441561 9.042375 0.338248 0.000000
-11.503933 14.576962 0.301439 17.000000
12.426794 14.611766 0.311373 1.000000
-11.512369 14.682275 0.302868 14.000000
-11.523947 14.840620 0.305010 16.500000
-11.529519 14.993031 0.307023 13.000000
-11.547125 15.163349 0.309392 15.500000
-11.546637 15.311782 0.311308 14.000000
-11.568023 15.440804 0.313190 19.000000
-11.577261 15.605991 0.315430 14.500000
-11.582984 15.768330 0.317605 18.000000
-11.597048 15.891869 0.319358 14.000000
-11.606121 16.045092 0.321457 12.666667
-12.121604 16.943768 0.338186 1.000000
-12.144773 17.089346 0.340328 1.000000
-12.110137 17.211773 0.341627 5.500000
-11.937899 17.195526 0.339809 19.500000
-11.802497 17.230602 0.339030 26.000000
-11.689734 17.239723 0.338121 20.000000
-11.702536 17.375883 0.340069 14.000000
-11.712528 17.568951 0.342763 16.000000
-11.721088 17.762472 0.345457 14.000000
-11.720039 17.882833 0.347080 19.000000
-11.735795 18.030182 0.349223 12.000000
-11.742063 18.164364 0.351106 17.000000
-11.762729 18.322323 0.353443 15.000000
-11.765306 18.453615 0.355261 16.000000
8.250786 18.531569 0.329291 4.000000
8.192527 18.557398 0.329291 14.000000
8.263369 18.986294 0.336130 49.666668
8.192722 19.041584 0.336498 2.000000
-12.259266 19.362293 0.372011 0.000000
-12.311200 19.580162 0.375452 2.000000
-12.241158 19.605171 0.375192 10.000000
-12.143682 19.585743 0.374089 22.000000
-12.065310 19.596556 0.373569 93.000000
-11.952036 19.618998 0.372920 31.500000
-11.849116 19.658016 0.372595 18.000000
-11.861243 19.818686 0.374933 16.000000
-11.862255 19.962440 0.376945 17.000000
-11.882810 20.140837 0.379607 12.000000
-11.892243 20.302307 0.381944 11.000000
-11.910842 20.481318 0.384606 16.000000
-11.908435 20.626005 0.386619 12.000000
-11.929092 20.812525 0.389411 17.000000
-11.938815 20.981989 0.391878 12.000000
-11.949546 21.155207 0.394410 18.000000
-11.967141 21.342648 0.397201 12.000000
-11.960334 21.488468 0.399214 2.000000
-7.333436 -29.588747 0.494846 16.000000
-7.239492 -29.607756 0.494781 62.000000
-7.141752 -29.610914 0.494457 60.000000
-7.029399 -28.362028 0.474330 1.000000
-6.990831 -27.831661 0.465825 5.000000
-6.992406 -27.472355 0.460177 8.000000
-7.136765 -27.145796 0.455632 52.000000
-7.002774 -27.155924 0.455243 56.000000
-6.878505 -25.670925 0.431416 5.000000
-6.881622 -25.363556 0.426612 51.000000
-6.961265 -25.341814 0.426612 43.000000
-6.808329 -24.483660 0.412523 6.000000
-6.792024 -24.131060 0.406940 5.000000
-6.953077 -23.839447 0.403109 2.000000
-6.830179 -23.835392 0.402493 34.000000
-6.141738 -13.451921 0.496500 5.000000
-6.137159 -13.330879 0.492742 5.000000
-6.121781 -13.188245 0.488178 5.000000
-6.120816 -13.078428 0.484823 10.000000
-6.103552 -12.883274 0.478648 6.500000
-6.098600 -12.717364 0.473548 5.000000
-6.089806 -12.597364 0.469789 5.000000
-6.082065 -12.481140 0.466165 10.000000
-6.066471 -12.301771 0.460528 6.000000
-6.065549 -12.154982 0.456098 12.000000
-6.048803 -11.979971 0.450595 6.000000
-6.039798 -11.823147 0.445763 5.000000
-6.032996 -11.718809 0.442542 6.000000
-6.020691 -11.560843 0.437642 7.000000
-6.008166 -11.361995 0.431535 7.500000
-6.003267 -11.224252 0.427374 6.000000
-5.993258 -11.079821 0.422945 7.000000
-5.989831 -10.949725 0.419052 9.000000
-5.977444 -10.805952 0.414623 6.500000
-5.965959 -10.627003 0.409187 8.000000
-5.953872 -10.489235 0.404958 7.000000
-5.951077 -10.408010 0.402542 9.000000
-5.788497 -7.794374 0.494712 9.666667
-5.777276 -7.628020 0.487587 11.666667
-5.767527 -7.467837 0.480802 10.333333
-5.756922 -7.310619 0.474152 11.000000
-5.749701 -7.161551 0.467978 10.666667
-5.744257 -7.063269 0.463907 14.000000
-5.736885 -6.986734 0.460650 10.000000
-10.102571 -6.873461 0.410260 31.000000
-10.011503 -6.903835 0.408314 14.500000
-9.849970 -6.884151 0.403482 9.000000
-9.748814 -6.882131 0.400663 13.000000
-5.728411 -6.865811 0.455629 11.000000
-10.110271 -6.740262 0.407979 27.000000
-7.022431 -6.705989 0.494779 13.666667
-6.884481 -6.699438 0.489487 13.000000
-6.723571 -6.688272 0.483244 14.500000
-6.564633 -6.675462 0.477070 13.333333
-6.417008 -6.670407 0.471642 15.000000
-6.306686 -6.659815 0.467367 14.000000
-5.719533 -6.725299 0.449861 11.000000
-10.120719 -6.587605 0.405451 26.333334
-6.243815 -6.655926 0.465026 14.000000
-6.120652 -6.648981 0.460497 14.250000
-5.953882 -6.633223 0.454187 14.750000
-5.795730 -6.622598 0.448436 15.500000
-5.712216 -6.631695 0.445994 18.000000
-10.132034 -6.437530 0.403046 27.750000
-10.137188 -6.307401 0.400865 27.000000
-11.116680 4.414878 0.401603 10.000000
-11.129414 4.501105 0.403079 33.666664
-11.113774 4.658181 0.404601 33.000000
-11.151722 4.798106 0.407609 1.250000
-11.278796 4.979288 0.413952 0.666667
-11.258064 5.097479 0.414936 0.333333
-11.388414 5.286386 0.421558 0.666667
-11.350098 5.399253 0.422005 0.000000
-11.514199 5.588542 0.429723 0.500000
-11.462727 5.697721 0.429790 0.750000
-11.599588 5.879714 0.436636 0.000000
-11.584618 5.917949 0.436770 1.000000
-11.513759 5.996284 0.435864 0.500000
-11.642908 6.203712 0.442944 0.000000
-11.603714 6.276721 0.442944 1.000000
-11.577528 6.333258 0.443078 1.000000
-11.627968 6.432302 0.446166 0.000000
-11.738947 6.590394 0.452004 0.000000
-11.855582 6.729434 0.457709 0.000000
-11.882351 6.843697 0.460394 2.000000
-12.099837 7.121658 0.471400 15.000000
-13.028855 7.153721 0.499051 7.500000
-12.857927 7.165399 0.494218 8.000000
-12.689123 7.176175 0.489453 7.000000
-12.552773 7.177411 0.485494 6.000000
-12.443558 7.166927 0.482138 9.000000
-12.060208 7.149447 0.470729 14.000000
-11.964800 7.194778 0.468760 26.333334
-11.811320 7.229439 0.464957 34.500000
-11.677359 7.248682 0.461467 38.500000
-11.528396 7.256953 0.457373 36.500000
-11.389896 7.270103 0.453682 36.500000
-11.215122 7.283040 0.448984 34.666668
-11.042473 7.294963 0.444354 36.000000
-10.910061 7.306356 0.440864 36.000000
-10.777939 7.316384 0.437374 36.500000
-10.642834 7.322774 0.433750 33.500000
-10.485129 7.311742 0.429186 30.000000
-10.327976 7.299036 0.424622 24.000000
-10.194151 7.300943 0.420998 19.000000
-10.052639 7.295569 0.417039 16.500000
-9.943970 7.288552 0.413952 40.000000
-9.883803 7.316284 0.412878 42.000000
-9.733427 7.323900 0.408985 18.666666
-9.556132 7.332567 0.404422 24.666666
-9.414695 7.342302 0.400865 33.000000
-12.421851 22.595175 0.418561 12.333333
-12.294562 22.587339 0.417457 30.000000
-12.215942 22.611774 0.417198 47.000000
-12.086613 22.626734 0.416419 20.500000
-12.069533 22.853214 0.419535 13.000000
-12.075651 23.039806 0.422262 10.000000
-12.091799 23.247940 0.425378 13.000000
-12.110427 23.463511 0.428624 13.000000
-12.120513 23.665194 0.431611 10.000000
-12.131275 23.870728 0.434662 10.000000
-12.149858 24.094423 0.438038 12.000000
-12.163584 24.311310 0.441284 10.000000
-12.177847 24.532101 0.444595 9.000000
-12.187295 24.746052 0.447777 13.000000
-12.207820 24.985449 0.451412 13.000000
-12.219971 25.210829 0.454788 11.000000
-12.239504 25.454546 0.458489 9.000000
-12.247292 25.676971 0.461800 10.000000
-12.265765 25.925009 0.465566 11.000000
-12.286211 26.180651 0.469461 12.000000
-12.301781 26.429426 0.473227 9.000000
-7.300445 26.468027 0.445699 2.000000
-7.160506 26.446115 0.444758 7.500000
-6.984991 26.455788 0.444173 10.000000
-6.884806 26.583305 0.445764 6.000000
-12.329331 26.707602 0.477512 8.000000
-12.331947 26.935297 0.480888 9.000000
-6.912207 27.038784 0.453035 6.000000
6.255061 27.050562 0.450698 30.000000
-12.353081 27.206978 0.485043 8.000000
2.773631 27.211405 0.444011 2.000000
2.905240 27.229813 0.444530 4.000000
3.034838 27.227781 0.444725 5.000000
3.164974 27.229031 0.444985 5.500000
3.341584 27.254261 0.445732 12.000000
3.471743 27.252134 0.445959 17.000000
3.604062 27.265171 0.446446 23.000000
3.781070 27.283585 0.447127 25.000000
3.972071 27.294159 0.447733 39.666668
4.090307 27.303682 0.448166 49.000000
4.223527 27.313711 0.448653 55.500000
4.401728 27.328096 0.449335 59.000000
4.535035 27.334705 0.449789 63.000000
6.226043 27.315746 0.454788 25.000000
4.669534 27.346504 0.450341 62.000000
4.848588 27.357975 0.451023 63.000000
4.983175 27.366339 0.451542 63.000000
5.119072 27.379864 0.452159 64.500000
5.253682 27.384932 0.452646 65.000000
5.345049 27.395769 0.453100 62.000000
5.435759 27.402380 0.453490 62.000000
5.571614 27.409737 0.454042 60.500000
5.754808 27.427032 0.454918 60.000000
5.892377 27.438749 0.455567 58.000000
-12.367716 27.468107 0.489003 9.000000
-6.938769 27.502453 0.460437 5.000000
6.029347 27.445797 0.456152 55.500000
6.166493 27.452238 0.456736 49.000000
-12.382447 27.733252 0.493028 6.000000
-6.868591 27.775532 0.464462 5.000000
-6.691116 27.806479 0.464267 5.500000
-6.560048 27.837727 0.464267 5.000000
-6.417545 27.819584 0.463456 9.500000
-6.281534 27.828096 0.463099 4.000000
-6.188873 27.824266 0.462709 24.000000
-6.008862 27.839148 0.462320 6.000000
-6.102292 27.847477 0.462774 3.000000
-5.920547 27.853973 0.462255 4.000000
-5.828908 27.852865 0.461930 3.000000
-5.696002 27.872147 0.461800 8.500000
-5.516496 27.885807 0.461443 3.500000
-5.382360 27.897787 0.461216 2.000000
-5.247502 27.905121 0.460924 5.500000
-5.068877 27.919827 0.460631 4.000000
-4.890889 27.937344 0.460404 3.000000
-4.754192 27.930540 0.459917 2.000000
-12.387552 27.980469 0.496729 2.000000
-4.621198 27.944708 0.459787 4.500000
-4.446462 27.979118 0.459885 2.000000
-7.451922 -35.239975 0.584700 12.000000
-7.412285 -34.516438 0.573079 13.000000
-7.367324 -33.789600 0.561393 13.000000
-7.329973 -33.118065 0.550615 13.000000
-7.537249 -32.595501 0.543084 62.000000
-7.433031 -32.611217 0.542954 67.000000
-7.324413 -32.607090 0.542500 60.000000
-7.331838 -31.259445 0.521205 37.000000
-7.430933 -31.240150 0.521270 35.000000
-6.333672 -16.551567 0.595022 4.000000
-6.329462 -16.386150 0.589787 7.000000
-6.311204 -16.187399 0.583344 4.000000
-6.304933 -16.022409 0.578109 4.000000
-6.282937 -15.820465 0.571532 6.000000
-6.280555 -15.670771 0.566834 5.000000
-6.263805 -15.487892 0.560929 12.000000
-6.258053 -15.334887 0.556096 5.000000
-6.251398 -15.182073 0.551264 11.000000
-6.234647 -15.007301 0.545627 5.000000
-6.235404 -14.877030 0.541600 10.000000
-6.216721 -14.702718 0.535963 4.000000
-6.214258 -14.569120 0.531802 9.000000
-6.199955 -14.409981 0.526701 4.000000
-6.194266 -14.273079 0.522406 8.000000
-6.186175 -14.132694 0.517976 4.000000
-6.175650 -13.988844 0.513413 9.000000
-6.162656 -13.841549 0.508715 4.000000
-6.152131 -13.644735 0.502540 6.000000
-5.927499 -10.034971 0.593878 8.500000
-5.917544 -9.875878 0.586651 8.500000
-5.915159 -9.732677 0.580341 10.000000
-5.902844 -9.576284 0.573217 9.000000
-5.901483 -9.473754 0.568738 11.000000
-5.888758 -9.387486 0.564667 8.000000
-5.881556 -9.278666 0.559782 9.000000
-5.877087 -9.144083 0.553879 9.500000
-5.863548 -8.998196 0.547263 9.000000
-5.856347 -8.834795 0.540105 9.333333
-5.842257 -8.664844 0.532505 9.500000
-5.839114 -8.543856 0.527315 10.500000
-5.829583 -8.387869 0.520495 9.333333
-5.820416 -8.235779 0.513880 10.000000
-5.805989 -8.080070 0.506993 9.666667
-5.797065 -7.935279 0.500750 10.500000
-9.430260 -6.858993 0.594183 14.000000
-9.269056 -6.853601 0.587398 10.666667
-9.105816 -6.844247 0.580443 13.500000
-8.975238 -6.834762 0.574845 11.000000
-8.821257 -6.827558 0.568399 11.333333
-8.668961 -6.819303 0.562021 11.000000
-8.510098 -6.803147 0.555168 13.333333
-8.397824 -6.800423 0.550622 11.000000
-8.339257 -6.796490 0.548179 11.000000
-8.219397 -6.785088 0.543090 12.333333
-8.053211 -6.776498 0.536305 11.000000
-7.917227 -6.769078 0.530775 14.000000
-7.776887 -6.755453 0.524906 11.333333
-7.619142 -6.745490 0.518528 13.000000
-7.463295 -6.734028 0.512217 12.000000
-7.315196 -6.726559 0.506382 13.666667
-7.165967 -6.715080 0.500411 12.666667
-5.717877 -6.635922 0.599009 14.000000
-10.176901 -5.833127 0.597711 28.000000
-10.184285 -5.689557 0.594437 32.000000
-10.196161 -5.529224 0.591028 31.750000
-10.205622 -5.369503 0.587618 33.250000
-10.211640 -5.230096 0.584616 34.000000
-10.223797 -5.095236 0.582071 36.000000
-10.233056 -4.940304 0.579018 36.500000
-10.237672 -4.824047 0.576677 36.500000
-10.244223 -4.748703 0.575354 38.000000
-10.250237 -4.634677 0.573217 38.250000
-10.256421 -4.483104 0.570367 40.250000
-10.264101 -4.333673 0.567721 39.000000
-10.275203 -4.187019 0.565380 46.500000
-10.285183 -4.041123 0.563090 47.500000
-10.295922 -3.896712 0.560952 45.250000
-10.307304 -3.735334 0.558642 49.200001
-10.316095 -3.574331 0.556321 51.750000
-10.327975 -3.433701 0.554591 54.000000
-10.334148 -3.292126 0.552657 56.000000
-10.349203 -3.109900 0.550647 56.750000
-10.351108 -2.977942 0.548841 60.500000
-10.362674 -2.840754 0.547518 63.500000
-10.372556 -2.686427 0.545981 63.200001
-10.393484 -2.483748 0.544515 67.000000
-10.382811 -2.550271 0.544787 65.666664
-10.394718 -2.363580 0.543192 69.000000
-10.387886 -2.390626 0.543158 69.000000
-10.397288 -2.227118 0.541818 75.000000
-10.406830 -2.092743 0.540902 75.000000
-10.416290 -1.941851 0.539915 82.800003
-10.427385 -1.791771 0.539121 84.250000
-10.436246 -1.641746 0.538327 87.400002
-10.448877 -1.475951 0.537716 93.000000
-10.456451 -1.326536 0.537085 98.750000
-10.465785 -1.177638 0.536658 103.599998
-10.471885 -1.028633 0.536169 105.750000
-10.482952 -0.880288 0.536047 114.800003
-10.493792 -0.731946 0.536017 115.750000
-10.502851 -0.583530 0.536006 116.800003
-10.514281 -0.435163 0.536220 112.500000
-10.520741 -0.286513 0.536291 112.000000
-10.535363 -0.137908 0.536882 108.000000
-10.542219 0.005533 0.537187 103.666672
-10.553024 0.160262 0.537798 95.750000
-10.559249 0.309719 0.538286 92.599998
-10.569221 0.459628 0.539070 85.000000
-10.578976 0.610000 0.539955 83.599998
-10.592843 0.761175 0.541156 79.000000
-10.598893 0.912408 0.542072 78.000000
-10.611806 1.064843 0.543446 72.500000
-10.622839 1.217868 0.544841 70.199997
-10.628965 1.371064 0.546093 66.500000
-10.640563 1.508719 0.547619 64.750000
-10.655605 1.690610 0.549757 62.000000
-10.662569 1.820699 0.551182 60.250000
-10.670279 1.960325 0.552810 58.750000
-10.680838 2.118794 0.554856 55.799999
-10.694275 2.314145 0.557543 54.500000
-10.689056 2.242803 0.556525 53.500000
-10.700179 2.421241 0.559019 51.250000
-10.707758 2.564814 0.561054 48.750000
-10.721155 2.710928 0.563497 47.500000
-10.730637 2.857257 0.565838 46.000000
9.428719 2.922282 0.502989 0.000000
-10.740050 3.004786 0.568280 43.500000
9.354247 2.996131 0.500506 3.400000
-10.749354 3.153583 0.570825 41.250000
-10.765209 3.305693 0.573827 40.500000
-10.774169 3.457192 0.576575 39.000000
-10.782911 3.610054 0.579425 38.000000
-10.793269 3.765019 0.582479 36.750000
-10.804246 3.921822 0.585685 35.750000
-10.816719 4.080893 0.589094 35.250000
-10.822101 4.219401 0.591876 35.000000
-10.831833 4.361027 0.594997 32.500000
-14.453912 4.513000 0.508402 1.333333
-10.838314 4.482743 0.597643 32.000000
-14.472301 4.618700 0.510057 0.000000
-10.844913 4.565475 0.599577 31.000000
-14.475009 4.820851 0.512249 0.666667
-14.489422 4.977848 0.514397 0.333333
-14.554413 6.207983 0.531265 2.000000
-14.556611 6.317378 0.532786 5.000000
-14.569334 6.459295 0.535090 4.000000
-14.574552 6.599113 0.537171 8.666667
-14.583029 6.769272 0.539810 12.000000
-14.595688 6.914968 0.542271 5.500000
-14.606223 7.004404 0.543882 5.000000
-14.524517 7.049513 0.542070 2.500000
-14.374503 7.060674 0.537708 2.000000
-14.228319 7.072207 0.533479 2.500000
-14.071603 7.077280 0.528849 3.000000
-13.931217 7.089060 0.524822 3.500000
-13.742567 7.102113 0.519386 8.000000
-13.597335 7.108516 0.515158 10.000000
-13.466511 7.121058 0.511466 10.000000
-13.285896 7.132728 0.506299 10.000000
-13.157267 7.143814 0.502675 9.000000
-8.608903 7.228847 0.572810 36.000000
-8.505901 7.280218 0.570503 60.333332
-9.134645 7.428713 0.599950 40.666668
-8.970950 7.437124 0.593776 41.666668
-8.612020 7.465227 0.580748 43.000000
-8.505921 7.467280 0.576745 40.333332
-8.361740 7.481400 0.571724 43.666668
-8.193784 7.518712 0.566662 42.799999
-8.169041 7.687462 0.571588 42.333332
-8.169351 7.801366 0.575592 32.666668
-11.808140 11.431004 0.551801 2.000000
-11.754716 11.523083 0.552674 6.000000
-11.616445 11.495435 0.548714 13.000000
-11.534953 11.486736 0.546566 26.000000
-11.490339 11.514425 0.546164 29.000000
-11.344837 11.548645 0.543546 17.750000
-11.325701 11.748669 0.547909 15.000000
-11.330998 11.865499 0.550862 21.000000
-11.336723 11.984129 0.553882 15.000000
-11.355360 12.155901 0.558512 19.500000
-11.364130 12.319582 0.562741 15.000000
-11.376688 12.489746 0.567237 22.000000
-11.371317 12.602565 0.569922 15.000000
-11.385021 12.737989 0.573613 20.000000
-11.390720 12.906700 0.577975 13.500000
-11.407898 13.091032 0.583009 15.000000
-11.417969 13.227850 0.586700 14.000000
-11.426895 13.365088 0.590391 14.000000
-11.429726 13.496563 0.593814 14.000000
-11.441324 13.596637 0.596632 13.000000
-11.447272 13.690790 0.599183 14.000000
-17.907515 28.283140 0.543409 10.000000
-17.903719 28.474699 0.546006 6.000000
-7.687095 -39.399822 0.651636 3.000000
-7.771927 -39.179325 0.648390 34.000000
-6.487848 -19.079752 0.676631 3.000000
-6.468521 -18.828646 0.668443 5.000000
-6.454238 -18.596731 0.660927 4.000000
-6.560552 -18.434336 0.656967 43.000000
-6.467661 -18.448093 0.656363 45.000000
-6.406283 -17.735842 0.633142 3.000000
-6.398954 -17.542868 0.626967 5.000000
-6.415155 -17.249977 0.617930 32.000000
-6.406340 -16.900345 0.606834 27.000000
-6.063313 -12.198507 0.694130 12.500000
-6.056076 -11.994368 0.684664 7.000000
-6.053544 -11.850057 0.678049 9.000000
-6.033134 -11.674137 0.669601 8.500000
-6.027999 -11.530502 0.662985 8.000000
-6.014961 -11.374859 0.655657 7.500000
-6.010171 -11.237162 0.649347 7.000000
-5.995514 -11.084000 0.642121 8.000000
-5.993110 -10.955718 0.636319 10.000000
-5.978864 -10.808519 0.629398 7.500000
-5.971370 -10.636627 0.621562 8.500000
-5.956017 -10.454851 0.613114 8.500000
-5.951447 -10.333182 0.607618 7.000000
-5.938704 -10.199750 0.601409 8.000000
-5.834813 -8.364069 0.697388 8.000000
-5.831944 -8.249046 0.690839 8.000000
-5.816914 -8.092291 0.681515 7.666667
-5.806396 -7.919109 0.671508 8.666667
-5.798924 -7.779912 0.663549 8.000000
-5.787889 -7.639255 0.655408 10.000000
-5.775051 -7.474889 0.645947 8.000000
-5.767865 -7.321906 0.637396 9.000000
-5.758325 -7.169722 0.628846 8.333333
-5.748944 -7.021482 0.620568 9.666667
-10.012386 -6.904448 0.619730 15.000000
-9.862396 -6.892836 0.613114 11.000000
-9.711311 -6.878475 0.606396 11.500000
-9.577027 -6.874139 0.600697 11.000000
-5.747182 -6.929893 0.615656 8.000000
-10.109768 -6.855175 0.622410 29.666666
-5.737473 -6.852259 0.611153 9.000000
-10.119580 -6.723480 0.619085 26.333334
-7.633343 -6.755692 0.697070 11.000000
-7.479458 -6.746244 0.688792 9.333333
-7.328377 -6.736325 0.680696 10.666667
-7.179142 -6.725056 0.672691 10.333333
-7.034611 -6.715268 0.665050 11.666667
-6.871830 -6.705750 0.656590 10.500000
-6.714782 -6.698295 0.648585 13.000000
-6.576723 -6.685421 0.641308 11.000000
-6.426742 -6.678197 0.633803 11.750000
-6.297722 -6.668933 0.627254 11.000000
-6.154951 -6.663054 0.620295 11.000000
-5.727708 -6.732537 0.604467 9.000000
-10.127807 -6.592223 0.615760 26.333334
-6.229409 -6.659221 0.623570 11.000000
-6.122128 -6.655222 0.618385 11.666667
-5.964213 -6.642380 0.610471 12.000000
-5.805361 -6.631225 0.602693 13.000000
-10.138095 -6.441381 0.612045 27.000000
-10.152819 -6.273053 0.608127 28.500000
-10.160217 -6.124243 0.604497 28.000000
-10.169494 -5.978436 0.601104 29.500000
9.364550 2.932878 0.671054 1.000000
9.419462 2.917612 0.674328 0.000000
9.346849 3.008207 0.671463 3.000000
-10.852108 4.669216 0.601986 32.333332
-10.859111 4.814442 0.605277 29.750000
-10.873997 4.964793 0.609111 29.666666
-10.884393 5.114923 0.612809 28.750000
-10.891674 5.265293 0.616439 28.333334
-10.903427 5.419721 0.620442 27.750000
-10.910817 5.573791 0.624309 27.000000
-10.921526 5.709686 0.627973 26.333334
-10.930187 5.868185 0.632146 26.250000
-10.940274 6.029451 0.636523 25.666666
-10.952568 6.171515 0.640594 26.000000
-10.963146 6.314349 0.644665 25.000000
-10.970856 6.457244 0.648669 25.000000
-10.982549 6.604267 0.653011 24.666666
-10.984896 6.723674 0.656268 25.000000
-10.993885 6.800569 0.658711 25.000000
-10.998247 6.899261 0.661560 23.666666
-11.008983 7.051451 0.666174 24.333334
-11.014526 7.227028 0.671280 27.750000
-10.898745 7.298779 0.668380 32.500000
-10.773344 7.313265 0.663494 36.000000
-10.610938 7.325336 0.657014 36.000000
-10.447888 7.334688 0.650467 37.500000
-10.325106 7.345763 0.645683 36.500000
-10.170006 7.356325 0.639576 38.333332
-10.023392 7.370961 0.633978 38.000000
-9.866552 7.375646 0.627702 39.000000
-9.720310 7.386094 0.622070 38.000000
-9.579817 7.398658 0.616778 40.000000
-9.406087 7.407061 0.610061 39.333332
-9.271187 7.419620 0.605073 41.000000
-11.455238 13.832354 0.603008 13.000000
-11.469854 13.983525 0.607236 18.000000
-11.473856 14.078365 0.609787 16.000000
-11.488939 14.233394 0.614149 19.000000
-11.502655 14.435064 0.619719 16.000000
-11.508876 14.583225 0.623746 19.000000
-11.519736 14.691671 0.626833 16.000000
-11.534908 14.854744 0.631464 17.500000
-11.541604 15.008746 0.635692 15.000000
-11.555471 15.174293 0.640390 17.500000
-11.556097 15.324327 0.644417 15.000000
-11.572618 15.446939 0.648041 19.000000
-11.581799 15.612097 0.652672 15.500000
-11.587454 15.774414 0.657168 19.000000
-11.599113 15.894699 0.660658 16.000000
-11.612989 16.072332 0.665759 14.500000
-11.616273 16.237410 0.670322 9.000000
-11.627735 16.361805 0.673946 17.000000
-11.633911 16.479906 0.677302 9.000000
-11.647653 16.665638 0.682671 11.000000
-11.660053 16.851818 0.688040 9.000000
-11.668195 16.977322 0.691664 16.000000
-11.680162 17.109648 0.695557 9.000000
-11.695909 17.248829 0.699718 13.000000
8.189188 19.033367 0.695691 3.000000
8.259277 18.976877 0.694886 46.666668
-16.568007 37.423100 0.664361 4.000000
-16.434288 37.438339 0.663712 22.000000
-16.302216 37.456783 0.663128 19.000000
-16.155949 37.441711 0.661959 23.000000
-16.019354 37.448162 0.661180 22.000000
-15.884461 37.457798 0.660466 22.000000
-15.754313 37.478016 0.659946 24.000000
-15.618026 37.483028 0.659167 22.000000
-15.441613 37.501217 0.658345 23.333334
-15.221975 37.524784 0.657349 24.000000
-15.080153 37.513039 0.656311 24.000000
-14.947416 37.523079 0.655661 21.000000
-14.825062 37.558693 0.655467 19.000000
-14.682238 37.541756 0.654363 24.000000
-14.561324 37.580242 0.654233 20.000000
-14.420264 37.566059 0.653194 22.000000
-14.296480 37.596230 0.652935 18.000000
-14.162798 37.599785 0.652220 20.000000
-14.033426 37.614109 0.651701 20.000000
-13.904089 37.628002 0.651182 21.000000
-13.762449 37.607643 0.650078 23.000000
-13.504266 37.633144 0.649039 25.000000
-13.644222 37.650700 0.650078 20.000000
-13.341184 37.674248 0.648780 19.000000
-13.124001 37.686985 0.647806 19.000000
-12.992495 37.690220 0.647156 15.000000
-12.849490 37.658928 0.645923 20.000000
-12.726007 37.683956 0.645663 7.000000
-12.771083 38.213078 0.654038 5.000000
-12.794139 38.685890 0.661440 7.000000
-12.826769 39.197235 0.669490 5.000000
-6.690009 -22.672253 0.793676 1.000000
-6.688023 -22.405954 0.785085 3.000000
-6.669409 -22.090147 0.774750 4.000000
-6.717614 -21.754887 0.764459 30.333334
-3.594793 -21.667448 0.737435 1.000000
-3.684185 -21.644291 0.737167 38.666668
-6.601069 -20.910463 0.736227 4.000000
-6.580433 -20.619219 0.726697 3.000000
-6.575122 -20.272337 0.715556 27.000000
-6.834602 -20.238384 0.717212 14.000000
-6.708688 -20.249586 0.716227 52.000000
-6.200858 -14.288270 0.793669 10.000000
-6.189651 -14.140635 0.786545 5.000000
-6.175977 -13.930556 0.776468 8.000000
-6.160652 -13.720883 0.766392 6.000000
-6.157591 -13.599564 0.760693 5.000000
-6.147192 -13.463864 0.754179 5.000000
-6.243330 -13.340152 0.750515 34.666668
