# This PCD file was generated using the MATLAB® pcwrite function
# from Computer Vision Toolbox®.
# .PCD v.7 - Point Cloud Data file format
VERSION .7
FIELDS x y z intensity
SIZE 4 4 4 4
TYPE F F F F
COUNT 1 1 1 1
WIDTH 1218
HEIGHT 1
VIEWPOINT 0 0 0 1 0 0 0
POINTS 1218
DATA ascii
-9.712801 13.621798 -0.018688 19.500000
-9.612721 13.616808 -0.018618 21.000000
-9.603399 13.740648 -0.018726 15.500000
4.718961 13.736002 -0.016223 0.000000
-9.583863 13.897858 -0.018857 19.500000
-9.558220 14.048753 -0.018980 15.500000
4.745174 14.027094 -0.016541 0.000000
-9.536636 14.208168 -0.019114 17.000000
4.877516 14.197526 -0.016769 0.000000
5.665056 14.135022 -0.017010 0.000000
4.735909 14.220093 -0.016742 0.000000
-9.516748 14.372858 -0.019255 14.000000
5.741610 14.326187 -0.017240 0.000000
-9.507063 14.506198 -0.019373 17.000000
5.691843 14.464390 -0.017363 0.000000
-9.485441 14.572871 -0.019423 16.000000
-9.476532 14.659704 -0.019499 14.000000
-9.463333 14.791815 -0.019615 15.500000
-9.439578 14.960926 -0.019760 13.500000
-9.425169 15.095145 -0.019878 15.000000
-9.406439 15.224472 -0.019990 16.500000
-9.382382 15.401131 -0.020144 17.000000
-9.366551 15.539371 -0.020267 15.000000
4.762551 15.597073 -0.018216 1.000000
4.865232 15.582055 -0.018234 1.333333
5.000278 15.583395 -0.018281 0.500000
5.071806 15.553974 -0.018274 0.000000
-9.349499 15.677824 -0.020390 17.000000
4.718152 15.627274 -0.018234 1.000000
-9.320742 15.855227 -0.020544 14.500000
4.583450 15.900565 -0.018484 0.000000
-9.306314 16.002695 -0.020678 18.000000
4.557583 15.999519 -0.018583 0.000000
-9.283998 16.080349 -0.020741 17.000000
-4.405579 16.170595 -0.018721 45.000000
-4.294317 16.161814 -0.018679 61.666668
-4.154622 16.146011 -0.018623 64.500000
-4.057920 16.191206 -0.018645 59.000000
4.547395 16.156223 -0.018748 1.000000
-4.535063 16.242764 -0.018837 1.000000
-4.476563 16.229940 -0.018806 39.000000
-3.922557 16.245068 -0.018667 27.500000
4.556628 16.386240 -0.018998 2.000000
-9.376073 17.225544 -0.021907 0.000000
-9.253198 17.256998 -0.021873 29.333334
-9.122235 17.338682 -0.021884 15.500000
-9.097782 17.559017 -0.022090 12.000000
-9.069059 17.776182 -0.022291 13.000000
-10.249863 17.882795 -0.023024 2.000000
-10.144783 17.894321 -0.022977 2.000000
-9.046500 17.940145 -0.022443 10.000000
-9.031263 18.050753 -0.022546 9.000000
-9.008959 18.220413 -0.022704 13.000000
-8.994198 18.408205 -0.022885 10.000000
-8.969466 18.504763 -0.022970 9.000000
-8.943422 18.674904 -0.023129 13.500000
-9.149849 19.984995 -0.024552 7.000000
-9.052286 19.937159 -0.024458 12.000000
-8.942698 19.944889 -0.024416 23.000000
-8.823503 19.930147 -0.024346 19.000000
-8.770498 19.979744 -0.024373 15.000000
-8.746928 20.184189 -0.024572 10.500000
-8.721814 20.388830 -0.024771 9.000000
-8.707694 20.533970 -0.024914 12.000000
-8.684998 20.660784 -0.025034 9.000000
-8.669271 20.806122 -0.025177 10.000000
-8.716857 21.106840 -0.025508 0.000000
4.977758 23.003548 -0.026290 49.000000
4.578778 23.082226 -0.026285 52.000000
4.683509 23.040764 -0.026263 68.000000
4.830655 23.022625 -0.026277 73.500000
4.516198 23.147533 -0.026344 17.000000
-8.767253 23.275543 -0.027782 3.000000
-8.668924 23.235512 -0.027702 11.000000
-8.542065 23.229149 -0.027646 32.500000
-8.391601 23.232195 -0.027592 15.666667
4.459282 23.244104 -0.026437 2.000000
-8.928231 23.368454 -0.027943 0.000000
4.410699 23.387711 -0.026585 1.000000
-9.349466 23.470329 -0.028220 0.000000
-9.247787 23.428892 -0.028135 1.000000
-9.117706 23.421852 -0.028075 0.000000
-8.317617 23.410271 -0.027751 8.000000
-8.291808 23.572130 -0.027912 7.000000
4.370734 23.582373 -0.026790 5.000000
-11.206745 23.686657 -0.029270 3.000000
-11.063692 23.672117 -0.029187 3.000000
-10.917626 23.649588 -0.029096 3.000000
-8.272967 23.756718 -0.028100 6.000000
4.325290 23.753399 -0.026969 2.000000
-8.249125 23.930077 -0.028274 5.000000
-8.228163 24.114870 -0.028461 8.000000
-8.458117 25.308008 -0.029806 3.000000
-8.323765 25.301952 -0.029753 18.000000
-8.192119 25.302876 -0.029708 20.000000
-8.105270 25.305630 -0.029681 16.000000
-8.052303 25.414862 -0.029779 3.000000
-8.029841 25.623245 -0.029994 3.000000
-8.007320 25.835562 -0.030213 3.000000
-7.981212 26.040335 -0.030423 3.000000
-7.952736 26.241369 -0.030628 4.000000
-7.929952 26.465473 -0.030861 3.000000
4.412093 -0.491777 0.072065 0.000000
-0.039033 0.269395 0.044179 7.392449
0.003576 0.414613 0.014707 98.468163
9.183001 -6.045880 0.178474 6.000000
9.168242 -5.913029 0.177098 28.000000
9.275036 -5.858905 0.178085 3.000000
-11.860164 -3.391932 0.200245 28.666666
-5.611804 -3.193123 0.160823 38.291668
-12.022545 -2.773451 0.200289 1.250000
-11.996843 -2.609216 0.199299 1.500000
-11.984045 -2.468717 0.198622 1.666667
-11.962298 -2.346945 0.197887 2.000000
-11.699459 -2.153948 0.193110 32.857143
-11.675252 -2.006213 0.192303 30.500000
8.622504 -1.932777 0.143444 26.000000
-11.660039 -1.853079 0.191654 38.000000
-11.637885 -1.699893 0.190923 31.500000
-11.618683 -1.548242 0.190274 38.000000
-11.598507 -1.397444 0.189641 34.750000
-11.583397 -1.284958 0.189187 50.000000
-11.573341 -1.210283 0.188895 39.000000
-11.558294 -1.098722 0.188473 36.500000
-11.541295 -0.950918 0.187986 46.750000
-11.522409 -0.803729 0.187499 39.500000
-11.507572 -0.693769 0.187142 51.500000
-11.681437 -0.630581 0.189901 38.000000
-11.719766 -0.521944 0.190437 7.750000
-11.703412 -0.373958 0.190079 8.750000
-11.686195 -0.226433 0.189739 9.500000
-11.664121 -0.079424 0.189349 11.500000
-11.644438 0.085343 0.189031 18.200001
-11.618720 0.249442 0.188651 21.750000
-11.600678 0.394942 0.188424 22.500000
-11.344107 0.528986 0.184350 66.750000
-11.319883 0.688367 0.184097 59.000000
-11.294703 0.847277 0.183863 76.000000
-11.284736 0.971419 0.183863 57.666668
-11.274465 1.041933 0.183798 63.000000
-11.259897 1.129829 0.183701 92.750000
-11.238385 1.288406 0.183629 79.599998
-11.218494 1.447082 0.183620 89.500000
-11.200417 1.588066 0.183636 76.000000
-11.178589 1.728535 0.183620 95.250000
-11.159890 1.887580 0.183733 63.200001
-11.364929 2.106364 0.187629 53.000000
-11.144464 2.011240 0.183831 94.000000
-11.372808 2.200396 0.188040 26.666666
-11.357325 2.345783 0.188256 22.833334
-11.331520 2.501782 0.188375 23.833334
-11.316554 2.635526 0.188619 19.500000
-11.303900 2.782792 0.188976 15.750000
-11.285946 2.891439 0.189122 19.000000
-11.277225 2.964840 0.189284 17.500000
-11.270555 3.076998 0.189652 13.000000
-11.267057 3.232527 0.190277 11.400000
-11.286377 3.368907 0.191199 10.000000
-11.274896 3.404127 0.191186 10.200000
5.744532 3.389119 0.108271 4.000000
5.897902 3.392642 0.110451 4.000000
6.053735 3.394318 0.112664 4.000000
6.197674 3.398649 0.114741 4.000000
6.339874 3.399301 0.116776 4.000000
6.487346 3.400054 0.118896 4.000000
6.642512 3.401954 0.121147 4.000000
6.804231 3.404227 0.123506 3.666667
6.940861 3.404758 0.125497 4.000000
7.077934 3.403231 0.127488 2.333333
5.630103 3.417727 0.106916 2.200000
7.223283 3.417516 0.129717 0.000000
-11.272240 3.547356 0.191830 9.714286
5.598706 3.565830 0.107754 2.857143
5.685805 3.550126 0.108812 3.000000
-11.293308 3.643284 0.192628 8.000000
-11.273242 3.707361 0.192641 8.400000
5.529765 3.674073 0.107773 3.600000
-11.288330 3.798943 0.193342 7.000000
5.500702 3.742489 0.108000 5.500000
-11.258320 3.877654 0.193293 8.250000
5.459513 3.828539 0.108246 5.000000
-11.269199 3.998643 0.194108 7.200000
5.426586 3.973284 0.109180 6.500000
-11.250965 4.063912 0.194186 7.000000
-11.290215 4.158493 0.195311 5.333333
5.423934 4.130566 0.110673 7.166667
-11.265890 4.290792 0.195695 5.000000
5.420657 4.278005 0.112097 3.400000
-11.208632 4.370063 0.195290 8.000000
-11.065177 4.374265 0.193147 36.000000
-10.871048 4.396495 0.190355 37.000000
-10.819532 4.474971 0.190063 37.000000
5.443161 4.450459 0.114135 0.666667
-10.804420 4.588474 0.190550 34.000000
5.403200 4.517776 0.114330 0.000000
-10.784348 4.740790 0.191232 38.000000
-10.767618 4.895784 0.192011 33.000000
-10.738730 5.046436 0.192611 35.750000
-10.723134 5.183804 0.193342 27.666666
-10.709328 5.323192 0.194137 35.000000
-10.686956 5.480631 0.194965 26.750000
-10.675629 5.602470 0.195712 27.500000
-10.603213 6.151411 0.198990 23.000000
-10.589578 6.232799 0.199466 28.666666
4.471738 6.477316 0.127769 0.000000
4.760823 8.735601 0.161497 0.500000
-5.623382 10.239044 0.189628 28.000000
-5.597740 -14.095139 0.246190 26.000000
-5.563683 -14.138707 0.246644 0.000000
-5.646458 -14.088620 0.246384 10.000000
5.935801 -13.677534 0.242034 13.333333
-13.130634 -12.980330 0.299719 11.000000
-13.113190 -12.801191 0.297479 13.500000
-13.084309 -12.653032 0.295466 11.000000
-13.086502 -12.575840 0.294622 17.000000
-13.059421 -12.471135 0.293129 11.000000
-13.048264 -12.343512 0.291571 14.000000
-13.042134 -12.221701 0.290143 14.000000
-13.015984 -12.082586 0.288292 13.000000
-13.438960 -11.916898 0.291571 4.250000
-13.302359 -11.964838 0.290435 36.000000
-13.121954 -11.952574 0.288130 15.500000
-13.009539 -11.962883 0.286896 18.000000
-13.586089 -11.876980 0.292934 3.000000
-12.849706 -10.812787 0.272613 15.000000
-12.831333 -10.694536 0.271153 13.500000
-12.808731 -10.539987 0.269270 17.500000
-12.789329 -10.389957 0.267484 13.000000
-12.770123 -10.241829 0.265731 16.500000
-12.749554 -10.094366 0.263979 12.500000
-12.724499 -9.945093 0.262161 15.500000
-12.715480 -9.809985 0.260700 14.500000
-12.692543 -9.665691 0.258979 15.000000
-12.684294 -9.534077 0.257584 15.500000
-12.657424 -9.359285 0.255538 15.333333
-12.635309 -9.220586 0.253915 12.000000
-12.625360 -9.152673 0.253136 12.000000
-12.613079 -9.053447 0.252033 15.500000
-12.609997 -8.961456 0.251124 16.000000
-12.592343 -8.889507 0.250215 13.000000
-12.578938 -8.762252 0.248851 16.000000
-13.014758 -8.630185 0.253498 4.428571
-12.821264 -8.635036 0.250929 13.000000
-12.770903 -8.659556 0.250474 23.000000
-12.675523 -8.682297 0.249403 14.500000
-12.996533 -8.440082 0.251557 3.000000
-12.971851 -8.308633 0.250063 3.000000
-12.964569 -8.165872 0.248722 3.000000
-12.961745 -7.999121 0.247250 3.000000
-12.929198 -7.904407 0.245995 3.000000
-12.410371 -7.533762 0.235672 18.000000
-12.400183 -7.421450 0.234590 13.666667
-12.376925 -7.260392 0.232932 15.200000
-12.309950 -6.791027 0.228219 10.400000
-12.293427 -6.641553 0.226821 19.666666
-12.272224 -6.506064 0.225479 14.000000
-12.678027 -6.293425 0.229764 5.000000
-12.400659 -6.302099 0.225804 16.000000
-12.268117 -6.356524 0.224294 18.500000
-12.728038 -6.218930 0.229959 3.333333
-12.490082 -6.249117 0.226713 14.000000
-12.448963 -6.277519 0.226323 29.000000
-12.709063 -6.061986 0.228574 3.000000
-12.681025 -5.902560 0.227059 3.000000
-12.645059 -5.741427 0.225436 3.000000
-12.642895 -5.621080 0.224602 3.000000
-12.586975 -5.478299 0.222839 3.000000
-12.098581 -5.153004 0.213468 25.500000
-12.082028 -5.034271 0.212473 16.000000
-12.059965 -4.870178 0.211131 20.000000
-12.042129 -4.731406 0.210027 16.500000
-12.027020 -4.660146 0.209378 17.000000
-12.017381 -4.569816 0.208707 22.333334
-11.993970 -4.410623 0.207446 18.250000
-17.833120 -4.202425 0.297414 2.000000
-17.590321 -4.203588 0.293584 2.000000
-17.367132 -4.207968 0.290078 2.000000
-17.132439 -4.208126 0.286377 2.000000
-16.897915 -4.206860 0.282676 2.000000
-16.713984 -4.216872 0.279820 2.000000
-16.483662 -4.213892 0.276184 2.000000
-16.288370 -4.218525 0.273133 1.000000
-16.085478 -4.219942 0.269951 2.000000
-15.882738 -4.220135 0.266770 1.000000
-11.976781 -4.255353 0.206327 22.666666
-11.954594 -4.121005 0.205266 18.333334
-11.939682 -3.969555 0.204249 26.750000
-11.922976 -3.818914 0.203232 21.333334
-18.089523 -3.667248 0.299621 9.333333
-11.896047 -3.666583 0.202074 25.000000
-18.064812 -3.514733 0.298745 8.500000
-11.876245 -3.517939 0.201068 23.000000
-18.063517 -3.426202 0.298453 5.000000
-12.052301 -3.324283 0.202951 39.000000
-11.960903 -3.339542 0.201587 8.000000
-12.079089 -3.243358 0.203026 17.666666
-12.055551 -3.061801 0.201912 1.000000
-12.045773 -2.918677 0.201198 1.000000
8.623990 -1.937202 0.296773 20.125000
-17.718779 -0.817012 0.287935 4.000000
-17.693718 -0.648824 0.287416 7.000000
-17.670319 -0.509014 0.286961 7.000000
-17.652409 -0.369786 0.286615 7.000000
-17.632448 -0.203136 0.286247 7.000000
-17.613541 -0.064564 0.285923 6.500000
-17.600136 0.073712 0.285706 6.000000
-17.588718 0.184193 0.285533 6.000000
-17.577637 0.266923 0.285371 5.500000
-17.548971 0.404352 0.284949 6.000000
-17.535297 0.541883 0.284786 6.000000
-17.521553 0.651672 0.284624 6.000000
12.874483 1.818557 0.211066 0.000000
12.157580 5.869308 0.219149 0.500000
12.255493 5.845571 0.220415 2.000000
12.369170 5.820443 0.221908 6.000000
-11.060636 5.941421 0.203813 3.000000
-11.030638 6.105034 0.204657 3.000000
-10.847748 6.134847 0.202301 9.000000
-10.763908 6.176979 0.201457 26.500000
-10.569723 6.378662 0.200402 27.000000
-10.543106 6.544720 0.201441 28.000000
-10.532899 6.653476 0.202236 22.000000
-10.523315 6.717036 0.202658 25.000000
-10.506381 6.846482 0.203567 26.000000
-10.484290 6.997486 0.204617 23.666666
-10.470763 7.132010 0.205656 25.333334
-10.447689 7.285820 0.206765 24.000000
-10.425331 7.441864 0.207928 25.666666
-10.407534 7.578249 0.208988 23.333334
-10.396656 7.721305 0.210222 24.666666
-10.383156 7.812913 0.210936 23.000000
-10.368787 7.904678 0.211650 25.000000
-10.350659 8.046240 0.212819 21.333334
-10.330781 8.188156 0.213988 22.666666
-10.310185 8.331238 0.215178 23.333334
-10.290892 8.477197 0.216433 22.666666
-10.275882 8.628675 0.217818 19.000000
-10.256890 8.778894 0.219160 18.000000
-10.236988 8.930383 0.220523 18.000000
-10.219119 9.085817 0.221973 18.000000
-10.196269 9.239007 0.223358 18.000000
-10.174358 9.395297 0.224808 19.666666
-10.152350 9.553808 0.226301 15.000000
-10.141613 9.694967 0.227751 17.500000
-10.114841 9.822622 0.228877 17.333334
-10.097619 9.992539 0.230608 16.333334
-10.094054 10.115212 0.231971 7.000000
-10.456753 10.577942 0.241450 1.500000
-10.440256 10.728528 0.243008 1.666667
-10.419347 10.876625 0.244502 1.500000
-10.370758 10.928504 0.244566 2.000000
-10.402659 11.066139 0.246547 1.500000
11.191951 11.098579 0.255863 1.000000
11.299204 11.082307 0.256918 1.000000
11.408158 11.032132 0.257616 0.000000
-10.392798 11.195756 0.247975 1.500000
11.118590 11.165212 0.255785 2.000000
10.969816 11.260893 0.255198 2.250000
-10.372223 11.315397 0.249176 1.500000
10.903971 11.370557 0.255733 2.000000
-10.350935 11.453703 0.250604 1.000000
-10.332659 11.633900 0.252584 1.000000
-10.313408 11.760242 0.253915 1.000000
-10.293671 11.940606 0.255915 1.000000
-10.274438 12.081018 0.257443 1.000000
-10.254947 12.238789 0.259196 1.000000
-10.236013 12.320584 0.260018 1.000000
-10.218460 12.418106 0.261057 1.000000
-10.195707 12.550363 0.262485 1.000000
-10.181751 12.695263 0.264173 1.000000
-10.146693 12.774441 0.264823 4.000000
-10.004786 12.718352 0.262680 29.000000
-9.850771 12.726885 0.261252 38.000000
-9.736578 12.744131 0.260343 19.000000
-9.717393 12.844102 0.261447 12.500000
-9.704699 12.996235 0.263297 15.500000
-9.995414 13.607012 0.274074 3.500000
-9.830851 13.605747 0.272483 26.000000
-10.043954 13.673192 0.275405 4.000000
-9.712681 13.621647 0.271575 16.500000
-9.618381 13.624825 0.270731 24.000000
-9.605570 13.743769 0.272191 12.500000
-9.586010 13.900976 0.274107 17.500000
4.887904 13.942060 0.239827 0.000000
-9.562588 14.055180 0.275957 13.000000
-9.539860 14.212936 0.277872 16.500000
-9.530364 14.344343 0.279560 12.000000
-9.514240 14.467640 0.281086 14.000000
-9.488562 14.577664 0.282352 13.000000
-9.477461 14.661141 0.283391 12.000000
-9.469627 14.801672 0.285241 14.000000
-9.445839 14.918765 0.286637 12.000000
-9.435892 15.059715 0.288487 12.500000
-9.408350 15.227585 0.290565 13.500000
-9.386357 15.407650 0.292869 15.000000
-9.367388 15.540758 0.294557 13.000000
-9.354414 15.686076 0.296473 15.000000
-9.330252 15.814363 0.298063 12.000000
-9.317047 15.963520 0.300043 14.000000
4.933622 16.157320 0.274236 0.000000
-4.297309 16.276016 0.273263 7.500000
-4.196872 16.310463 0.273392 13.500000
-7.486728 -23.207041 0.395838 13.000000
-6.867865 -23.141167 0.391845 3.000000
-7.589828 -23.030396 0.393631 2.000000
-7.523637 -23.073137 0.393955 6.000000
-7.178274 -22.990244 0.390969 3.000000
-7.295049 -22.982800 0.391423 5.000000
-7.076511 -22.917147 0.389346 7.000000
-6.978927 -22.984640 0.389930 10.000000
-7.879375 -22.818703 0.391878 5.500000
-7.769207 -22.848028 0.391748 10.000000
-7.978902 -22.758698 0.391488 4.000000
-7.010080 -21.965481 0.374283 2.000000
-8.770981 -21.884695 0.382723 6.000000
-8.242101 -21.743202 0.377465 4.000000
-9.476520 -21.649687 0.383632 0.000000
-8.809215 -21.683784 0.379932 41.500000
-7.984286 -21.677299 0.374998 1.000000
-7.267488 -21.594900 0.369869 11.000000
-9.349545 -21.543602 0.381230 43.000000
-9.254946 -21.510414 0.380127 48.000000
-9.141760 -21.526144 0.379640 44.000000
-8.958331 -21.563377 0.379044 59.000000
-8.056271 -21.558849 0.373602 4.000000
-14.062109 -20.097700 0.398175 8.000000
-14.092936 -20.007647 0.397266 25.000000
-14.509048 -19.926075 0.400123 1.000000
-14.362556 -19.987616 0.399539 12.000000
-14.221832 -19.989864 0.398240 34.000000
-14.458087 -19.725559 0.397007 1.000000
-13.897868 -18.836843 0.379997 8.000000
-13.868748 -18.674286 0.377594 7.000000
-13.860296 -18.540930 0.375777 9.000000
-13.836717 -18.388638 0.373569 7.000000
-13.821976 -18.249430 0.371622 10.000000
-13.791945 -18.091417 0.369284 7.000000
-13.877281 -17.909777 0.367791 26.000000
-13.770802 -17.946463 0.367207 15.000000
-14.165273 -17.872128 0.370193 6.000000
-14.037700 -17.883572 0.369057 20.500000
-14.171467 -17.765005 0.368895 0.000000
7.260078 -17.737156 0.311113 42.000000
7.298969 -17.673599 0.310399 67.000000
7.392772 -17.586786 0.309685 61.333332
7.529977 -17.551737 0.310031 49.000000
-14.065549 -17.462879 0.363993 0.000000
-13.629174 -16.758743 0.350651 8.000000
-13.605762 -16.622995 0.348704 8.000000
-13.575588 -16.427694 0.345944 10.500000
-13.554283 -16.245277 0.343445 8.000000
-13.538381 -16.122984 0.341757 9.000000
-13.521848 -16.000946 0.340069 9.000000
-13.497084 -15.819941 0.337569 11.000000
-14.957219 -15.695654 0.351950 2.000000
-14.598178 -15.709510 0.348119 1.000000
-14.808982 -15.687386 0.350197 2.000000
-13.471066 -15.639465 0.335070 9.000000
-13.459881 -15.527557 0.333576 9.000000
-13.435377 -15.352628 0.331174 10.000000
-13.414968 -15.184208 0.328902 9.000000
-13.398823 -15.070257 0.327344 9.000000
-13.770033 -14.911995 0.329486 6.000000
-13.602421 -14.917341 0.327712 17.000000
-13.417598 -14.948875 0.326078 17.500000
-13.767808 -14.815926 0.328318 2.000000
-13.549310 -14.489241 0.322020 0.000000
-13.232035 -13.798238 0.310334 11.000000
-13.233660 -13.713430 0.309360 14.000000
-13.200392 -13.550679 0.307088 12.500000
-13.191255 -13.414150 0.305400 14.000000
-13.166908 -13.263880 0.303387 13.000000
-13.155726 -13.128199 0.301699 14.000000
-14.384605 -12.695061 0.311438 1.000000
-14.921602 -12.636542 0.317410 2.000000
-14.839217 -12.647034 0.316502 2.000000
-14.626058 -12.664967 0.314067 2.500000
-14.513509 -12.687732 0.312931 1.000000
-18.052704 -4.194355 0.300855 4.000000
-18.126854 -4.121619 0.301764 7.500000
-18.126057 -3.972051 0.301223 9.000000
-18.109123 -3.819510 0.300433 9.500000
-5.612849 -3.193714 0.329067 48.166668
-11.701237 -2.143383 0.399410 35.666668
-11.684003 -2.007726 0.398046 29.000000
-11.660931 -1.853217 0.396435 33.750000
-11.642752 -1.700619 0.395059 30.750000
-11.624567 -1.549018 0.393751 38.250000
-11.608386 -1.398633 0.392576 31.250000
-11.585676 -1.266804 0.391312 41.666668
-11.572237 -1.191792 0.390596 32.000000
-11.561267 -1.099004 0.389925 34.750000
-11.542292 -0.951006 0.388851 42.000000
-11.525414 -0.803923 0.387912 40.750000
-11.506598 -0.693704 0.387039 49.000000
-11.682384 -0.630623 0.392811 34.000000
-11.726768 -0.528430 0.394131 8.500000
-11.708351 -0.374110 0.393314 9.500000
-11.688147 -0.226491 0.392509 10.750000
-11.667001 -0.091657 0.391737 12.000000
-11.648209 0.085368 0.391106 17.600000
-11.623698 0.249546 0.390361 19.750000
-11.599669 0.394917 0.389690 22.250000
-11.346200 0.529092 0.381368 55.750000
-11.318989 0.688325 0.380744 58.400002
-11.306774 0.848165 0.380697 71.500000
-11.285180 0.971444 0.380306 58.666668
-11.273582 1.041852 0.380127 62.000000
-11.263988 1.130244 0.380093 71.750000
-11.244658 1.289115 0.380019 56.799999
-11.223569 1.447721 0.379959 74.750000
-11.206470 1.588926 0.380026 56.000000
-11.184628 1.729480 0.379992 73.000000
-11.167690 1.888889 0.380288 61.200001
-11.375749 2.108370 0.388449 46.000000
-11.153423 2.012866 0.380529 91.500000
-11.379373 2.201637 0.389153 20.500000
-11.361074 2.358982 0.389590 21.333334
-11.338998 2.490983 0.389791 22.500000
-11.317507 2.635770 0.390160 22.750000
-11.306785 2.783505 0.390965 20.000000
-11.285001 2.922737 0.391402 19.333334
-11.278950 2.946355 0.391402 19.000000
-11.267414 3.073383 0.392130 15.000000
-11.266191 3.236665 0.393568 11.428572
-11.269477 3.391465 0.395141 10.714286
-11.280593 3.561089 0.397173 10.000000
-11.259048 3.538733 0.396261 10.400000
-11.275077 3.656981 0.397979 9.500000
-11.284134 3.738437 0.399120 9.000000
-11.264606 3.856768 0.399768 9.000000
-11.027510 4.379465 0.398381 39.000000
-10.860163 4.392143 0.393326 34.000000
-10.824100 4.476857 0.393281 32.500000
-10.806194 4.589236 0.394187 30.000000
-10.792506 4.744370 0.395831 36.500000
-10.771151 4.897416 0.397274 31.750000
-10.752604 5.032339 0.398605 35.666668
-10.733539 5.147277 0.399679 27.666666
4.675911 8.742508 0.332879 0.000000
-5.624800 10.241637 0.392314 26.799999
-9.286779 16.085167 0.301504 10.000000
-9.331850 17.240858 0.318238 16.250000
-9.176406 17.243790 0.317086 19.000000
-9.126619 17.347029 0.318190 15.500000
-9.113141 17.521112 0.320592 14.000000
-9.089240 17.610071 0.321695 11.000000
-9.076958 17.791664 0.324227 13.500000
-10.252496 17.887390 0.334680 2.000000
-10.151834 17.884924 0.333836 2.000000
-10.065856 17.951824 0.334096 0.000000
-9.050716 17.948507 0.326305 10.000000
-9.039026 18.066269 0.327928 9.000000
-9.012207 18.226986 0.330071 11.000000
6.208184 18.257423 0.313039 16.333334
6.343227 18.215225 0.313104 28.333334
6.480921 18.210560 0.313775 39.500000
6.645699 18.219162 0.314814 40.333332
6.811669 18.228271 0.315885 32.000000
6.948139 18.243042 0.316891 22.000000
7.093738 18.279190 0.318287 15.500000
6.088310 18.377155 0.314262 7.000000
7.243743 18.323521 0.319845 10.500000
7.401320 18.383373 0.321695 1.500000
-8.998285 18.416573 0.332732 11.000000
5.999238 18.496845 0.315658 3.500000
-8.975267 18.516733 0.334031 10.000000
-8.950893 18.690491 0.336401 12.000000
5.929544 18.715187 0.318687 1.333333
-9.142648 19.804657 0.354092 0.000000
-9.146984 19.978739 0.356689 5.000000
-9.057713 19.949112 0.355650 9.000000
-8.941530 19.942270 0.354774 21.000000
-8.822347 19.927536 0.353768 16.000000
-8.778994 19.999096 0.354547 7.000000
-8.760806 20.129263 0.356365 7.000000
-8.743480 20.263178 0.358247 10.000000
-8.728535 20.404543 0.360260 8.000000
-8.709675 20.538641 0.362143 9.000000
-8.691607 20.676508 0.364090 6.000000
-8.678903 20.829237 0.366298 8.000000
5.477312 23.188725 0.386781 47.000000
5.292481 23.219934 0.386597 27.000000
5.024937 23.399384 0.388502 8.000000
5.121387 23.312922 0.387463 11.000000
4.966295 23.485487 0.389670 6.000000
4.860140 23.625006 0.391537 3.250000
4.167135 -30.185705 0.494651 3.000000
2.906301 -29.587650 0.482608 4.000000
3.045091 -29.567696 0.482511 4.000000
3.121500 -29.402874 0.479979 6.000000
3.206902 -29.329309 0.478940 12.000000
3.286060 -29.203833 0.477057 12.000000
5.152965 -29.164366 0.480758 2.000000
6.570390 -29.107725 0.484393 8.000000
5.232516 -29.081118 0.479654 9.000000
4.312817 -28.584665 0.469266 13.000000
4.400162 -28.555164 0.469007 4.000000
7.290607 -28.518982 0.477836 2.000000
4.480527 -28.481937 0.468033 10.000000
7.645283 -28.413530 0.477641 24.000000
7.427023 -28.310133 0.475109 30.000000
7.506682 -28.251871 0.474525 12.000000
6.484536 -28.109917 0.468292 8.000000
7.289914 -28.147482 0.471993 15.000000
5.039874 -28.010454 0.461995 8.000000
6.892707 -28.062084 0.469072 13.000000
6.961510 -27.962671 0.467773 2.000000
6.011396 -27.850874 0.462514 7.000000
6.550870 -27.798801 0.463618 9.000000
8.316923 -27.756945 0.470370 1.000000
4.443833 -27.681885 0.455113 2.000000
6.603777 -27.634153 0.461216 7.000000
8.107515 -27.689667 0.468357 1.000000
8.435328 -27.677254 0.469688 19.000000
6.664184 -27.504436 0.459398 8.000000
8.550918 -27.589464 0.468877 8.000000
8.816663 -27.526693 0.469201 7.000000
4.481650 -27.367825 0.450179 17.000000
5.000299 -27.298161 0.450503 10.000000
8.867372 -27.388512 0.467319 6.000000
2.029428 -27.244921 0.443492 7.000000
2.171057 -27.221933 0.443297 18.000000
2.284442 -27.204657 0.443167 24.000000
2.413463 -27.203518 0.443329 22.500000
2.573606 -27.225666 0.443925 15.000000
2.763371 -27.252615 0.444660 13.000000
4.553116 -27.266823 0.448751 17.000000
4.640769 -27.264214 0.448945 16.000000
6.050805 -27.203520 0.452386 4.000000
6.302392 -27.125809 0.452062 19.000000
2.917651 -27.077641 0.442096 11.000000
4.686758 -27.020941 0.445180 22.000000
3.034283 -26.966251 0.440505 14.000000
3.838604 -26.770601 0.439012 20.333334
5.289028 -26.736252 0.442420 13.000000
5.500109 -26.699787 0.442518 4.000000
6.753849 -26.769520 0.448166 7.000000
5.576590 -26.647144 0.441934 32.000000
6.799284 -26.597050 0.445634 8.000000
8.901117 -26.495064 0.453717 5.500000
5.358988 -26.434715 0.437843 16.000000
9.023964 -26.447174 0.453620 12.000000
5.606222 -26.375210 0.437714 33.000000
3.871856 -26.220179 0.430247 15.000000
5.635895 -26.111172 0.433623 27.000000
6.163744 -26.156019 0.436220 7.000000
7.824450 -26.113365 0.442518 15.000000
5.802452 -26.086958 0.433818 14.000000
5.967134 -26.053885 0.433883 12.000000
7.435207 -25.998133 0.438947 16.000000
5.852675 -25.928152 0.431481 1.000000
7.670811 -25.896227 0.438428 105.000000
7.871651 -25.973829 0.440570 7.000000
7.289323 -25.794289 0.435117 2.000000
5.633144 -25.706566 0.427196 32.000000
6.401111 -25.711687 0.430118 15.000000
6.501424 -25.769007 0.431416 10.000000
7.179212 -25.713055 0.433364 9.000000
8.343805 -25.771378 0.439726 5.000000
7.414562 -25.621197 0.432974 36.000000
7.501755 -25.620811 0.433364 8.000000
5.182580 -25.564533 0.423430 4.000000
7.970181 -25.432878 0.432650 1.000000
8.937046 -25.406418 0.437194 21.000000
2.934192 -25.359451 0.414406 11.000000
3.054860 -25.355238 0.414568 255.000000
3.216878 -25.357367 0.414925 255.000000
3.338939 -25.361784 0.415250 255.000000
3.446941 -25.360758 0.415466 174.666672
4.388752 -25.302824 0.416873 2.000000
7.776240 -25.371563 0.430767 1.000000
4.425078 -25.044727 0.412848 4.000000
4.823221 -24.999620 0.413302 6.000000
4.649189 -24.939003 0.411809 8.000000
4.549919 -24.839397 0.409926 7.000000
4.650749 -24.519545 0.405122 13.000000
4.859488 -24.564621 0.406485 12.000000
5.053871 -24.533564 0.406615 2.000000
-14.450010 -23.035294 0.441414 7.000000
-14.404831 -22.803810 0.437843 6.000000
-14.390537 -22.623457 0.435246 6.000000
-14.366627 -22.429949 0.432390 8.000000
-14.337307 -22.230095 0.429403 6.000000
-14.348258 -22.094383 0.427650 22.000000
-14.657783 -22.061695 0.429966 12.333333
-14.487319 -22.079987 0.428689 31.500000
-14.168261 -20.942179 0.410446 5.000000
-19.397913 -20.743568 0.461021 2.000000
-14.148426 -20.771954 0.407979 6.000000
-14.132189 -20.608658 0.405641 10.000000
-19.375278 -20.589321 0.458944 6.000000
-19.338112 -20.420906 0.456541 8.000000
-14.108243 -20.435801 0.403109 7.000000
-19.377338 -20.333994 0.455957 8.000000
-14.085636 -20.266577 0.400642 6.000000
-14.458097 -19.987764 0.400448 7.000000
5.659945 -13.704893 0.497842 1.000000
5.751609 -13.682527 0.498335 255.000000
5.873283 -13.640895 0.498648 255.000000
6.035604 -13.575278 0.498816 255.000000
6.144953 -13.533916 0.499051 71.000000
-12.422103 -7.540884 0.487910 21.000000
-12.403974 -7.423733 0.485360 14.666667
-12.383307 -7.264140 0.482031 15.400000
-12.317239 -6.795052 0.472313 11.000000
-12.303366 -6.646918 0.469521 20.666666
-12.284590 -6.512620 0.466836 15.000000
-12.676137 -6.292487 0.475158 5.000000
-12.398871 -6.301190 0.466971 12.000000
-12.277014 -6.361154 0.464253 18.250000
-12.726633 -6.230634 0.475762 4.000000
-12.495419 -6.251787 0.469118 9.000000
-12.450731 -6.278410 0.468179 26.000000
-12.705984 -6.060518 0.472653 3.000000
-12.677077 -5.900714 0.469487 3.000000
-12.637707 -5.747649 0.466138 3.000000
-12.630034 -5.607429 0.463973 3.000000
-12.592577 -5.471301 0.460984 3.000000
-12.100717 -5.153913 0.441602 25.000000
-12.084957 -5.013285 0.439287 18.000000
-12.064915 -4.850110 0.436591 23.666666
-12.049276 -4.712409 0.434399 18.333334
-12.032675 -4.618908 0.432743 17.000000
-12.018767 -4.548718 0.431468 26.000000
-12.003802 -4.414242 0.429421 20.750000
-11.982916 -4.257528 0.426971 24.666666
-11.968330 -4.125749 0.425048 19.666666
-11.948758 -3.972567 0.422777 27.250000
-11.929255 -3.820920 0.420573 22.333334
-11.906193 -3.669720 0.418314 26.500000
-13.506766 -3.528402 0.468716 4.000000
-11.882623 -3.519819 0.416099 24.000000
-11.867860 -3.394129 0.414444 28.333334
-13.526924 -3.356348 0.467944 3.000000
-12.054810 -3.324975 0.419857 34.000000
-11.951893 -3.337026 0.416636 8.000000
-13.583191 -3.215908 0.468671 2.333333
-12.082886 -3.244380 0.420059 13.333333
-5.618859 -3.195851 0.442048 45.500000
-13.643711 -3.057199 0.469454 2.000000
-12.059072 -3.062674 0.417743 1.000000
-13.733233 -2.919090 0.471400 1.666667
-12.049605 -2.939613 0.416435 1.000000
-13.775807 -2.792706 0.471937 2.000000
-12.032831 -2.855534 0.415227 1.000000
-12.018671 -2.712933 0.413683 1.000000
-13.813337 -2.665030 0.472340 2.000000
-11.999483 -2.609777 0.412307 1.000000
-11.983416 -2.448955 0.410663 1.500000
-11.962794 -2.327528 0.409187 1.000000
-11.728168 -2.224543 0.400797 11.000000
8.610719 -1.931838 0.449674 23.208334
-11.262078 3.996110 0.401227 8.200000
-11.272628 4.098460 0.402721 7.333333
-11.292574 4.179505 0.404287 5.000000
-11.258825 4.296756 0.404613 5.571429
-11.226144 4.376891 0.404556 8.000000
-11.111897 4.372610 0.400932 11.000000
-10.723790 5.225707 0.400529 29.000000
-10.712762 5.324898 0.401670 33.750000
-10.694797 5.484649 0.403549 28.000000
-10.681596 5.584204 0.404690 36.000000
-10.674613 5.623322 0.405093 19.000000
-11.038252 5.859264 0.419589 4.000000
-11.062886 5.970734 0.422086 3.000000
-11.033381 6.106535 0.423405 3.000000
-10.848291 6.135143 0.418448 6.500000
-10.752335 6.170323 0.416233 26.000000
-10.605555 6.152769 0.411670 25.000000
-10.593054 6.234831 0.412699 26.666666
-10.575427 6.382112 0.414723 25.750000
-10.553115 6.527958 0.416636 28.666666
-10.535056 6.654890 0.418381 23.333334
-10.526756 6.742501 0.419723 28.000000
-10.516541 6.829561 0.421021 26.000000
-10.493450 6.979871 0.423146 25.500000
-10.471759 7.132673 0.425405 26.333334
-10.453300 7.265289 0.427419 22.333334
-10.434361 7.423624 0.429958 27.500000
-10.411669 7.581244 0.432430 23.666666
-10.397521 7.721943 0.434846 24.333334
-10.385064 7.814349 0.436367 23.000000
-10.370667 7.906122 0.437844 25.666666
-10.351459 8.046850 0.440215 21.333334
-10.335722 8.192072 0.442810 24.000000
-10.318177 8.337689 0.445405 22.666666
-10.294680 8.480317 0.447821 23.666666
-10.278584 8.630960 0.450640 20.333334
-10.264619 8.785498 0.453638 21.000000
-10.235563 8.900818 0.455427 23.500000
-10.229591 8.980591 0.457038 17.000000
-10.218688 9.085445 0.459096 20.000000
-10.196805 9.239498 0.462004 17.666666
-10.177797 9.398479 0.465136 21.000000
-10.161059 9.531904 0.467776 16.000000
-10.150475 9.673013 0.470774 20.333334
-10.116210 9.823956 0.473458 18.000000
-10.101787 9.996664 0.477172 18.666666
-10.242188 10.263657 0.486836 2.000000
-10.463478 10.584753 0.499722 2.000000
-8.756234 23.246292 0.403239 3.000000
-8.673379 23.247454 0.402785 7.000000
-8.539570 23.222347 0.401649 29.000000
-8.380592 23.239807 0.401032 11.500000
-8.973787 23.377508 0.406485 0.000000
-9.074637 23.420059 0.407719 0.000000
-8.323222 23.426046 0.403564 6.000000
-8.301338 23.599222 0.406096 5.000000
-8.279774 23.776264 0.408693 6.000000
-8.251954 23.938280 0.411030 5.000000
-8.228375 24.115494 0.413627 6.000000
-8.369939 25.308350 0.432714 4.000000
-8.235110 25.299936 0.431903 16.500000
-8.102988 25.298504 0.431221 11.000000
-8.460811 25.316069 0.433299 2.000000
-8.056079 25.426779 0.432974 2.000000
-8.033572 25.635151 0.436090 2.000000
-8.005087 25.828354 0.438947 2.000000
-7.986026 26.056040 0.442388 1.000000
-7.949374 26.230274 0.444920 3.000000
-7.932355 26.473497 0.448621 2.000000
6.146084 -31.856256 0.526659 1.000000
5.301819 -31.147835 0.512895 5.000000
4.558355 -30.869146 0.506532 2.000000
4.638606 -30.743938 0.504714 15.000000
5.817162 -30.669075 0.506727 8.000000
7.410090 -30.582943 0.510817 4.000000
7.501364 -30.540092 0.510493 4.000000
7.410449 -15.247711 0.569206 11.000000
7.515570 -15.199886 0.569318 0.500000
7.636053 -15.025477 0.565895 7.000000
-5.618947 -14.105457 0.509789 20.666666
-13.025021 -12.090968 0.596700 14.500000
-13.126638 -11.956837 0.596163 17.500000
-13.015697 -11.968546 0.593680 17.000000
-13.254124 -11.332140 0.585492 0.000000
-13.206738 -11.184288 0.581062 0.000000
-12.856397 -10.818418 0.564150 16.000000
-12.839617 -10.701438 0.561197 15.000000
-12.820181 -10.549413 0.557439 18.000000
-12.799326 -10.398079 0.553680 14.500000
-12.777092 -10.247410 0.549922 17.500000
-12.759721 -10.102423 0.546432 13.000000
-12.739481 -9.956806 0.542875 16.500000
-12.725823 -9.817957 0.539654 14.500000
-12.698200 -9.669995 0.535895 14.500000
-12.688403 -9.537174 0.532943 17.500000
-12.664825 -9.364749 0.528849 16.666666
-12.639436 -9.193245 0.524755 13.500000
-12.622246 -9.060038 0.521667 16.500000
-12.607153 -8.929716 0.518715 16.000000
-12.589912 -8.769897 0.515158 17.000000
-13.001431 -8.649908 0.524312 5.000000
-12.805466 -8.653641 0.518916 19.000000
-12.678298 -8.684202 0.515963 14.500000
-13.007699 -8.466807 0.521108 3.000000
-12.980133 -8.304375 0.517372 3.000000
-12.968762 -8.154305 0.514352 3.000000
-12.949348 -7.991471 0.510907 3.000000
-12.916798 -7.896826 0.508312 3.000000
-11.651018 -1.701819 0.599984 30.000000
-11.627926 -1.549472 0.597745 35.750000
-11.609793 -1.398805 0.595862 31.250000
-11.586393 -1.254624 0.593844 42.666668
-11.579820 -1.229348 0.593369 35.000000
-11.571684 -1.099986 0.592300 33.250000
-11.543783 -0.951135 0.590214 44.250000
-11.529918 -0.804255 0.588941 38.000000
-11.510128 -0.693917 0.587567 47.500000
-11.685789 -0.630807 0.596320 34.500000
-11.723083 -0.522093 0.597949 8.500000
-11.707756 -0.374081 0.596880 9.250000
-11.692560 -0.226588 0.595913 11.500000
-11.669518 -0.079456 0.594641 14.750000
-11.646063 0.085347 0.593450 15.800000
-11.625163 0.249581 0.592504 16.750000
-11.606138 0.395127 0.591740 18.750000
-11.347859 0.529185 0.578865 57.750000
-11.324250 0.688630 0.578102 50.200001
-11.305458 0.848059 0.577695 63.750000
-11.288934 0.989628 0.577441 55.500000
-11.266663 1.130520 0.576982 68.500000
-11.250574 1.271901 0.576932 58.250000
-11.228060 1.430378 0.576759 65.199997
-11.212097 1.589733 0.577033 57.500000
-11.186302 1.729726 0.576779 64.750000
-11.171560 1.871492 0.577186 52.250000
-11.160170 1.995981 0.577695 74.333336
-11.388500 2.176617 0.590813 21.777779
-11.367918 2.347990 0.591486 17.250000
-11.345741 2.500457 0.592002 18.857143
-11.321757 2.644789 0.592438 21.285715
-11.307224 2.783615 0.593369 20.250000
-11.287085 2.903081 0.593857 20.000000
-11.272963 2.982657 0.594183 19.000000
-11.269360 3.068486 0.595143 15.571428
-11.270452 3.229665 0.597406 13.000000
-11.279923 3.328419 0.599272 12.000000
-10.845904 4.426158 0.596911 34.400002
-10.815744 4.593280 0.598763 30.750000
-5.626455 10.244631 0.595567 21.799999
-10.440380 10.728691 0.502630 2.000000
-10.414869 10.871914 0.505493 2.000000
-10.404056 11.032902 0.509162 2.000000
-10.393644 11.161432 0.512070 2.000000
-10.370626 11.260321 0.513983 2.000000
-10.351749 11.472723 0.518826 2.000000
-10.340136 11.642340 0.522808 2.000000
-10.303690 11.749153 0.524688 1.000000
-10.293750 11.925560 0.528938 1.333333
-10.278316 12.098470 0.533010 1.000000
-10.253511 12.224043 0.535694 1.000000
-10.222404 12.343645 0.538110 1.000000
-10.201682 12.517565 0.542182 1.000000
-10.183588 12.697599 0.546499 1.000000
-10.147289 12.775190 0.547774 4.000000
-10.010380 12.725413 0.543613 19.500000
-9.884861 12.729649 0.541130 29.000000
-9.756012 12.728071 0.538446 17.500000
-9.725260 12.854501 0.541197 14.000000
-9.710079 13.003441 0.544888 18.500000
-9.906626 13.397812 0.559452 4.000000
-9.940217 13.531972 0.563747 6.000000
-9.856560 13.596252 0.563837 22.000000
-9.709653 13.617394 0.561532 18.000000
-9.621147 13.628744 0.560123 26.000000
-9.603715 13.741115 0.562875 14.000000
-9.586418 13.901556 0.566969 17.500000
-9.560717 14.052416 0.570660 15.000000
-9.544655 14.220081 0.575022 16.500000
-9.528464 14.341483 0.578109 13.000000
-9.513438 14.466403 0.581331 15.500000
-9.491010 14.581427 0.584150 14.000000
-9.479881 14.664886 0.586297 14.000000
-9.469856 14.802017 0.589988 16.000000
-9.454596 14.932594 0.593411 13.000000
-9.436060 15.059996 0.596700 14.000000
4.168469 31.158258 0.510298 6.000000
7.270575 -17.762800 0.644417 22.000000
7.304975 -17.688143 0.642538 55.000000
-13.504462 -15.778203 0.697302 8.000000
-13.480907 -15.650890 0.693543 9.000000
-13.477640 -15.548045 0.690859 10.000000
-13.445372 -15.364058 0.685490 11.500000
-13.422415 -15.192636 0.680658 9.000000
-13.411635 -15.084668 0.677705 9.000000
-13.564579 -14.922951 0.677101 21.000000
-13.423822 -14.955814 0.674752 19.000000
-13.578142 -14.750713 0.673141 6.500000
-13.563209 -14.595750 0.668980 3.000000
-13.546193 -14.485909 0.665893 2.000000
-13.534103 -14.382142 0.663074 1.000000
-13.526988 -14.284403 0.660524 1.000000
-13.505608 -14.172378 0.657302 1.000000
-13.245694 -13.812482 0.642538 9.000000
-13.244606 -13.724773 0.640390 16.000000
-13.217012 -13.567741 0.635961 14.500000
-13.205183 -13.428314 0.632336 16.000000
-13.175314 -13.272338 0.627907 14.500000
-13.160663 -13.092026 0.623276 15.000000
-13.135425 -12.944247 0.619182 13.000000
-13.117542 -12.805445 0.615491 15.500000
-14.522296 -12.695414 0.647638 1.000000
-14.387387 -12.697525 0.644283 1.000000
-14.640902 -12.677820 0.650256 2.500000
-13.093031 -12.661468 0.611531 13.000000
-14.668512 -12.501547 0.647101 2.000000
-13.092385 -12.581493 0.609652 21.000000
-13.074024 -12.485081 0.606968 14.000000
-13.058599 -12.353303 0.603545 15.500000
-13.048175 -12.227361 0.600391 16.000000
-13.441393 -11.919044 0.603176 5.000000
-13.311489 -11.973034 0.601129 47.000000
-13.594303 -11.846576 0.605424 2.000000
-12.583393 -5.453187 0.698811 3.500000
-12.112059 -5.158754 0.670822 26.000000
-12.088096 -5.014575 0.666853 19.750000
-12.069662 -4.852018 0.662850 23.333334
-12.052843 -4.713813 0.659457 20.000000
-12.035044 -4.619818 0.656879 19.000000
-12.028639 -4.552454 0.655352 26.000000
-11.998750 -4.412394 0.651433 21.500000
-11.985420 -4.258435 0.648126 24.333334
-11.963338 -4.124019 0.644801 20.333334
-11.950424 -3.973123 0.641714 27.750000
-11.938263 -3.823810 0.638762 23.000000
-11.911780 -3.671447 0.635149 25.750000
-11.890511 -3.522160 0.631909 24.000000
-12.053676 -3.324662 0.637134 32.000000
-11.917570 -3.387975 0.631332 17.500000
-11.869631 -3.374441 0.628788 28.000000
-12.087858 -3.244365 0.637744 11.200000
-5.618506 -3.195648 0.616124 36.307693
-12.065719 -3.064372 0.634335 1.000000
-13.398888 -2.914137 0.698710 10.000000
-12.047284 -2.919026 0.631638 1.000000
-12.045992 -2.838672 0.630620 1.000000
-13.382808 -2.778765 0.696470 10.000000
-13.374239 -2.711295 0.695351 10.000000
-12.023104 -2.733784 0.628279 1.000000
-13.363518 -2.621857 0.693926 10.000000
-12.005325 -2.611049 0.626040 1.250000
-13.348379 -2.531857 0.692298 4.000000
-11.989655 -2.469881 0.623767 1.000000
-11.953596 -2.345254 0.620713 1.666667
-11.707732 -2.155451 0.606600 32.428570
-11.692173 -2.009122 0.604514 27.750000
8.601349 -1.933649 0.602875 29.833334
-11.671124 -1.854836 0.602173 34.750000
-13.102079 -0.624757 0.668380 3.000000
-13.092584 -0.521291 0.667667 5.333333
-13.082326 -0.417988 0.666955 5.500000
-13.074711 -0.335521 0.666446 5.500000
-13.060252 -0.212021 0.665581 5.750000
-13.041525 -0.068323 0.664546 5.666667
-13.032795 0.075058 0.664105 5.750000
-13.012849 0.238506 0.663189 4.500000
-13.000159 0.381302 0.662714 5.333333
-12.986146 0.482994 0.662171 5.000000
-11.287200 3.415572 0.600900 12.000000
-11.271561 3.480511 0.601104 12.000000
-11.288789 3.563705 0.603207 10.666667
-11.272557 3.636590 0.603547 11.000000
-11.291176 3.721109 0.605786 9.333333
-11.273619 3.850442 0.607036 9.285714
-11.267822 3.990168 0.609094 9.000000
-11.254147 4.125210 0.610773 9.250000
-11.248104 4.284030 0.613317 7.500000
-11.186867 4.381754 0.612198 8.000000
-11.023140 4.377729 0.604361 39.000000
-10.795565 4.745720 0.600900 36.500000
-10.777808 4.900426 0.603292 30.250000
-10.753164 5.032602 0.604972 35.333332
-10.736732 5.169600 0.607211 26.250000
-10.717423 5.327232 0.609857 32.750000
-10.698510 5.486555 0.612656 26.500000
-10.680847 5.583813 0.614132 39.000000
-10.670323 5.621062 0.614539 16.000000
-11.066845 5.919125 0.639508 3.666667
-11.046577 6.087997 0.642711 3.200000
-10.847301 6.134569 0.634996 6.000000
-10.744457 6.165795 0.631230 25.500000
-10.603916 6.218860 0.626396 27.000000
-10.584777 6.387754 0.629958 27.500000
-10.554438 6.528780 0.632384 29.000000
-10.536221 6.678859 0.635658 24.500000
-10.518883 6.831086 0.639101 26.000000
-10.499071 6.983595 0.642528 26.000000
-10.476173 7.135715 0.645887 28.000000
-10.458765 7.269076 0.649008 23.666666
-10.439732 7.427448 0.652858 27.250000
-10.415869 7.584322 0.656539 24.333334
-10.400594 7.724219 0.660136 25.666666
-10.390221 7.818230 0.662578 22.000000
-10.375771 7.910018 0.664817 25.666666
-10.354390 8.049118 0.668278 21.666666
-10.337536 8.193515 0.672145 23.666666
-10.318898 8.338278 0.676013 23.000000
-10.300486 8.485121 0.680016 24.000000
-10.280233 8.632334 0.684020 22.000000
-10.262145 8.783398 0.688294 22.000000
-10.241132 8.933987 0.692501 21.000000
-10.224137 9.090285 0.697115 23.000000
-10.206485 9.189963 0.699829 20.000000
-9.410601 15.231213 0.601129 15.500000
-9.396123 15.369178 0.604820 13.000000
-9.379398 15.505654 0.608444 16.500000
-9.355499 15.687891 0.613276 16.000000
-9.336383 15.824755 0.616901 14.000000
-9.320078 15.968718 0.620793 15.500000
-9.288769 16.088614 0.623746 7.000000
-9.456644 16.559212 0.640256 0.000000
-9.398489 16.885744 0.648846 0.000000
-9.331629 17.240452 0.658208 14.750000
-9.154691 17.268387 0.656229 17.500000
-9.120904 17.469112 0.661665 15.500000
-9.094486 17.620235 0.665759 13.000000
-9.077580 17.792892 0.670658 15.500000
-10.254036 17.890076 0.692335 2.000000
-10.118397 17.946411 0.691731 1.000000
-9.052211 17.951471 0.675020 10.000000
-9.044070 18.076349 0.678644 10.000000
-9.012745 18.228085 0.682738 12.500000
-8.999668 18.419401 0.688309 13.000000
-8.978370 18.523134 0.691127 10.000000
-8.955669 18.700451 0.696161 10.500000
-6.633299 -22.743050 0.795421 5.000000
-6.666249 -22.591732 0.790857 12.000000
-7.994379 -22.352007 0.797031 13.000000
-7.917445 -22.358170 0.796360 2.000000
-7.612700 -22.387766 0.793944 13.000000
-6.696157 -22.305426 0.781931 5.500000
-6.443341 -22.352751 0.781058 1.000000
-8.702770 -22.115911 0.797971 30.000000
-7.644419 -22.026024 0.782803 7.000000
-8.804377 -21.968021 0.794615 8.000000
-8.145026 -21.901312 0.784548 20.000000
-7.523227 -21.898697 0.777434 8.000000
-6.876574 -21.902927 0.770790 8.000000
-7.910054 -21.791702 0.778374 9.500000
-7.668609 -21.873631 0.778240 8.000000
-7.321223 -21.867977 0.774280 6.000000
-7.166196 -21.860376 0.772401 4.500000
-8.009857 -21.746727 0.778105 8.000000
-7.010946 -21.732231 0.766696 9.000000
-6.928051 -21.708450 0.765086 26.000000
-8.921218 -21.665968 0.786696 46.000000
-9.296174 -21.420622 0.784011 41.000000
-8.924824 -21.482777 0.781058 57.000000
-8.760972 -21.468100 0.778508 44.000000
-8.660508 -21.413982 0.775555 71.000000
-9.375061 -21.357082 0.783117 20.000000
-9.069771 -21.356817 0.779045 50.500000
-8.958274 -21.373518 0.778105 48.000000
-6.602838 -21.383163 0.751395 9.000000
-8.287630 -21.256668 0.766025 9.000000
-8.160310 -21.125975 0.760388 6.000000
-8.055323 -21.050695 0.756764 8.000000
-8.999730 -20.917242 0.764549 44.000000
-13.906112 -18.848017 0.786427 6.000000
-13.884215 -18.695114 0.781864 7.000000
-13.871071 -18.555344 0.777837 8.000000
-13.845169 -18.399870 0.773139 7.000000
-13.830495 -18.260675 0.769112 9.000000
-13.807809 -18.112225 0.764683 7.000000
-13.882310 -17.916271 0.760992 23.500000
-13.779464 -17.957748 0.759985 12.000000
-14.176541 -17.886345 0.766294 6.000000
-14.041512 -17.888439 0.763542 19.500000
-13.630860 -16.760817 0.725355 7.000000
-13.605589 -16.569759 0.719852 9.000000
-13.581553 -16.382315 0.714482 8.000000
-13.563801 -16.256685 0.710858 8.000000
-13.555676 -16.143581 0.707771 11.000000
-13.521655 -15.949952 0.702067 11.000000
-5.619263 -14.106253 0.773720 20.333334
5.600835 -13.718566 0.755051 154.000000
5.741713 -13.658996 0.754993 255.000000
5.894717 -13.602327 0.755400 255.000000
6.047743 -13.545239 0.755875 255.000000
6.156706 -13.503413 0.756214 255.000000
6.272124 -13.456758 0.756520 89.000000
-12.625324 -9.182984 0.795501 16.000000
-12.606504 -9.048738 0.790717 17.000000
-12.597916 -8.923165 0.786646 18.000000
-12.582874 -8.764984 0.781388 20.000000
-12.722585 -8.655898 0.784102 27.250000
-12.750376 -8.471452 0.780031 33.666668
-12.731293 -8.315306 0.774840 28.000000
-12.710431 -8.160052 0.769649 15.333333
-12.696477 -8.010916 0.764967 5.000000
-12.732270 -7.866710 0.762627 2.000000
-12.416413 -7.537429 0.740133 23.000000
-12.406307 -7.425130 0.736741 19.333334
-12.386636 -7.266089 0.731747 18.200001
-12.316602 -6.794708 0.716765 14.400000
-12.306066 -6.648372 0.712721 23.333334
-12.291470 -6.516264 0.708887 17.000000
-12.684737 -6.296756 0.721610 6.000000
-12.389784 -6.296572 0.708175 14.000000
-12.283096 -6.364289 0.704918 21.250000
-12.707246 -6.208753 0.720660 3.666667
-12.496979 -6.252568 0.712043 10.000000
-12.455873 -6.281003 0.710821 25.000000
-12.673647 -6.054870 0.715707 3.400000
-12.673516 -5.899037 0.712314 3.000000
-12.651028 -5.768116 0.708480 3.000000
-12.614674 -5.641823 0.704145 3.600000
-12.619772 -5.539690 0.702272 4.000000
-13.490071 -3.629797 0.711839 1.000000
-13.477469 -3.513214 0.709702 8.750000
-13.457830 -3.350471 0.706682 9.666667
-13.438299 -3.211417 0.704036 9.333333
-5.625712 -3.199739 0.783788 30.285715
-13.419945 -3.073615 0.701526 9.666667
8.604340 -1.939074 0.757399 30.666666
-11.609900 -1.396763 0.799656 33.000000
-11.591817 -1.247021 0.797269 38.500000
-11.571810 -1.097960 0.794881 34.250000
-11.551881 -0.949760 0.792629 43.250000
-11.532050 -0.802381 0.790514 36.250000
-11.510278 -0.691910 0.788536 49.000000
-11.681767 -0.628545 0.799998 33.500000
-11.696449 -0.224618 0.799997 5.500000
-11.676400 -0.077457 0.798497 7.750000
-11.653506 0.069140 0.796927 7.500000
-11.635162 0.233537 0.795822 8.000000
-11.609005 0.397251 0.794335 8.750000
-11.351960 0.531352 0.777142 53.500000
-11.327456 0.672959 0.775983 50.500000
-11.311595 0.832646 0.775628 63.000000
-11.290983 0.991793 0.775096 55.250000
-11.281921 1.080364 0.775027 66.000000
-11.272227 1.150949 0.774845 62.000000
-11.254562 1.274332 0.774550 59.250000
-11.233599 1.433082 0.774427 65.199997
-11.211074 1.591582 0.774345 57.500000
-11.191175 1.732478 0.774413 62.250000
-11.172455 1.873648 0.774686 56.750000
-11.161356 1.998216 0.775391 69.666664
-11.376008 2.147468 0.791674 16.666666
-11.440663 2.234200 0.797132 10.000000
-11.397101 2.337380 0.795604 10.800000
-11.359162 2.505503 0.795456 12.857142
-11.338823 2.642803 0.796177 12.250000
-11.320210 2.788927 0.797269 11.750000
-11.310345 2.937722 0.799111 10.500000
-10.847582 4.389303 0.800225 33.666668
-10.195559 9.267514 0.702068 19.500000
-10.180126 9.400618 0.706072 23.000000
-10.166725 9.537214 0.710312 19.000000
-10.150732 9.673286 0.714485 22.666666
-10.120258 9.827888 0.718828 21.666666
-10.103851 9.998700 0.724324 21.666666
-10.265720 10.287239 0.740541 2.000000
-5.625756 10.247594 0.799424 19.200001
-10.353294 10.473307 0.750413 1.000000
