# This PCD file was generated using the MATLAB® pcwrite function
# from Computer Vision Toolbox®.
# .PCD v.7 - Point Cloud Data file format
VERSION .7
FIELDS x y z intensity
SIZE 4 4 4 4
TYPE F F F F
COUNT 1 1 1 1
WIDTH 1232
HEIGHT 1
VIEWPOINT 0 0 0 1 0 0 0
POINTS 1232
DATA ascii
-7.183171 4.417389 1.625571 7.000000
-7.189294 4.452341 1.630113 0.000000
-18.654938 4.564831 1.649178 26.000000
-7.324157 4.599782 1.667213 24.000000
-7.255255 4.524786 1.648285 1.000000
-18.548586 4.662524 1.642334 32.000000
-18.538218 4.783956 1.644045 1.000000
-18.692474 5.012129 1.661841 1.000000
-18.283497 5.087647 1.629672 17.000000
-6.041743 5.111095 1.670266 0.000000
-6.052478 5.152883 1.677700 0.000000
-18.146666 5.234331 1.621800 19.000000
-18.011532 5.256706 1.611191 4.000000
-5.957702 5.285779 1.681004 8.500000
-5.858546 5.269493 1.663107 4.333333
6.813506 5.241471 1.657118 20.777779
-18.020155 5.382319 1.614956 13.000000
-17.926167 5.518230 1.610621 36.000000
-6.676628 5.435627 1.659642 8.000000
-17.857384 5.640696 1.608111 4.000000
-8.932636 6.006938 1.687227 65.000000
-8.852550 6.054662 1.681033 70.500000
-8.789909 6.125445 1.679264 62.285713
-8.791267 6.288393 1.694165 43.200001
-5.544045 6.648327 1.668727 12.000000
-5.344592 6.707020 1.653206 16.833334
-5.207802 6.770755 1.646619 23.600000
-6.353656 6.849306 1.632206 7.500000
-18.229740 6.979493 1.676214 63.000000
-17.955332 7.004102 1.654996 24.000000
-17.722084 7.073967 1.638569 16.500000
-18.252151 7.186029 1.684427 57.000000
-17.704441 7.185407 1.640737 17.666666
-17.158409 7.968309 1.624538 0.000000
-16.823366 8.071244 1.602294 15.000000
-17.856251 8.497873 1.698116 14.000000
-8.609159 8.485394 1.678428 10.000000
-17.524607 8.543533 1.674161 17.000000
-17.386797 8.544063 1.663552 17.000000
-17.248188 8.577093 1.654140 4.500000
-16.979490 8.610457 1.634805 9.000000
-8.512728 8.698987 1.689981 0.000000
-17.104948 8.741749 1.649521 5.000000
-8.338305 8.779037 1.681179 4.500000
-16.855286 10.211946 1.692299 21.000000
-16.816319 10.260694 1.691614 25.000000
-13.699580 20.627325 1.693326 18.000000
-13.652283 20.696915 1.695509 7.000000
-13.410530 20.897060 1.697965 6.000000
-13.340519 20.932360 1.697419 7.000000
19.671762 24.580650 1.604233 4.000000
19.855150 24.571634 1.609729 4.000000
19.962492 24.546329 1.612172 4.000000
-14.342665 28.003923 1.603215 22.000000
-15.047292 28.063068 1.622553 29.000000
-14.932773 28.060835 1.619704 20.000000
-14.809103 28.040489 1.615836 22.000000
-14.693113 28.033808 1.612783 30.000000
-14.518610 28.021091 1.608101 22.000000
-14.090615 28.162861 1.604640 67.000000
-14.053587 28.310753 1.610543 7.000000
-13.521175 28.347723 1.600366 1.000000
-14.003398 28.433611 1.615022 1.000000
-13.670751 28.431116 1.607490 1.000000
8.902169 30.169197 1.602808 1.000000
8.891236 30.484642 1.618075 1.000000
8.891686 30.846376 1.635785 1.000000
8.881194 31.177675 1.651865 1.000000
8.835155 31.389999 1.661636 1.000000
5.721595 31.704014 1.641586 9.500000
5.571098 31.724764 1.641281 8.000000
-2.682335 -35.019855 1.789674 6.000000
-2.870630 -34.620121 1.770132 12.000000
-5.843833 -25.252096 1.772466 6.000000
-5.168918 -25.203329 1.759367 5.000000
-5.558979 -25.095654 1.757729 4.000000
-6.133183 -25.064257 1.764552 4.000000
-6.673246 -24.276722 1.721707 8.000000
-6.607160 -19.827187 1.794624 0.000000
-6.638893 -19.715685 1.786410 8.000000
-5.085085 -19.577923 1.736959 2.500000
-5.344965 -19.444544 1.731654 1.000000
-5.282812 -19.457394 1.731312 5.000000
-8.746316 -18.989656 1.795308 4.000000
-9.405079 -17.510931 1.706843 12.500000
-4.596194 -16.318680 1.753180 3.000000
-4.495678 -16.354908 1.754002 0.000000
-6.066801 -16.226551 1.791444 17.000000
-4.774219 -16.263319 1.752768 4.500000
-4.660406 -16.252842 1.748448 8.500000
-6.364600 -16.017944 1.782392 3.000000
-6.075531 -16.019215 1.771695 22.000000
-6.852647 -15.919321 1.792267 4.000000
-6.790112 -15.911494 1.788975 17.000000
-6.225013 -15.909017 1.766620 21.000000
-6.107905 -15.903209 1.761683 24.666666
-6.305430 -15.582992 1.738367 7.000000
-6.808889 -15.547934 1.755237 4.000000
-6.508442 -15.520873 1.740425 4.000000
-6.392091 -15.561904 1.739739 15.333333
-7.668328 -15.420727 1.780952 8.500000
-6.348654 -15.410629 1.723555 31.000000
-7.073721 -15.232062 1.736722 17.000000
-6.903580 -15.240067 1.730138 28.000000
-6.882260 -15.192850 1.724790 14.500000
-6.932621 -15.051834 1.713681 31.000000
-8.442223 -14.598804 1.743922 39.000000
-8.378279 -14.647079 1.744951 30.000000
-14.448810 -14.323270 1.747054 2.000000
-5.423306 -13.838642 1.799986 7.500000
-9.060405 -13.756494 1.703394 6.000000
-14.727346 -13.623357 1.722757 0.000000
-9.291048 -13.635498 1.706275 11.000000
-5.446113 -13.581867 1.772094 2.000000
-4.970520 -13.619402 1.755744 3.000000
-5.041848 -13.168799 1.707654 35.000000
-15.390546 -12.619461 1.709068 1.000000
-15.499477 -12.466357 1.708041 0.000000
15.857283 -12.014534 1.708383 0.000000
16.068981 -11.938231 1.718992 4.000000
16.079395 -11.789900 1.712148 8.000000
16.333961 -11.819473 1.731312 23.000000
8.863896 -11.720205 1.779548 3.000000
16.378714 -11.695767 1.728232 18.000000
16.701599 -11.729383 1.752530 3.500000
-16.627008 -11.655331 1.743632 8.000000
8.656604 -11.634881 1.756225 5.500000
17.284931 -11.619370 1.788464 0.000000
-16.645714 -11.551835 1.739868 27.500000
8.604488 -11.564857 1.745645 13.000000
8.913205 -11.552157 1.767010 12.857142
16.775814 -11.559898 1.749450 6.000000
-16.814947 -11.474684 1.748081 0.000000
-16.667135 -11.450720 1.736446 15.000000
9.001743 -11.410476 1.760072 13.666667
11.983686 -11.447863 1.713818 10.666667
17.287552 -11.424974 1.779395 19.500000
13.229906 -11.291321 1.798645 5.000000
9.003882 -11.266864 1.746607 40.000000
9.326323 -11.265615 1.771132 33.500000
-16.710335 -11.022623 1.718992 19.000000
-16.612549 -11.033170 1.712490 1.000000
-3.401710 -10.881488 1.786950 15.000000
13.122602 -10.952754 1.767580 5.000000
12.541083 -10.874926 1.716561 46.000000
12.605329 -10.861444 1.720675 15.000000
-3.415236 -10.746693 1.767439 21.000000
6.098900 -10.688274 1.708685 13.000000
17.666689 -10.741522 1.775459 27.500000
-3.510299 -10.639075 1.755980 31.000000
-3.459496 -10.653611 1.755671 35.500000
9.724393 -10.645835 1.746126 13.000000
13.363008 -10.629349 1.765729 25.000000
17.340862 -10.655660 1.747739 7.000000
-9.363248 -10.483297 1.702204 29.666666
6.483368 -10.501457 1.713636 7.000000
9.597486 -10.573421 1.729295 50.000000
9.748880 -10.572132 1.741557 6.500000
12.777702 -10.495601 1.709978 24.500000
10.088521 -10.414118 1.755904 8.000000
10.220218 -10.331367 1.759911 8.333333
13.704598 -10.114981 1.761409 31.000000
17.136820 -10.090331 1.707699 0.000000
17.251274 -10.048628 1.714372 2.000000
8.266134 -9.938435 1.794897 21.000000
8.374386 -9.895726 1.800006 0.000000
18.008381 -9.891975 1.764337 26.000000
-10.442562 -9.782283 1.732821 11.000000
8.363447 -9.799280 1.788820 13.000000
14.443749 -9.383465 1.781158 5.000000
-8.023169 -9.367406 1.712536 33.000000
17.779976 -9.370352 1.725837 23.000000
8.625405 -9.210861 1.752145 27.000000
18.548670 -9.260153 1.780250 32.000000
14.544947 -9.148698 1.776906 32.000000
17.651373 -9.091057 1.704961 5.000000
18.534813 -9.180612 1.776144 18.000000
13.814856 -9.036746 1.707097 9.000000
14.673661 -9.080335 1.784450 1.000000
17.757908 -9.005205 1.709752 15.000000
18.028196 -9.071179 1.733023 7.000000
18.291727 -8.988752 1.750134 8.000000
11.585251 -8.931545 1.771533 0.333333
18.215677 -8.856909 1.739297 23.000000
-7.401896 -8.697199 1.790047 4.000000
-5.023388 -8.651872 1.747858 2.000000
-5.063128 -8.564584 1.738220 20.750000
-5.081408 -8.383799 1.712749 9.000000
-5.877149 -8.227302 1.766445 40.000000
-5.757780 -8.113973 1.738220 22.000000
-5.677298 -8.107993 1.729271 24.000000
-12.473829 -8.060424 1.798543 31.000000
-11.703397 -8.058561 1.720799 23.666666
-5.563535 -8.052768 1.709996 29.000000
-12.553961 -7.890359 1.795658 19.000000
-12.478781 -7.897902 1.788444 24.000000
-6.321596 -7.893439 1.766789 5.000000
-5.989605 -7.954249 1.739597 2.000000
-6.246371 -7.875311 1.756119 0.000000
-12.028114 -7.701209 1.729615 18.000000
-12.543694 -7.665718 1.780269 4.000000
-12.457771 -7.506144 1.761354 15.000000
-12.430768 -7.383787 1.750935 21.000000
-7.138551 -7.392185 1.795358 24.000000
-7.049592 -7.439116 1.790539 6.000000
-7.150207 -7.242972 1.778148 26.000000
-7.072020 -7.209351 1.764380 19.500000
-7.022730 -7.136410 1.749235 27.000000
-7.286060 -7.005598 1.765894 28.400000
-7.159077 -7.040144 1.754207 25.444445
-6.283764 -6.862323 1.793655 55.500000
-5.967014 -6.876377 1.755041 6.000000
-7.116428 -6.748519 1.713438 16.000000
-7.311078 -6.592138 1.719863 30.666666
-7.445628 -6.545748 1.732025 5.000000
-7.431528 -6.451051 1.719289 14.500000
-6.471070 -6.471113 1.764127 31.500000
-6.059018 -6.415848 1.701133 24.799999
-6.416084 -6.342588 1.739141 29.666666
-9.470851 2.863026 1.728583 10.000000
-7.953790 3.005430 1.794586 26.000000
-8.606779 3.098637 1.763369 12.500000
-9.352604 3.167493 1.725141 2.000000
-9.349781 3.248620 1.729271 13.000000
-8.508718 3.261079 1.756555 33.000000
-8.604660 3.328893 1.778512 28.000000
-9.564520 3.784913 1.797079 18.000000
-5.557027 4.091012 1.713201 8.500000
-8.098885 4.402828 1.776998 0.000000
-5.981330 4.388904 1.704042 3.000000
-8.095347 4.433908 1.779269 0.000000
-6.989384 4.420211 1.745436 7.000000
-19.763042 4.573561 1.741921 2.000000
-7.101948 4.585668 1.784260 32.000000
-7.937318 4.710963 1.779269 25.000000
-7.929223 4.739904 1.780784 1.000000
-6.611599 5.013022 1.751218 13.000000
-6.586675 4.961615 1.740480 13.000000
-5.819310 5.017779 1.764932 9.000000
-6.720812 5.179468 1.790869 24.500000
-5.915407 5.133127 1.798959 17.000000
-6.214582 5.324663 1.727263 7.000000
-6.002734 5.456266 1.712119 13.333333
-16.298241 5.717147 1.786095 71.000000
-15.816207 5.659904 1.737133 17.000000
-15.748823 5.775755 1.734664 7.500000
-5.797834 5.797801 1.730567 10.500000
-15.561471 5.846069 1.719029 9.000000
-5.715423 5.824237 1.722307 10.000000
-9.050393 5.983524 1.700544 23.500000
-4.474252 5.998190 1.718817 15.000000
-15.664702 6.110562 1.738779 18.000000
-19.099710 6.165352 1.723441 8.000000
-4.639640 6.159247 1.771200 0.000000
-19.228006 6.273541 1.736788 36.000000
-19.026531 6.274006 1.720361 19.000000
-19.467997 6.487468 1.762112 14.000000
-18.967049 6.586469 1.724125 15.000000
-18.676640 6.749793 1.705303 53.000000
-19.608139 6.878204 1.784357 15.000000
-4.587996 6.889804 1.747088 24.000000
-19.478235 6.970378 1.776486 36.000000
-19.063417 6.957360 1.742606 76.000000
-19.067640 7.026867 1.745001 65.000000
-19.135117 7.120088 1.753214 31.000000
-18.993172 7.169425 1.743290 37.500000
-18.586893 7.183273 1.711121 38.000000
-18.714664 7.436123 1.729259 15.000000
-7.775854 7.945834 1.742560 13.333333
-7.689110 7.956744 1.734301 12.000000
-7.536989 8.073959 1.731204 10.500000
-9.669428 8.151079 1.755996 10.500000
-7.740288 8.213793 1.768987 10.000000
-7.397293 8.361118 1.749786 0.000000
-7.378637 8.419649 1.754741 17.000000
-8.674181 8.680409 1.703917 8.666667
-8.662334 8.796409 1.714186 22.000000
4.876268 19.398907 1.717623 27.000000
4.817219 19.421865 1.718308 25.000000
-14.920179 20.453175 1.731258 11.000000
-14.905030 20.567802 1.736989 20.000000
-14.810024 20.572428 1.733442 8.000000
-14.777825 20.664295 1.737262 3.000000
-14.694244 20.730299 1.737626 8.000000
-14.637392 20.881079 1.743812 9.000000
-14.546631 20.890940 1.740810 4.000000
-14.647837 21.320717 1.768918 2.000000
-14.366016 21.338646 1.759094 10.000000
-14.562854 21.484999 1.774922 2.000000
-13.526721 21.978777 1.764825 77.000000
-13.826964 22.309290 1.794843 49.000000
-13.703164 22.422970 1.797027 44.000000
-13.632646 22.465914 1.797027 41.000000
-13.459064 22.497408 1.792751 49.000000
-13.359404 22.652630 1.798391 58.000000
6.030701 25.511635 1.792660 38.500000
6.195588 25.492626 1.794025 52.500000
6.460662 25.476152 1.797300 39.000000
6.613807 25.463623 1.799073 38.000000
5.699652 25.540609 1.789522 47.000000
5.864933 25.525684 1.791023 57.500000
3.691939 25.715656 1.776559 66.000000
3.773288 25.707878 1.776832 63.000000
3.896182 25.701618 1.777651 57.000000
4.059781 25.690426 1.778606 77.500000
4.222413 25.672283 1.779152 55.500000
4.385643 25.657051 1.779971 70.500000
5.602627 25.674440 1.797027 83.000000
2.634854 25.805254 1.773830 59.000000
2.771061 25.801655 1.774558 33.000000
2.878827 25.787207 1.774376 52.000000
3.001012 25.779266 1.774786 49.500000
3.164147 25.769804 1.775468 76.500000
3.325223 25.743479 1.775058 65.000000
3.488516 25.733940 1.775877 91.500000
3.610578 25.723177 1.776286 62.000000
4.548994 25.877853 1.796754 26.000000
4.633082 25.879147 1.797845 24.000000
4.714361 25.864464 1.797845 20.000000
4.839498 25.859577 1.799073 19.000000
2.127640 26.102236 1.790886 17.500000
2.291608 26.088352 1.790886 31.500000
2.454548 26.063503 1.790204 57.000000
2.574594 26.023882 1.788294 43.000000
1.964485 26.127028 1.791705 1.500000
-4.244672 -37.025131 1.898984 4.000000
-3.719927 -36.495312 1.869264 11.000000
-3.263164 -36.563049 1.870486 22.000000
-3.941421 -36.399731 1.865600 4.000000
-3.425617 -36.443817 1.865193 23.500000
-3.589558 -36.347797 1.861122 32.000000
-3.793224 -36.090126 1.849112 8.000000
-7.532506 -35.621056 1.855219 10.000000
-7.175931 -35.588646 1.849927 4.000000
-2.453262 -27.434202 1.883535 4.000000
-6.263972 -20.971962 1.879495 18.000000
-6.296403 -20.841543 1.869571 27.000000
-6.346710 -20.772112 1.865122 18.000000
-6.366049 -20.603571 1.851775 16.000000
-6.697101 -20.309601 1.836375 16.000000
-8.268388 -19.717869 1.836033 14.000000
-8.375383 -19.626371 1.832382 23.000000
-8.750774 -19.237419 1.814815 18.000000
-9.538380 -19.031097 1.827991 12.000000
-9.716402 -18.938583 1.827819 12.500000
-5.501991 -17.418280 1.888957 14.000000
-5.232346 -16.934168 1.832863 8.333333
-7.610211 -15.991038 1.831355 11.000000
-7.472467 -15.959265 1.822303 2.000000
-6.643166 -14.130192 1.890875 24.500000
-5.858407 -13.970715 1.834610 20.000000
-4.528074 -12.901269 1.898478 27.000000
-4.564611 -12.875777 1.896827 1.000000
-4.739790 -12.650249 1.875739 27.333334
-5.031931 -12.542617 1.876473 9.000000
-4.630102 -12.557188 1.858319 12.000000
18.513502 -12.110284 1.899686 18.000000
13.491564 -11.999440 1.867151 3.000000
13.492693 -11.887079 1.859539 9.000000
18.634056 -11.816349 1.894724 8.500000
-13.902549 -11.694592 1.878671 20.000000
13.484141 -11.767114 1.850693 17.000000
-13.753377 -11.643094 1.863448 29.000000
13.451905 -11.664739 1.841229 5.000000
17.440670 -11.644678 1.800784 21.000000
-10.281833 -11.236469 1.844469 3.000000
13.317877 -11.258465 1.803376 7.000000
10.329774 -11.027058 1.829801 3.000000
10.464832 -11.066236 1.844469 8.000000
10.507274 -11.006767 1.842785 4.000000
-7.737343 -10.759727 1.840165 9.000000
8.415762 -10.740741 1.894627 6.000000
-7.934027 -10.605633 1.839064 13.000000
-7.786447 -10.650615 1.831913 12.500000
8.446453 -10.664427 1.888942 5.666667
11.507274 -10.629767 1.897126 7.000000
18.782093 -10.587483 1.851433 13.000000
-7.841585 -10.551008 1.825311 37.000000
8.443316 -10.501367 1.870972 16.000000
8.518633 -10.527150 1.880324 127.000000
-8.740252 -10.468064 1.893527 73.000000
8.456590 -10.383596 1.859419 0.000000
-8.673689 -10.322258 1.872072 33.000000
-8.495378 -10.305717 1.854468 33.000000
-8.320642 -10.311873 1.839798 19.000000
-8.265715 -10.354281 1.839615 5.000000
-8.030344 -10.322862 1.815959 23.000000
-7.981589 -10.360584 1.815959 14.000000
10.688828 -10.350926 1.801909 6.000000
18.779829 -10.354198 1.841508 14.000000
-8.657466 -10.237478 1.861620 35.000000
-8.515063 -10.263729 1.851717 36.000000
-3.343288 -10.240910 1.882097 53.000000
18.326979 -10.217525 1.801810 37.500000
18.818493 -10.183603 1.837402 8.000000
19.377108 -10.212068 1.880864 2.000000
-8.307305 -10.142321 1.820360 18.000000
-8.250392 -10.137639 1.814859 24.000000
-3.797262 -10.102449 1.885539 4.000000
-3.708978 -10.107846 1.881064 13.000000
-3.614201 -10.144269 1.881408 10.000000
8.917942 -10.122526 1.873172 3.666667
-14.981915 -10.052244 1.865710 6.000000
9.018191 -10.043909 1.874272 21.666666
9.131946 -10.064069 1.886925 37.000000
-8.701563 -9.904762 1.830629 20.666666
9.152105 -9.959817 1.878123 58.000000
12.074600 -9.918173 1.892318 69.500000
-8.840353 -9.873518 1.840165 25.000000
11.574759 -9.722749 1.830643 22.000000
11.755698 -9.749373 1.849518 109.000000
11.976435 -9.743402 1.869716 47.000000
15.098735 -9.674617 1.854396 0.000000
15.112268 -9.616458 1.852339 22.000000
9.561014 -9.497802 1.871247 14.500000
9.697450 -9.542974 1.889126 45.000000
9.714599 -9.440437 1.880874 62.000000
12.431293 -9.480397 1.893279 2.000000
19.687151 -9.445177 1.875046 10.000000
-9.768346 -9.321796 1.874822 13.000000
9.242110 -9.326371 1.823111 22.000000
9.633057 -9.302537 1.859419 10.000000
19.345243 -9.356021 1.845273 5.000000
-10.041502 -9.227167 1.893527 36.000000
-9.573265 -9.193272 1.842915 35.000000
15.595096 -9.248651 1.874968 18.000000
15.737217 -9.266231 1.888546 5.000000
-9.346289 -9.103053 1.811558 24.000000
12.093863 -9.163117 1.837496 48.000000
15.086992 -9.162261 1.825320 34.666668
19.421669 -9.130885 1.842877 11.000000
19.912432 -9.095611 1.879837 38.000000
12.016092 -9.000637 1.818140 31.250000
12.790292 -9.072797 1.899050 27.000000
15.018880 -9.003022 1.810782 11.500000
15.871782 -8.990781 1.886351 24.666666
19.471743 -9.042611 1.843562 33.000000
-4.066681 -8.969119 1.898392 20.666666
12.217086 -8.957936 1.834610 2.000000
12.878491 -8.954119 1.899531 66.000000
15.417047 -8.883109 1.839995 6.000000
15.607203 -8.927482 1.859333 74.000000
19.337164 -8.906368 1.828162 28.000000
12.031301 -8.821686 1.806718 12.500000
12.202352 -8.829784 1.824031 12.000000
12.533075 -8.831289 1.856731 9.000000
15.265182 -8.859597 1.825183 14.000000
12.485934 -8.739499 1.845671 13.000000
12.682357 -8.700055 1.862502 2.000000
-6.075499 -8.448728 1.818075 9.000000
-12.436572 -8.344400 1.813691 18.000000
-12.559128 -8.227855 1.818260 9.000000
-12.452312 -8.242016 1.808402 3.000000
-12.531658 -8.153710 1.810566 24.000000
-5.084407 -8.095822 1.842869 19.000000
-11.277548 -7.589632 1.887475 16.000000
-11.426529 -7.508674 1.898478 15.500000
-7.156752 -7.481245 1.808782 26.500000
-11.508154 -7.331504 1.894627 21.000000
-11.612846 -7.194658 1.896827 14.000000
-11.504770 -7.228082 1.886559 38.000000
-6.349009 -7.178772 1.847412 0.000000
-6.932557 -6.998205 1.898897 1.000000
-6.851822 -6.974845 1.884764 20.666666
-6.775948 -6.970293 1.873911 35.000000
-6.409348 -6.933595 1.820155 58.000000
-6.639403 -6.872902 1.842112 39.000000
-5.648945 -6.872285 1.877603 18.000000
-7.054454 -6.750907 1.882240 37.000000
-5.844869 -6.714229 1.878842 2.000000
-5.641878 -6.776544 1.861082 19.000000
-7.143226 -6.658828 1.882492 19.666666
-7.055406 -6.667264 1.871261 25.500000
-5.784708 -6.582278 1.849518 10.000000
-5.631385 -6.623894 1.835016 27.222221
-7.402253 -6.505326 1.899654 33.000000
-8.051028 2.963048 1.810694 27.250000
-8.058303 3.088451 1.821432 34.000000
-9.052273 3.355724 1.861040 11.500000
-9.054783 3.585118 1.877318 25.000000
-8.634004 3.664025 1.808040 28.000000
-9.947025 3.990613 1.872459 6.000000
-17.459023 4.040365 1.853161 0.000000
-17.216539 4.098387 1.830120 3.000000
-9.930785 4.020367 1.871771 7.000000
-17.098080 4.297913 1.823126 14.000000
-17.284988 4.402680 1.844521 22.000000
-7.383799 4.413863 1.815650 9.000000
-7.599566 4.510500 1.865213 0.000000
-17.241837 4.521681 1.843287 32.000000
-16.883480 4.583980 1.809137 38.000000
-8.218932 4.535224 1.809555 14.000000
-17.084988 4.638680 1.830737 26.000000
-17.264494 4.804094 1.853161 22.000000
-7.478723 4.795726 1.875125 11.000000
-6.339148 4.783052 1.824032 12.500000
-7.527194 4.893823 1.894950 8.000000
-17.502079 4.929505 1.880317 16.000000
-17.383196 4.955013 1.869208 17.000000
-17.279617 4.984234 1.859745 16.000000
-5.724358 4.935905 1.876569 7.000000
-17.358589 5.125280 1.871677 37.666668
-6.095519 5.156587 1.833882 18.000000
-6.089643 5.217614 1.841941 21.000000
6.886781 5.187677 1.819780 0.000000
-17.413675 5.260815 1.881140 18.000000
-17.102772 5.284381 1.851104 31.000000
6.824008 5.224947 1.813998 27.750000
-17.431309 5.325955 1.884843 8.000000
-17.237995 5.385542 1.867562 39.000000
-7.194458 5.384099 1.896602 0.000000
-6.738840 5.323895 1.812621 21.333334
-17.115707 5.435990 1.857070 38.000000
-17.080952 5.533493 1.856727 23.666666
-16.568644 5.579184 1.807902 56.000000
-6.065240 5.539859 1.886803 11.900000
-16.697939 5.681186 1.823949 78.000000
-16.574652 5.697405 1.812428 59.000000
-17.224016 5.739689 1.877437 29.000000
-16.703257 5.800349 1.828475 41.000000
-5.850168 5.777111 1.888504 2.000000
-16.576475 5.873293 1.818600 36.000000
-5.690518 5.872161 1.878207 4.500000
-9.055429 5.986850 1.896553 24.000000
-8.942369 5.993147 1.880720 69.000000
-16.823629 6.080109 1.849870 25.000000
-8.857025 6.037284 1.872689 73.333336
-8.391298 6.074285 1.809814 4.000000
-16.890032 6.194232 1.860362 27.000000
-8.805103 6.124258 1.873836 61.799999
-8.665026 6.128459 1.854217 69.000000
-8.579888 6.169818 1.846300 46.000000
-16.817787 6.257820 1.855630 30.000000
-8.753133 6.252770 1.879343 41.000000
-5.250637 6.286380 1.881341 37.000000
-16.851376 6.360868 1.862625 16.000000
-16.850956 6.451608 1.865916 20.000000
-6.795498 6.441928 1.805012 0.000000
-6.783753 6.471377 1.807283 0.000000
-16.975342 6.560457 1.881963 6.000000
-7.992058 6.609282 1.811880 0.000000
-6.671162 6.594821 1.808293 27.666666
-5.532830 6.581995 1.814824 13.000000
-7.184520 6.641300 1.886025 14.000000
-6.728824 6.707717 1.831512 38.000000
-5.401436 6.720434 1.819780 2.000000
-6.512183 6.869611 1.824697 33.000000
-5.213274 6.943422 1.832584 6.000000
-19.932034 7.062218 1.815842 17.000000
-6.693249 7.060504 1.875426 0.000000
-7.848341 7.252389 1.866952 10.000000
-7.550576 7.337484 1.839416 6.000000
-7.862410 7.450723 1.892423 19.000000
-7.435451 7.598139 1.857314 1.000000
-16.192228 7.705957 1.854396 5.000000
-16.031937 7.712127 1.839721 34.000000
-15.797007 7.701299 1.817365 38.000000
-7.561582 7.678619 1.882785 13.000000
-15.804871 7.766686 1.821068 20.000000
-7.488879 7.749543 1.882785 12.000000
-16.013876 7.963347 1.849458 11.500000
-16.041664 8.103260 1.858510 17.500000
-16.081276 8.218585 1.867562 17.000000
-8.678289 8.249794 1.876762 6.000000
-9.986956 8.499565 1.820910 1.000000
-19.429350 8.654568 1.826450 25.000000
-19.847479 9.293011 1.881891 19.000000
-19.800163 9.346817 1.880180 21.000000
-19.893057 9.467199 1.891815 14.000000
-19.059559 10.198240 1.856224 2.000000
-13.968818 22.380848 1.804122 13.000000
-13.336560 22.777143 1.804941 36.000000
-13.325110 22.922430 1.813128 32.000000
12.039827 24.994524 1.897180 33.500000
12.167962 24.959074 1.898817 32.000000
11.698639 25.087790 1.892950 35.500000
11.868009 25.039030 1.894860 35.500000
9.338315 25.217663 1.838916 29.000000
9.601860 25.197521 1.843965 30.000000
9.777323 25.181335 1.847240 35.000000
11.278696 25.213804 1.888856 28.500000
11.450115 25.171501 1.891040 33.500000
11.574449 25.129988 1.891995 35.000000
8.344491 25.305466 1.822133 49.000000
8.430258 25.298056 1.823498 31.000000
8.561543 25.293919 1.826090 40.000000
8.733324 25.277348 1.828819 30.000000
8.864889 25.271725 1.831412 32.000000
8.949571 25.258795 1.832503 38.000000
9.035602 25.249342 1.833868 28.000000
9.165390 25.236452 1.836051 40.500000
9.477399 25.227581 1.842873 33.000000
10.845896 25.305321 1.882716 9.500000
10.974555 25.275932 1.884354 13.000000
11.103981 25.247643 1.886127 21.000000
7.157792 25.413568 1.805486 30.000000
10.051313 25.412565 1.868798 6.000000
10.282015 25.410566 1.874529 5.000000
10.363302 25.381834 1.874802 5.000000
10.499578 25.373241 1.877804 5.000000
10.672743 25.339867 1.880260 6.500000
6.780854 25.448559 1.800984 54.000000
6.950611 25.442022 1.803576 33.500000
7.074708 25.424398 1.804668 51.000000
8.311988 25.475721 1.832503 28.000000
10.193224 25.420519 1.872892 6.000000
7.519968 25.616650 1.825681 4.000000
7.692259 25.607113 1.828410 5.000000
7.821005 25.597332 1.830320 5.000000
7.947464 25.579210 1.831685 3.500000
8.120111 25.566803 1.834414 3.000000
8.253979 25.570066 1.837415 4.000000
7.352279 25.640373 1.824043 4.000000
5.420907 25.813301 1.803713 11.000000
5.544582 25.797256 1.804395 13.000000
5.004911 25.844332 1.800165 16.000000
5.129366 25.834192 1.801120 14.000000
5.254238 25.825344 1.802212 12.500000
4.827351 27.210539 1.889812 4.000000
5.001098 27.195374 1.890903 5.500000
5.132905 27.191145 1.892268 6.000000
5.261359 27.168577 1.892404 7.000000
5.436276 27.156504 1.893905 7.000000
5.567389 27.146257 1.894997 7.000000
5.699350 27.139214 1.896361 7.000000
5.830533 27.127697 1.897453 6.000000
-4.055459 -38.585129 1.976946 2.000000
-5.165689 -37.710457 1.939492 8.000000
-5.042424 -37.690865 1.937660 30.000000
-4.929678 -37.750095 1.939899 3.000000
-6.102101 -37.509590 1.936438 9.000000
-4.787338 -37.579140 1.930332 8.000000
-6.201605 -37.379887 1.930739 3.000000
-4.495934 -37.152401 1.906923 4.000000
-0.953887 -29.216164 1.998970 8.000000
-1.316974 -29.114166 1.992967 4.000000
-1.224830 -29.102211 1.991875 14.000000
-1.953646 -29.030386 1.989692 11.000000
-1.678110 -29.015638 1.987509 37.000000
-3.512071 -28.979784 1.996241 1.000000
-2.491897 -28.889008 1.982869 5.000000
-1.126719 -28.934444 1.980140 33.000000
-4.422428 -28.867002 1.997060 12.000000
-1.846085 -28.781500 1.972226 13.000000
-1.750796 -28.707491 1.966769 25.000000
-1.566681 -28.650185 1.962129 43.000000
-1.476056 -28.643009 1.961311 13.000000
-1.375455 -28.428274 1.946301 17.000000
-1.190765 -28.292818 1.936477 5.000000
-1.278383 -28.261032 1.934567 26.000000
-8.081369 -21.511526 1.973265 57.000000
-7.863240 -21.545555 1.969500 12.000000
-7.966694 -21.479153 1.967219 49.333332
-7.002876 -21.463383 1.938700 15.000000
-6.900694 -21.454565 1.935278 50.000000
-5.946629 -21.370422 1.904820 11.000000
-8.748516 -21.236017 1.972238 10.000000
-8.796834 -21.164267 1.968131 20.000000
-9.088997 -16.986483 1.992231 4.000000
-8.315465 -16.656393 1.925165 8.000000
-8.289064 -16.473803 1.907061 9.000000
-9.068752 -16.326843 1.931337 20.000000
-8.950707 -16.355581 1.928045 18.000000
-10.370110 -16.184155 1.987705 2.000000
-9.206506 -16.212971 1.928045 49.000000
-9.120239 -16.238817 1.925988 55.000000
-8.791127 -16.245354 1.910147 5.500000
-10.163283 -15.971606 1.957669 4.000000
-6.905749 -14.993489 1.999076 30.000000
-6.599215 -14.983479 1.982726 33.666668
-6.265624 -15.074438 1.976955 15.000000
-6.952819 -14.971720 1.999076 12.000000
-6.490560 -14.948667 1.973589 7.000000
-6.744768 -14.765882 1.965894 4.000000
-6.627888 -14.631459 1.945216 38.000000
-6.537012 -14.613558 1.938724 29.500000
-9.079785 -13.785919 1.999076 1.000000
-4.789348 -13.376126 1.972745 9.000000
-5.570131 -13.276758 1.999151 25.000000
-4.695270 -12.984701 1.917182 19.000000
-4.916918 -12.957504 1.924334 47.000000
-5.333667 -12.825933 1.928735 24.000000
-5.243620 -12.836227 1.925296 25.000000
-4.695270 -12.858237 1.900678 4.000000
10.102902 -12.400636 1.937041 1.000000
10.232013 -12.320141 1.939445 5.000000
10.529426 -12.332696 1.963810 4.333333
10.660807 -12.315752 1.972627 19.500000
10.823014 -12.345605 1.988256 1.500000
18.915737 -12.288717 1.936989 4.000000
19.046265 -12.204024 1.942464 6.000000
-14.829895 -12.159756 1.983179 57.000000
10.255302 -12.114053 1.922133 0.000000
-14.372719 -12.013196 1.937097 8.000000
14.017572 -12.001784 1.908295 9.000000
19.269499 -11.924324 1.945887 8.000000
19.677568 -11.921852 1.975660 5.000000
-14.303683 -11.803628 1.917759 12.000000
-14.232857 -11.820546 1.913233 15.000000
18.917385 -11.788780 1.914060 18.000000
8.486035 -11.409807 1.974395 2.000000
8.623138 -11.406019 1.985397 3.000000
8.686442 -11.377851 1.987598 4.000000
8.677063 -11.255190 1.973295 28.500000
-8.289049 -11.007932 1.913331 36.000000
14.915150 -11.081007 1.921462 38.000000
-8.321645 -10.943499 1.908930 33.500000
-3.564341 -10.802866 1.987423 13.000000
-3.321515 -10.803726 1.974687 32.000000
9.149023 -10.880222 1.973845 16.000000
15.614773 -10.783989 1.962401 7.000000
-3.597243 -10.698845 1.972003 40.799999
-3.402047 -10.685635 1.959198 39.666668
-3.247941 -10.713781 1.955928 40.500000
-16.078140 -10.678244 1.995934 48.000000
-11.914783 -10.611956 1.932232 48.000000
-11.878428 -10.646684 1.931751 0.000000
-3.109390 -10.671848 1.941988 35.200001
-3.037074 -10.647620 1.934416 9.000000
11.559730 -10.678206 1.905783 3.000000
11.687317 -10.627236 1.912996 25.000000
11.831724 -10.657073 1.928385 2.000000
-9.452143 -10.490302 1.960642 7.000000
9.072822 -10.518387 1.928735 10.000000
9.169116 -10.529280 1.938637 5.500000
9.623030 -10.538560 1.981547 61.000000
12.027578 -10.496024 1.933194 2.000000
-3.378921 -10.461338 1.920648 52.000000
9.388440 -10.478295 1.953490 1.000000
15.473607 -10.472482 1.932159 25.000000
12.131756 -10.365222 1.932392 11.000000
9.857473 -10.104814 1.960092 5.500000
9.317845 -10.076461 1.905630 67.000000
-3.040242 -9.910265 1.998271 46.250000
15.949192 -9.869657 1.939565 86.000000
-8.107014 -9.771883 1.990111 1.000000
13.057528 -9.764727 1.974550 3.000000
-12.542768 -9.641808 1.915881 1.000000
-12.471589 -9.649570 1.909630 18.000000
9.880347 -9.662046 1.918832 23.000000
-12.699378 -9.489935 1.919889 19.333334
-8.437172 -9.482992 1.989491 60.000000
-8.040541 -9.507962 1.951708 37.000000
-7.970234 -9.515464 1.945514 25.500000
9.919924 -9.499584 1.907097 26.000000
10.030893 -9.505661 1.918832 3.000000
10.147237 -9.555586 1.935336 22.000000
10.239945 -9.552242 1.944413 10.500000
-13.045064 -9.453462 1.950987 54.000000
-12.928679 -9.431213 1.938002 18.000000
-10.019877 -9.442260 1.911681 18.333334
10.231025 -9.454150 1.934236 6.000000
16.706263 -9.417336 1.983179 26.000000
-12.926451 -9.305713 1.928865 17.000000
-10.037558 -9.320945 1.901962 25.666666
15.975780 -9.339232 1.913644 17.000000
16.662849 -9.324003 1.974539 3.000000
-12.968539 -9.274300 1.930789 12.000000
-3.909292 -9.112267 1.911390 5.500000
12.774652 -9.122166 1.900974 14.000000
13.230039 -9.137019 1.947139 29.000000
16.379017 -9.097734 1.937508 32.000000
-3.968585 -9.053673 1.905585 13.500000
13.376767 -8.992203 1.951948 9.000000
16.392063 -9.004124 1.934011 8.500000
13.177442 -8.918446 1.926942 20.000000
13.338901 -8.906034 1.942330 23.000000
13.523929 -8.907233 1.961085 3.000000
-11.195839 -8.840685 1.980776 26.799999
-11.304244 -8.743216 1.984297 7.000000
-11.264214 -8.768953 1.982097 33.000000
-5.256565 -8.608258 1.944325 0.000000
-11.273993 -8.495565 1.960092 1.000000
-11.099177 -8.529017 1.943588 1.000000
-11.215488 -8.451296 1.949914 12.000000
-5.380849 -8.384620 1.920517 30.000000
-5.254324 -8.425026 1.914039 1.000000
-4.364241 -8.401521 1.998206 34.000000
-4.101957 -8.406537 1.974251 26.000000
-4.078422 -8.459265 1.982098 25.000000
-5.509778 -8.359192 1.929939 38.000000
-11.697158 -8.251439 1.987598 1.000000
-11.366144 -8.261138 1.951015 15.000000
-11.194225 -8.271148 1.932586 30.000000
-5.408196 -8.261444 1.903440 17.000000
-11.829318 -8.123985 1.992549 57.000000
-11.477359 -8.150505 1.954591 24.000000
-11.139412 -7.989719 1.903429 38.000000
-11.380196 -7.763045 1.912781 21.000000
-9.963309 -7.656182 1.969464 17.000000
-11.734763 -7.579947 1.939737 37.000000
-11.511615 -7.487162 1.906730 8.000000
-9.901274 -7.485551 1.945514 4.000000
-11.541758 -7.403988 1.903979 15.000000
-9.873178 -7.391455 1.933127 1.000000
-10.186419 -7.379174 1.971529 21.500000
-6.784222 -7.293031 1.920097 18.000000
-6.628935 -7.323567 1.904197 22.333334
-10.152268 -7.257599 1.956044 19.000000
-6.935670 -7.240067 1.932716 32.666668
-5.747431 -7.105089 1.928818 1.000000
-5.685741 -7.083325 1.917088 17.799999
-7.114624 -6.959861 1.918582 2.000000
-6.405856 -6.800106 1.971773 46.000000
-5.440769 -6.783955 1.997451 20.333334
-7.495663 -6.713627 1.939782 37.500000
-7.361984 -6.691812 1.917825 23.333334
-7.245087 -6.697290 1.901925 5.000000
-5.530980 -6.717768 1.998757 28.625000
-7.616793 -6.617911 1.945082 24.000000
-7.366944 -6.598386 1.906468 38.000000
-7.396490 -6.541559 1.903440 37.000000
-6.305781 -6.554895 1.919732 30.000000
-6.266428 -6.486819 1.903624 22.000000
-6.532422 -6.410388 1.931709 8.000000
-6.395550 -6.456129 1.918080 22.714285
-6.797339 -6.363063 1.965164 25.000000
-6.718933 -6.349296 1.951121 27.500000
-6.629403 -6.344053 1.936666 35.000000
-5.960463 -6.287494 1.989989 31.333334
-9.340526 3.214378 1.904197 17.000000
-8.021852 3.132429 1.978049 9.000000
-8.372053 3.545109 1.918906 14.000000
-9.105401 4.302160 1.941296 6.000000
-11.815807 4.504951 1.982059 4.500000
-6.307615 4.507487 1.924760 1.000000
-7.875399 4.865884 1.953875 21.333332
-6.271204 4.943816 1.982590 54.000000
-5.605149 4.925977 1.994300 0.000000
-5.572277 4.928203 1.988103 11.000000
-7.019199 5.082919 1.990586 14.000000
-6.901995 5.097890 1.970886 18.000000
-6.770187 5.033488 1.937754 16.000000
-6.612937 5.213217 1.934172 0.000000
-6.057453 5.140726 1.972470 0.000000
6.789180 5.215212 1.966408 22.333334
6.828415 5.160532 1.965961 24.500000
-18.511974 5.276767 1.990585 17.000000
-7.751300 5.232252 1.973838 0.000000
-6.432082 5.270225 1.909995 13.000000
-6.027514 5.297163 1.992228 15.000000
-11.296228 5.378346 1.960999 0.000000
-6.746169 5.352703 1.978049 73.000000
-5.733422 5.435112 1.961386 4.000000
-6.281292 5.520192 1.920740 13.000000
-17.555592 5.788964 1.911587 24.000000
-5.476024 5.886720 1.996083 44.000000
-5.029540 6.021669 1.947892 8.000000
-5.058870 6.213849 1.989337 20.000000
-8.248755 6.274804 1.997892 56.500000
-5.046646 6.238767 1.992228 24.000000
-4.695063 6.314998 1.953675 24.000000
-4.744934 6.381878 1.974397 31.000000
-17.796526 6.431716 1.956846 4.000000
-6.845992 6.481494 1.989780 37.200001
-10.749352 6.607876 1.977723 0.000000
-10.682361 6.520539 1.961619 14.000000
-10.481607 6.589407 1.940559 8.200000
-6.780030 6.590992 1.995728 5.000000
-5.556884 6.568754 1.976258 16.666666
-5.190857 6.584788 1.925934 8.600000
-7.899673 6.619203 1.986725 5.000000
-6.160410 6.622434 1.908993 33.000000
-5.501874 6.693273 1.990138 7.500000
-5.164971 6.680279 1.939545 3.000000
-6.272409 6.785453 1.950295 41.000000
-4.768507 6.807602 1.909100 34.000000
-5.192596 6.826118 1.969990 16.000000
-4.732041 6.908595 1.923427 6.000000
-5.013784 7.016106 1.980736 30.000000
-4.504309 6.975942 1.907309 6.000000
-7.496127 7.061526 1.985210 16.000000
-4.978412 7.036462 1.979840 13.000000
-7.454802 7.201530 1.998082 13.666667
-17.610571 7.254955 1.969601 25.000000
-6.955059 7.245071 1.935996 0.000000
-17.624430 7.325520 1.973716 35.000000
-17.539793 7.376619 1.967681 34.666668
-17.369114 7.444345 1.954172 35.500000
-17.291866 7.507956 1.949440 32.000000
-17.322865 7.586180 1.955612 18.000000
-9.595585 7.660053 1.924455 8.000000
-17.192528 7.723018 1.949029 0.000000
-17.067533 7.796231 1.940388 2.000000
-8.111935 7.760056 1.961263 13.000000
-7.917128 7.964265 1.961952 10.000000
-9.586344 8.106907 1.967813 7.666667
-9.029139 8.691948 1.964406 1.500000
-8.686837 8.629394 1.919190 0.000000
15.026812 24.714705 1.977957 17.000000
15.176530 24.698067 1.982324 31.000000
15.327486 24.682169 1.986826 19.500000
15.484991 24.675623 1.992148 30.000000
15.635311 24.656246 1.996514 21.500000
13.886547 24.816530 1.944664 23.000000
13.985997 24.811022 1.947666 32.000000
14.130430 24.793335 1.951486 22.000000
14.280973 24.785295 1.956125 30.000000
14.425747 24.765951 1.959946 21.500000
14.576699 24.756207 1.964585 30.000000
14.725876 24.742056 1.968952 20.000000
14.877258 24.730576 1.973591 32.000000
12.783466 24.916630 1.915055 34.000000
12.925545 24.903978 1.918739 33.000000
13.068733 24.892216 1.922559 33.000000
13.210216 24.876215 1.926107 29.000000
13.354683 24.864620 1.930064 32.000000
13.549817 24.852043 1.935658 27.000000
13.693738 24.836891 1.939479 34.000000
13.787200 24.821657 1.941662 22.000000
12.309290 24.949728 1.902501 32.500000
12.500674 24.941465 1.907823 34.000000
12.643332 24.932152 1.911643 34.000000
8.129481 26.909166 1.922286 5.000000
8.264399 26.897228 1.924197 5.500000
8.445200 26.882839 1.926926 6.000000
8.576642 26.857988 1.928017 6.000000
8.673236 26.868889 1.930746 5.000000
7.683929 26.956783 1.916828 6.000000
7.816437 26.939404 1.918193 5.500000
7.994641 26.920361 1.920376 5.500000
-5.695679 -39.721668 2.044731 5.000000
-5.573633 -39.759144 2.045748 2.000000
-5.938627 -39.641636 2.042491 5.000000
-6.129622 -39.232533 2.023357 11.000000
-0.407053 -29.520243 2.018892 28.000000
-3.946425 -29.459425 2.032537 9.000000
-1.052663 -29.408440 2.012342 17.000000
-0.728534 -29.388279 2.010295 27.000000
-3.830060 -29.289656 2.019984 7.000000
-2.063342 -29.286839 2.007703 1.000000
-0.866097 -29.354639 2.008249 10.000000
-0.559009 -29.378027 2.009340 19.333334
-4.081524 -29.078373 2.007976 28.000000
-7.476877 -28.601831 2.021621 4.000000
-7.156094 -28.659058 2.019983 6.000000
-7.308286 -28.505287 2.012342 7.500000
-5.436781 -23.833801 2.099203 25.000000
-4.888454 -23.097475 2.027336 3.000000
-5.313943 -19.096737 2.049834 9.000000
-8.673210 -18.005322 2.066703 7.500000
-9.038811 -17.686216 2.053948 21.000000
-9.600141 -17.542286 2.067937 9.000000
-8.839241 -17.430639 2.021032 0.000000
-8.709330 -17.309042 2.003751 11.000000
-9.231059 -17.122452 2.011569 21.000000
-9.353599 -16.965004 2.003340 15.000000
-3.881450 -16.772230 2.084835 13.333333
-4.437829 -16.447323 2.063035 6.000000
-4.498448 -16.364986 2.055341 0.000000
-5.795557 -16.036285 2.064958 3.000000
-4.635852 -16.071829 2.025685 15.333333
-6.243622 -15.713476 2.047646 4.000000
-6.621680 -15.652841 2.058226 22.000000
-6.367981 -15.457541 2.024563 5.000000
-7.301867 -15.219713 2.044280 11.000000
-7.331222 -15.037897 2.026006 12.000000
-8.295197 -14.715603 2.045723 0.000000
-8.351652 -14.653909 2.042597 56.500000
-8.378012 -14.540429 2.032258 17.000000
-9.045127 -13.827669 2.000999 1.000000
-6.216367 -13.716633 2.091021 3.000000
-6.147705 -13.765931 2.093359 14.500000
-5.319716 -13.630303 2.031608 14.000000
-5.275440 -13.643254 2.031058 24.000000
-5.171609 -13.500667 2.007402 32.000000
-15.651608 -12.427567 2.066703 19.000000
-15.735647 -12.333888 2.067526 29.000000
-15.404242 -12.310252 2.039136 28.000000
-15.190518 -12.296649 2.021032 28.000000
-15.022258 -12.238756 2.003751 21.000000
-15.540311 -12.180754 2.041879 31.000000
-15.142261 -12.179045 2.009512 27.000000
-15.769231 -12.043415 2.051891 8.000000
-15.649303 -12.029846 2.041193 19.000000
-15.463537 -12.042375 2.026793 8.000000
16.328911 -11.972851 2.093858 5.000000
8.882752 -11.865183 2.058014 4.000000
11.634724 -11.810683 2.007732 1.000000
16.300667 -11.795381 2.080692 5.000000
9.300734 -11.717932 2.077268 4.500000
11.649405 -11.751511 2.003885 4.000000
11.711664 -11.703484 2.005087 17.500000
16.250414 -11.681409 2.069583 0.000000
16.413313 -11.720473 2.085629 1.000000
9.457369 -11.612424 2.079469 0.000000
9.574175 -11.680710 2.097073 1.000000
11.917545 -11.613573 2.015186 10.500000
12.013560 -11.597311 2.022159 6.000000
12.879587 -11.564404 2.096217 7.000000
9.193062 -11.433861 2.037109 1.000000
11.960065 -11.419298 2.002563 5.000000
12.901362 -11.474514 2.090927 18.000000
-12.724183 -11.261365 2.057745 9.000000
-16.699474 -11.015459 2.068760 2.000000
-16.095354 -10.909665 2.010746 25.000000
12.420150 -10.953729 2.005488 34.000000
-10.430950 -10.801564 2.084970 16.000000
13.443007 -10.866520 2.093331 2.000000
13.515694 -10.820478 2.096697 33.000000
-10.162444 -10.723969 2.051412 29.000000
-7.817212 -10.727937 2.080542 31.000000
13.587852 -10.704110 2.094774 29.000000
-10.722231 -10.625360 2.095972 7.000000
-7.716581 -10.485686 2.040591 17.500000
16.719290 -10.492057 2.041193 12.000000
-2.967232 -10.395571 2.084016 4.000000
-3.242174 -10.364808 2.093481 39.000000
-8.338829 -10.246305 2.070632 6.000000
-8.234542 -10.183339 2.052670 34.000000
-2.952952 -10.264361 2.058905 19.666666
10.110690 -10.267184 2.000801 1.000000
-8.080236 -10.089380 2.026036 9.000000
-2.848709 -10.100762 2.023067 10.000000
13.754229 -10.085017 2.065439 51.000000
-8.183176 -9.990771 2.024178 10.000000
8.887205 -9.981794 2.094788 7.000000
-8.700833 -9.903951 2.066296 10.000000
-8.184360 -9.928422 2.016745 16.000000
8.769520 -9.975110 2.081781 2.000000
8.880673 -9.936586 2.088842 15.400000
14.177619 -9.923590 2.095736 7.000000
-8.679556 -9.817355 2.053908 35.000000
8.160556 -9.860931 2.006215 4.000000
8.260659 -9.823760 2.011790 1.000000
-13.934604 -9.702847 2.056302 3.000000
-13.722761 -9.748652 2.038509 15.000000
-11.234830 -9.752527 2.065716 14.000000
-10.675241 -9.717132 2.004377 8.500000
-8.825105 -9.732832 2.059277 40.333332
9.122252 -9.700638 2.087149 1.333333
-13.662782 -9.620239 2.023602 24.666666
-11.211412 -9.670604 2.055813 25.000000
-10.715466 -9.631319 2.000526 20.000000
-8.662657 -9.593968 2.026036 66.666664
11.671790 -9.560055 2.094872 44.000000
-13.635159 -9.430878 2.007732 27.000000
-11.356615 -9.428436 2.049487 23.500000
-10.949939 -9.385236 2.002451 20.000000
-9.269766 -9.390233 2.068154 9.000000
-8.956134 -9.391731 2.034088 4.000000
-8.894241 -9.444942 2.033468 22.000000
-8.689323 -9.462817 2.013648 12.000000
9.510470 -9.417969 2.097885 1.000000
11.600359 -9.440810 2.076718 11.000000
11.684155 -9.387591 2.081119 36.000000
-13.779320 -9.339823 2.015907 2.000000
-11.411159 -9.293432 2.043436 5.500000
-8.953456 -9.286109 2.021855 22.750000
9.492127 -9.340923 2.087356 40.000000
11.709648 -9.317614 2.077818 42.000000
-9.257742 -9.185638 2.044122 25.200001
-9.193961 -9.226110 2.041521 14.000000
-9.070682 -9.275622 2.033468 2.000000
9.438763 -9.210921 2.067122 16.333334
14.272263 -9.272058 2.061111 2.000000
14.625989 -9.242594 2.095255 12.000000
17.468264 -9.276312 2.045308 5.000000
17.592358 -9.271474 2.056417 15.000000
17.879780 -9.279802 2.083161 11.333333
11.604074 -9.144630 2.051412 0.000000
11.768113 -9.095432 2.065166 31.000000
11.816955 -9.153055 2.075434 16.333334
13.957271 -9.129905 2.019754 13.000000
-9.713863 -8.982548 2.073729 35.000000
-6.078653 -9.035767 2.099285 12.000000
9.763845 -9.060378 2.087769 13.000000
11.592192 -9.076376 2.044261 1.000000
17.769516 -9.046200 2.061971 10.500000
-7.710088 -8.944838 2.063147 33.000000
-7.579643 -8.962950 2.050756 0.000000
-4.168789 -8.968587 2.087419 0.000000
12.130340 -8.897587 2.088821 93.000000
17.824406 -8.968639 2.063411 1.000000
-7.750588 -8.878408 2.059017 67.000000
-7.652562 -8.878090 2.047773 20.333334
-6.275362 -8.781512 2.080609 26.000000
-6.118789 -8.853149 2.074552 39.000000
-3.987099 -8.793560 2.037856 16.000000
-3.857568 -8.838169 2.035378 2.250000
-6.293743 -8.749002 2.077581 1.000000
-6.190904 -8.721114 2.061681 15.000000
-4.782480 -8.699358 2.095267 7.500000
-4.491377 -8.780702 2.081637 58.000000
-4.000900 -8.750723 2.030835 39.000000
-6.027677 -8.663009 2.034424 59.000000
-5.992956 -8.584135 2.018146 24.000000
-4.071236 -8.616660 2.011423 14.000000
-6.270204 -8.517100 2.038778 27.500000
-6.182980 -8.538315 2.032153 2.000000
-4.787468 -8.517362 2.062225 6.500000
-4.397002 -8.529990 2.025466 52.000000
-4.169776 -8.545944 2.007017 31.333334
-8.038282 -8.429238 2.034923 3.000000
-6.347248 -8.453766 2.037831 11.500000
-4.749216 -8.449181 2.045704 33.500000
-4.430545 -8.464052 2.016379 54.000000
-11.943033 -8.326845 2.021568 44.250000
-12.165488 -8.242846 2.040410 11.000000
-12.375152 -8.048807 2.049762 19.000000
-12.398035 -7.627324 2.021156 31.000000
-12.396180 -7.519291 2.013124 29.600000
-12.409321 -7.394475 2.005752 21.000000
-5.415155 -7.355792 2.098040 23.500000
-6.736199 -7.241406 2.087419 27.000000
-6.427329 -7.191132 2.035654 38.000000
-5.569927 -7.188466 2.088787 21.333334
-5.440143 -7.269344 2.085503 21.000000
-5.658911 -7.155110 2.095353 52.500000
-6.601110 -7.051632 2.038682 39.000000
-5.512137 -7.037473 2.053267 7.000000
-5.613666 -6.851238 2.034463 13.000000
-5.942801 -6.719476 2.060431 49.000000
-5.825409 -6.720291 2.042820 15.000000
-5.649146 -6.720471 2.016554 13.000000
-5.857323 -6.664905 2.038044 11.000000
-6.371149 -6.411328 2.076101 28.000000
-6.262839 -6.422217 2.060431 32.000000
-6.172907 -6.390000 2.040731 24.000000
-5.958471 -6.405236 2.009390 24.000000
-5.869452 -6.441749 2.001715 23.142857
-6.328145 -6.308294 2.052372 34.000000
-6.272546 -6.291972 2.040731 29.500000
-6.090706 -6.344677 2.020135 29.000000
-6.402677 -6.263271 2.057297 25.500000
-6.373383 -6.234744 2.047894 29.000000
-8.506708 2.852881 2.060879 19.500000
-8.540268 3.006839 2.079683 12.750000
-9.108777 3.118397 2.032074 15.500000
-8.559943 3.096967 2.090876 2.000000
-8.998948 3.191954 2.015278 13.000000
-8.954194 3.239606 2.009771 5.000000
-8.436842 3.371090 2.086846 11.500000
-8.084208 3.363477 2.011181 0.000000
-8.116682 3.467083 2.027299 15.000000
-8.847495 3.583606 2.014727 10.000000
-7.224584 3.567457 2.000421 8.500000
-8.959373 3.661726 2.042813 12.000000
-7.292776 3.643996 2.024035 7.000000
-10.150292 3.817264 2.090452 11.000000
-9.052752 3.733122 2.066768 9.000000
-8.831254 3.805164 2.029596 29.000000
-8.236175 3.765599 2.080131 6.000000
-16.851507 3.955587 2.096216 0.000000
-9.101102 3.989421 2.097332 9.000000
-8.977556 3.968938 2.071724 49.000000
-8.851619 3.939861 2.044960 44.599998
-9.811149 4.045865 2.045781 16.000000
-8.781390 4.040869 2.040243 52.000000
-9.721138 4.188592 2.040481 34.000000
-8.800670 4.158179 2.054377 0.000000
-6.824617 4.316010 2.004758 0.000000
-6.225200 4.273664 2.018054 14.000000
-7.035397 4.418431 2.062587 0.000000
-8.899663 4.446912 2.099810 20.000000
-7.486736 4.491422 2.005361 8.500000
-8.385695 4.604268 2.019133 11.000000
-7.023878 4.693203 2.097285 9.000000
-6.062366 4.687219 2.048004 31.000000
-7.439281 4.803592 2.034015 22.000000
-7.332928 4.734809 2.004913 17.000000
-6.712816 4.845032 2.055359 18.000000
-6.511699 4.958775 2.032066 18.666666
-6.483686 4.980505 2.029817 4.000000
-5.906470 4.996659 2.067627 0.000000
6.789602 4.998295 2.093189 28.000000
-6.507935 5.031718 2.042347 20.000000
-6.442573 5.046177 2.031745 37.000000
-6.278527 5.057122 2.001545 9.000000
6.648602 5.090612 2.078973 32.166668
6.710492 5.021916 2.080900 33.000000
-5.563322 5.207886 2.036644 79.000000
7.101494 5.125442 2.011629 0.500000
-6.279236 5.278248 2.036564 10.000000
-6.087986 5.316505 2.006685 6.000000
6.615005 5.231871 2.093912 23.500000
7.004040 5.241598 2.009390 8.000000
7.110824 5.235003 2.028194 14.250000
-6.896294 5.401556 2.012076 0.000000
-6.414615 5.346332 2.073189 30.666666
-6.063185 5.362369 2.009577 39.000000
-5.662186 5.401423 2.091381 14.666667
6.918531 5.401582 2.016106 11.000000
-7.005528 5.451694 2.038940 20.000000
6.805478 5.434687 2.000436 0.000000
6.921225 5.473869 2.026851 7.000000
-6.295702 5.603355 2.092466 7.000000
-7.104018 5.673092 2.088190 47.000000
-6.128623 5.689000 2.076081 12.000000
-5.758222 5.716166 2.014396 24.333334
-11.606712 5.774250 2.031920 6.500000
-5.736989 5.773103 2.020661 1.000000
-16.301174 5.833452 2.096697 1.000000
-5.664999 5.846130 2.021143 30.000000
-11.429822 5.934787 2.018603 6.000000
-8.963422 5.989072 2.078086 42.333332
-8.855450 6.018143 2.063952 73.500000
-5.691109 5.965458 2.098625 38.666668
-16.170361 6.074815 2.091888 21.000000
-8.771522 6.103184 2.059914 59.333332
-8.388715 6.114916 2.001110 46.000000
-8.914424 6.119843 2.084395 14.000000
-8.732419 6.178327 2.062059 64.000000
-8.715765 6.249101 2.067359 53.500000
-8.608301 6.233660 2.048810 20.000000
-8.537297 6.264389 2.041238 3.000000
-8.363396 6.226056 2.009893 44.200001
-7.135752 6.310963 2.010597 2.000000
-8.268422 6.392868 2.014739 1.000000
-4.481807 6.376982 2.083119 15.750000
-15.536462 6.457664 2.037548 4.000000
-11.339183 6.488758 2.047714 2.000000
-11.281081 6.502638 2.040901 7.000000
-10.007448 6.503881 2.085176 27.000000
-9.944105 6.507239 2.076227 0.000000
-6.239194 6.499356 2.069385 28.000000
-5.918070 6.442622 2.009390 8.000000
-4.902139 6.465358 2.014396 30.000000
-4.261096 6.453651 2.066853 5.000000
-15.462667 6.541233 2.033219 25.000000
-6.245511 6.609076 2.088637 7.000000
-5.082476 6.594972 2.067166 20.000000
-7.241524 6.637983 2.073376 42.333332
-4.908566 6.704228 2.062909 27.333334
-18.831852 6.739067 2.068349 1.000000
-15.803622 6.744076 2.080828 2.000000
-18.805344 6.997381 2.074932 3.000000
-7.877604 7.011293 2.032910 25.000000
-6.642963 6.963618 2.031248 8.000000
-6.576148 6.991821 2.025879 22.750000
-4.433074 6.961148 2.029693 15.250000
-18.070379 7.048980 2.005809 3.000000
