# This PCD file was generated using the MATLAB® pcwrite function
# from Computer Vision Toolbox®.
# .PCD v.7 - Point Cloud Data file format
VERSION .7
FIELDS x y z intensity
SIZE 4 4 4 4
TYPE F F F F
COUNT 1 1 1 1
WIDTH 1215
HEIGHT 1
VIEWPOINT 0 0 0 1 0 0 0
POINTS 1215
DATA ascii
-6.888499 -17.982670 3.018304 2.000000
-13.317364 -17.743393 3.080419 4.500000
-12.979502 -17.464176 3.021281 3.000000
-13.325752 -17.241508 3.025682 8.000000
-13.247389 -17.251863 3.020181 12.000000
-13.345892 -17.045135 3.005877 6.000000
-14.113400 -16.903400 3.057589 5.000000
-5.443817 -16.854378 3.094377 4.000000
-15.008387 -15.639670 3.009728 17.000000
-15.082218 -15.618093 3.014679 1.000000
-12.056764 -15.398685 3.065378 28.000000
-11.979210 -15.399057 3.057945 10.000000
-8.981380 -15.247360 3.091623 0.000000
-5.013902 -15.187314 3.083057 0.000000
-13.017344 -14.817331 3.091392 7.000000
-13.155729 -14.646800 3.085818 13.000000
-13.251134 -14.613964 3.092012 6.000000
-7.007844 -14.135790 3.041415 1.000000
-6.822859 -14.208571 3.038386 12.000000
-13.878522 -13.666985 3.052990 21.000000
11.119455 -13.350718 3.035518 1.500000
11.280453 -13.287299 3.045156 2.750000
11.437268 -13.259560 3.059268 4.000000
-5.845794 -13.222925 3.051415 0.000000
-3.285298 -13.050395 3.091094 10.000000
-2.957095 -13.036711 3.070498 9.500000
-2.436575 -13.108278 3.062439 28.000000
-11.666143 -12.947474 3.044811 4.000000
-6.843612 -12.974579 3.096022 16.000000
-3.472999 -13.015808 3.094228 47.000000
-2.737429 -13.012898 3.054380 7.500000
-11.926420 -12.664862 3.039304 7.000000
-11.827819 -12.719277 3.034485 9.000000
9.562416 -12.529769 3.038386 1.000000
-5.023133 -12.514366 3.097362 23.000000
-4.953535 -12.454014 3.078557 8.000000
9.804246 -12.436627 3.052772 51.000000
-4.742235 -12.373306 3.043635 8.000000
9.685205 -12.365329 3.027786 23.000000
9.972695 -12.407963 3.068672 18.000000
-12.471089 -12.281004 3.057891 27.000000
-2.059845 -12.256786 3.085689 22.000000
-1.966929 -12.293679 3.090990 28.000000
9.618338 -12.240345 3.000908 20.500000
10.026958 -12.237472 3.049743 17.000000
-2.497743 -12.157282 3.081352 11.000000
10.020376 -12.151365 3.036115 1.000000
14.981734 -12.192701 3.027595 2.000000
18.497374 -12.187512 3.075743 17.000000
-8.043024 -12.037234 3.055545 0.000000
-7.933009 -12.059101 3.046577 48.142857
-3.270436 -12.028904 3.094845 36.000000
-2.908997 -12.033537 3.073641 4.000000
-2.808840 -12.061239 3.074605 23.333334
-2.691386 -12.085020 3.073882 17.500000
-2.368147 -12.104084 3.062075 19.000000
-2.189279 -12.094300 3.051473 42.500000
18.469267 -12.085951 3.064741 6.000000
-3.337613 -11.978201 3.087135 38.000000
-2.822690 -12.006161 3.062075 33.000000
-2.565992 -12.010090 3.049063 42.000000
-2.258140 -11.939442 3.016775 17.000000
-3.128780 -11.837742 3.039907 36.250000
-3.035800 -11.901287 3.049385 28.833332
-2.409531 -11.917734 3.018703 28.000000
-2.357688 -11.852901 3.000390 31.000000
10.499283 -11.871452 3.055043 72.000000
10.592215 -11.677488 3.039143 22.000000
10.631497 -11.647055 3.039901 6.000000
-3.916643 -11.498480 3.015811 13.000000
12.905710 -11.482415 3.017964 28.000000
-4.998294 -11.402650 3.090990 31.000000
-4.158215 -11.349506 3.000941 28.428572
10.755573 -11.381702 3.018701 13.500000
13.350125 -11.361849 3.062710 10.000000
19.090811 -11.164709 3.070792 1.000000
19.142923 -11.114625 3.073543 26.000000
11.292177 -10.942860 3.031193 14.000000
-9.387420 -10.886948 3.034068 30.000000
-9.367707 -10.795328 3.016721 28.000000
11.322030 -10.732944 3.007344 15.000000
14.054142 -10.791920 3.095753 16.000000
16.490442 -10.791043 3.088915 15.000000
16.448051 -10.689653 3.074669 9.000000
14.119231 -10.562535 3.080609 15.000000
-11.968657 -10.473995 3.065896 25.000000
-11.744524 -10.452964 3.030815 31.000000
16.592958 -10.344285 3.064758 1.000000
-8.207982 -10.278282 3.021249 10.000000
16.628731 -10.294188 3.065378 38.000000
-8.210925 -10.215981 3.010503 34.000000
-5.503057 -10.148093 3.085261 17.000000
-10.089359 -10.057711 3.006809 3.000000
-5.533105 -10.027382 3.060818 24.000000
-5.609476 -9.979715 3.059613 21.000000
-10.793538 -9.852400 3.084457 19.000000
-5.795594 -9.870552 3.059097 32.000000
-5.664347 -9.873909 3.042277 15.142858
-5.942616 -9.800838 3.063228 8.000000
-5.822779 -9.740631 3.032933 27.333334
-6.536562 -9.553555 3.093695 18.500000
-7.845959 -9.378622 3.035811 14.750000
-6.713570 -9.332608 3.072523 45.000000
-6.492531 -9.393909 3.051867 2.000000
-7.835349 -9.262043 3.011956 0.000000
-6.529191 -9.136710 3.001261 24.000000
-8.169196 -9.063264 3.029305 33.000000
-8.554626 -9.024152 3.087135 29.000000
-8.355202 -8.897386 3.030269 25.500000
-10.069484 -8.765673 3.066469 39.000000
-9.947576 -8.742234 3.041844 33.000000
-8.802405 -8.774865 3.085785 27.400000
-10.049022 -8.637374 3.043635 32.000000
-8.786611 -8.649664 3.061111 40.000000
-8.747486 -8.503639 3.028823 27.750000
-9.150340 -8.352420 3.075890 32.000000
-8.966280 -8.393310 3.049224 27.666666
-8.830677 -8.397534 3.025450 29.000000
-8.732176 -8.382639 3.005209 27.000000
-8.948490 -8.271899 3.025450 32.000000
-19.274773 0.269146 3.021401 14.000000
-19.212023 0.358850 3.011800 2.000000
-19.418234 1.310179 3.050512 1.000000
-19.371017 1.643644 3.047106 12.500000
-12.160891 1.672321 3.047618 7.000000
-12.273105 1.766395 3.078460 0.000000
-17.637564 1.860005 3.098507 8.000000
-17.459085 1.785746 3.066152 0.000000
-19.285688 2.095099 3.040602 0.000000
-19.146517 2.201779 3.020781 19.000000
-19.097736 2.439701 3.017684 2.000000
-11.125647 2.395290 3.041540 25.000000
-10.875444 3.122638 3.023983 2.000000
-18.958824 3.213450 3.013968 11.000000
-17.402920 3.458500 3.099884 0.000000
-11.810616 3.471586 3.056292 8.500000
-19.208515 3.504636 3.060422 36.000000
-19.224945 3.632595 3.066617 18.000000
-19.058073 3.787431 3.045557 10.000000
-19.064085 3.975750 3.052370 1.000000
-17.242350 4.050506 3.094377 23.000000
-19.172638 4.229471 3.077353 18.000000
-16.911907 4.226103 3.045500 27.000000
-17.090107 4.394403 3.082903 45.000000
-12.311634 4.630088 3.021249 1.000000
-10.236126 4.875803 3.030179 16.000000
-12.293732 5.160234 3.062439 0.000000
-11.134878 5.303908 3.062075 21.000000
-12.146484 5.507335 3.063335 0.000000
-9.869946 5.650286 3.039474 2.000000
-9.840891 5.716031 3.041540 2.500000
-9.670315 5.739532 3.005392 1.000000
-9.758643 5.945055 3.053933 21.333334
-9.743845 6.076881 3.069081 0.666667
-9.479738 6.205729 3.028114 15.000000
-10.396967 6.304070 3.018703 0.000000
-10.569282 6.454047 3.074605 1.000000
-9.580563 6.445156 3.085949 1.000000
-9.285040 6.657225 3.053417 5.000000
-17.791866 7.073052 3.000961 1.000000
-8.919897 6.986554 3.028114 10.000000
-8.832519 7.053430 3.020884 1.000000
-15.095950 15.819101 3.036134 3.000000
-15.190666 16.018822 3.065291 5.000000
-14.340611 17.054169 3.093897 0.000000
-13.534999 17.052452 3.022931 9.000000
-13.537790 17.166441 3.035584 4.000000
3.473595 17.141026 3.055551 22.400000
3.612476 17.106657 3.054587 26.200001
-13.694945 17.591932 3.095548 22.000000
-13.133833 17.601147 3.049337 15.000000
-13.046053 17.656490 3.048237 0.000000
-13.417731 17.690035 3.082895 3.000000
-13.321558 17.678307 3.073543 5.000000
-17.475037 17.926077 3.031715 3.666667
-17.543146 18.300241 3.070027 3.666667
-17.487715 18.492828 3.082290 3.000000
-17.234629 18.475401 3.059768 15.000000
-17.093287 18.478464 3.048387 1.000000
-16.713449 18.529625 3.021937 11.000000
-17.174887 18.684101 3.073393 10.000000
-17.085281 18.763346 3.073153 4.500000
-16.557962 18.827635 3.036364 21.000000
-16.475210 18.852654 3.032036 30.000000
16.893772 18.874756 3.067622 25.000000
16.974245 18.845194 3.071469 24.000000
17.177952 18.832052 3.086858 3.000000
-16.709139 18.879604 3.053195 3.000000
-17.028864 18.998980 3.089743 27.000000
16.922108 19.147156 3.094552 1.000000
-14.095534 20.936884 3.056562 13.000000
8.735497 23.364086 3.020735 43.500000
8.903336 23.364399 3.027948 38.500000
9.028359 23.361113 3.032998 40.000000
9.155745 23.362637 3.038769 39.000000
9.324436 23.359970 3.045982 40.000000
9.497947 23.367138 3.054638 34.500000
10.147036 23.370039 3.085415 26.000000
10.233149 23.367146 3.089262 22.000000
10.364097 23.365812 3.095514 23.000000
8.635589 23.432974 3.024342 9.000000
9.651805 23.428637 3.068584 3.000000
17.556612 23.425695 3.027297 23.666666
17.499449 23.554438 3.034428 6.000000
8.625916 23.635313 3.046944 7.000000
9.810709 23.603542 3.095514 1.000000
-16.809727 24.303505 3.055824 14.000000
-16.635462 24.295395 3.044920 18.000000
-16.468311 24.296175 3.035251 26.000000
-16.358564 24.298288 3.029079 12.000000
-16.186535 24.288963 3.018382 21.500000
-16.019297 24.285316 3.008507 20.000000
-15.880706 24.323875 3.003981 19.000000
-15.832895 24.502048 3.016736 30.000000
-15.813866 24.642076 3.027845 3.000000
-15.702152 24.637955 3.021262 2.000000
-15.542559 24.671528 3.015365 1.666667
-15.395519 24.666712 3.006861 2.000000
-15.292804 24.674370 3.001924 2.000000
7.767843 28.610149 3.065698 1.000000
-0.587930 -30.901558 3.196127 32.333332
-4.198848 -30.612608 3.195304 8.000000
-4.041500 -30.533407 3.185018 41.000000
-3.893536 -30.520578 3.181727 32.000000
-3.792722 -30.493176 3.177612 15.000000
-3.692596 -30.469391 3.173909 20.000000
-3.594057 -30.457132 3.171441 5.000000
-3.493823 -30.428747 3.167326 21.000000
-5.954021 -29.987595 3.161566 28.000000
-2.206457 -29.974627 3.108078 2.000000
-2.112836 -29.989347 3.108900 3.000000
-5.799536 -29.697657 3.129061 19.000000
-10.102320 -29.091633 3.184607 1.000000
-10.930036 -28.548157 3.161154 5.000000
-5.316137 -25.513626 3.156107 1.000000
-5.196066 -25.335701 3.132062 43.000000
-2.633731 -22.285622 3.115902 6.000000
-6.713936 -21.960289 3.188519 3.000000
-5.083885 -21.950802 3.128555 5.000000
-6.023173 -21.896833 3.153311 2.000000
-4.991971 -21.866240 3.114252 10.000000
-5.195998 -21.810511 3.113152 0.000000
-5.825918 -21.712299 3.121403 1.000000
-1.871852 -20.177952 3.176249 5.000000
-1.774991 -20.166843 3.173152 15.500000
-1.546191 -20.094542 3.158906 6.000000
-2.551872 -19.975792 3.156429 10.000000
-2.061553 -19.847572 3.127627 20.500000
-1.907308 -19.880877 3.130414 20.000000
-2.592554 -19.799192 3.129795 30.000000
-1.958454 -19.760746 3.112452 19.000000
-4.679644 -17.661810 3.192130 4.000000
-5.937379 -17.262980 3.189376 45.000000
-5.644852 -17.199146 3.162529 2.000000
-5.493979 -17.194187 3.153579 0.000000
-4.922482 -17.155396 3.118127 5.000000
-6.287454 -16.727665 3.122085 18.500000
-15.433313 -16.492397 3.136257 3.000000
-11.712609 -16.396244 3.158287 1.000000
-11.770472 -16.047022 3.119265 9.000000
-3.048414 -15.980309 3.136057 3.000000
-3.933289 -15.834417 3.145142 36.000000
-3.525620 -15.889916 3.137571 1.000000
-3.462263 -15.839520 3.125457 6.000000
-3.983016 -15.821982 3.145142 0.000000
-12.271403 -15.571795 3.107497 27.000000
-9.907197 -15.244099 3.176297 4.000000
-13.990211 -14.856436 3.198547 4.000000
-2.977510 -14.727006 3.171192 42.000000
-2.875134 -14.819084 3.186061 15.500000
-3.022187 -14.709912 3.169540 8.000000
-11.243958 -14.176177 3.161152 0.000000
-14.526744 -14.038115 3.166339 37.000000
-11.131108 -13.943699 3.117094 19.000000
-11.357878 -13.866738 3.131551 15.000000
-11.264931 -13.871333 3.121913 21.666666
-1.958292 -13.759417 3.192280 18.000000
-12.355314 -13.455142 3.191442 19.000000
-11.972201 -13.456203 3.146695 3.000000
-1.613439 -13.450790 3.111689 18.500000
11.914009 -13.381394 3.130174 7.000000
12.041512 -13.396832 3.147039 10.500000
-12.058786 -13.298987 3.136369 37.000000
-11.906648 -13.298167 3.118471 16.000000
-12.416062 -13.102109 3.153579 38.000000
-3.600444 -13.080241 3.116166 0.000000
-3.550128 -13.057630 3.108107 26.000000
-3.418767 -13.115453 3.113182 25.666666
-3.337844 -13.085340 3.101839 21.000000
10.020448 -13.044754 3.170885 4.000000
10.109428 -13.075355 3.186028 6.000000
-12.514360 -12.958999 3.147384 35.000000
-12.404620 -12.980616 3.136828 31.000000
-12.569759 -12.894238 3.146007 13.000000
-1.906384 -12.680216 3.183517 17.000000
-1.817828 -12.630463 3.168096 21.000000
18.923199 -12.696707 3.164130 9.666667
-5.201790 -12.614236 3.134075 42.000000
-5.110736 -12.560938 3.114823 44.000000
-1.892746 -12.589947 3.160867 20.000000
-2.314268 -12.450291 3.144000 25.000000
10.741700 -12.457562 3.170885 2.000000
-1.936113 -12.349657 3.103519 30.000000
13.313766 -12.380579 3.176297 9.000000
-2.367514 -12.305888 3.111230 14.000000
10.724172 -12.280362 3.142871 45.000000
13.312080 -12.301252 3.166659 12.000000
10.549107 -12.156769 3.102743 97.000000
10.690102 -12.164003 3.121671 84.000000
-3.408948 -12.087220 3.117977 19.000000
-3.321604 -12.067228 3.107375 40.000000
13.220226 -12.101321 3.131206 8.500000
13.776225 -12.026238 3.194884 24.000000
19.072092 -12.056876 3.132956 13.000000
13.789736 -11.936591 3.186393 41.000000
13.903921 -11.908683 3.198326 3.000000
16.463179 -11.786545 3.173565 35.333332
16.300829 -11.567273 3.132892 38.000000
16.485662 -11.620742 3.161384 7.000000
-7.884193 -11.407476 3.185116 6.000000
14.297341 -11.303539 3.184213 30.500000
14.339620 -11.227538 3.181804 17.000000
19.524435 -11.254273 3.129105 52.000000
-12.564647 -10.834037 3.198142 39.000000
14.245991 -10.832854 3.126732 9.000000
-12.417822 -10.775638 3.169371 35.000000
-12.221566 -10.808925 3.145142 24.000000
10.570279 -10.771383 3.185235 5.000000
14.362976 -10.815422 3.141188 19.000000
16.861427 -10.733643 3.132892 1.000000
16.870010 -10.627714 3.125149 15.500000
12.549371 -10.582554 3.164449 9.000000
12.757527 -10.565199 3.193094 27.333334
17.135672 -10.533693 3.152712 22.000000
19.987309 -10.538112 3.137357 18.000000
12.591590 -10.517004 3.162556 18.000000
19.995743 -10.462409 3.133506 34.000000
-10.846027 -10.153084 3.135672 30.000000
-11.013292 -10.116604 3.156323 15.000000
-6.611917 -9.841862 3.168778 42.400002
-9.887566 -9.703007 3.181982 17.500000
-9.889907 -9.614156 3.168103 19.000000
-6.935737 -9.546300 3.153596 26.500000
-7.108245 -9.498331 3.170637 29.000000
-7.151183 -9.339798 3.143785 30.500000
-7.042215 -9.369015 3.132424 34.666668
-6.934446 -9.409180 3.123818 29.333334
-7.223917 -9.313018 3.149982 11.000000
-8.999616 -9.084838 3.174843 2.000000
-8.802176 -8.941539 3.115085 24.000000
-10.462088 -8.888103 3.153178 31.666666
-9.328556 -8.408320 3.117977 36.000000
-17.863052 0.473997 3.121913 13.000000
-18.027557 0.634247 3.151514 10.750000
-18.062052 0.763337 3.158398 8.000000
-18.228823 0.827769 3.187999 1.000000
-18.269426 0.887131 3.195572 35.000000
-17.814976 2.048656 3.132927 14.000000
-11.470619 2.020515 3.112802 25.000000
-17.738016 2.096295 3.120536 7.000000
-11.694222 2.173729 3.178900 13.000000
-17.788536 2.187313 3.131206 9.500000
-11.460237 2.204819 3.118998 24.000000
-17.905622 2.344600 3.154956 4.000000
-17.838636 2.278853 3.141876 4.000000
-17.962296 2.610843 3.171134 8.000000
-18.019564 2.734826 3.184213 1.500000
-17.855528 2.853600 3.159087 7.000000
-17.904810 2.919188 3.169413 5.000000
-12.210890 2.951869 3.118941 9.000000
-19.946112 2.995206 3.161384 5.000000
-17.975285 3.474512 3.198555 15.666667
-17.421158 3.547542 3.106080 14.500000
-19.451387 3.759850 3.105225 31.333334
-17.655910 4.069686 3.165512 4.666667
-11.159558 4.037501 3.171670 6.000000
-17.421190 4.150317 3.128797 30.000000
-17.281673 4.174492 3.106080 7.000000
-17.521070 4.290617 3.151514 37.000000
-11.815276 4.358887 3.126651 1.000000
-19.751081 4.443855 3.173152 21.000000
-17.357100 4.598912 3.137058 0.000000
-19.243744 4.744517 3.106567 16.000000
-19.242271 4.840464 3.109974 27.000000
-11.790583 4.818851 3.162313 3.000000
-19.232628 4.934495 3.112142 27.000000
-19.291376 5.046602 3.125459 18.000000
-11.585636 5.035175 3.136290 32.000000
-10.759942 5.042613 3.175801 2.000000
-19.238722 5.129795 3.120813 5.500000
-12.573694 5.161964 3.121987 14.000000
-11.776710 5.184380 3.194601 18.000000
-11.444882 5.319823 3.133398 19.000000
-12.701066 5.378210 3.168103 2.000000
-10.546812 5.457570 3.173736 3.000000
-12.179698 5.895766 3.108107 0.000000
-17.206741 6.039207 3.185934 3.000000
-16.968567 6.015551 3.145319 1.000000
-10.644851 6.546197 3.102556 0.000000
-9.925768 6.617199 3.188195 13.000000
-15.737317 15.980896 3.114252 12.000000
-16.077749 16.429531 3.191819 1.000000
-15.864080 16.416258 3.169814 5.000000
-6.986434 16.419121 3.117438 5.500000
-15.743488 16.706581 3.187418 7.000000
-14.842954 16.883484 3.121403 13.000000
-15.408730 17.053192 3.191269 0.666667
-14.758319 17.328701 3.160462 6.000000
-14.187962 17.309637 3.107651 1.000000
-14.156033 17.381769 3.112602 1.000000
-13.697790 17.710083 3.108751 1.000000
-14.106907 18.004154 3.175866 62.000000
17.198713 18.974192 3.101285 11.000000
-17.045681 19.138384 3.103689 3.000000
17.034956 19.153242 3.104170 10.000000
-18.018061 19.234314 3.191693 1.000000
-17.753752 19.559063 3.198906 6.000000
19.055902 23.273478 3.110546 19.000000
19.174469 23.268766 3.117952 19.000000
10.537647 23.359955 3.103449 25.000000
10.666567 23.351622 3.108979 22.000000
10.803164 23.358727 3.116673 28.000000
10.982676 23.360458 3.126051 24.500000
11.112245 23.349722 3.131581 23.000000
11.247158 23.348928 3.138554 22.000000
11.426805 23.345570 3.147691 25.500000
11.564000 23.346659 3.155145 21.000000
11.702365 23.348667 3.162839 25.500000
11.884873 23.345451 3.172457 24.500000
12.022015 23.342184 3.179671 21.000000
12.162163 23.343338 3.187605 21.500000
12.348518 23.341927 3.197944 20.000000
18.894619 23.299637 3.102112 15.500000
18.855646 23.476854 3.113838 32.000000
9.988215 23.610922 3.104651 1.000000
10.124193 23.587481 3.108498 16.000000
18.858732 23.632385 3.126593 5.000000
-10.650434 24.170525 3.198666 7.500000
-10.465210 24.160446 3.188567 7.500000
-10.327020 24.152945 3.181113 3.000000
-10.147381 24.151455 3.172457 6.000000
-10.015219 24.154945 3.166686 4.000000
-9.878704 24.146786 3.159473 3.000000
-9.756636 24.172783 3.156828 0.500000
7.671478 29.158909 3.117952 1.000000
2.003983 -38.366310 3.299041 6.000000
2.359099 -38.242302 3.290143 6.000000
2.482841 -38.290379 3.294935 11.000000
2.197491 -37.541344 3.229227 14.000000
-0.836044 -31.715796 3.280886 21.000000
-1.322400 -31.420483 3.252084 8.000000
-2.005105 -31.260715 3.239329 7.000000
-1.906159 -31.254948 3.238095 22.000000
-1.806579 -31.236950 3.235626 28.000000
-1.412655 -31.229362 3.232746 6.000000
0.158008 -31.217129 3.228220 3.000000
0.256073 -31.216480 3.228220 15.000000
-1.015052 -31.089558 3.216700 5.000000
-0.917609 -31.100546 3.217523 18.000000
-0.718307 -30.938635 3.200242 33.000000
-1.563674 -27.036955 3.279696 16.000000
-4.367291 -26.816195 3.290276 3.000000
-1.774428 -26.367281 3.200349 3.000000
-5.685289 -26.251141 3.252766 12.000000
-8.609610 -25.836266 3.297971 58.000000
-8.533373 -25.878271 3.299894 2.000000
-6.393550 -22.594185 3.260401 40.666668
-6.275793 -22.538105 3.248482 25.000000
-6.935024 -22.431168 3.260035 2.000000
-7.155772 -22.395002 3.264436 5.000000
-7.037092 -22.386868 3.258384 41.000000
-9.516838 -21.355099 3.246282 4.000000
-4.050861 -20.383652 3.257390 5.000000
-3.976189 -20.341978 3.248718 1.000000
-2.928298 -20.371340 3.225801 0.000000
-4.089058 -20.242998 3.236950 1.000000
-4.646417 -17.992260 3.246514 5.000000
-4.675990 -17.874651 3.227927 19.000000
-7.772848 -17.008776 3.267166 27.000000
-13.540197 -15.708625 3.250576 2.000000
-14.254543 -15.425881 3.292076 8.000000
-13.992194 -15.334152 3.253673 5.000000
-7.969229 -15.108600 3.292784 14.000000
-3.587477 -14.840180 3.222407 14.000000
-14.924047 -14.604505 3.272874 31.000000
-8.385032 -14.383867 3.209499 2.000000
-14.638389 -14.235209 3.200405 29.000000
-12.269821 -14.055254 3.259594 14.000000
-12.301524 -13.943523 3.248579 18.000000
-1.905612 -13.857344 3.212875 23.000000
10.146157 -13.736801 3.292027 14.000000
9.792557 -13.612917 3.232592 10.500000
-4.799985 -13.266939 3.240634 8.333333
-5.574303 -13.164164 3.283616 45.000000
-1.623507 -13.149820 3.289538 18.400000
-5.649691 -13.055542 3.267498 21.500000
-5.578880 -13.060545 3.262125 42.000000
-2.255529 -13.044545 3.286646 1.000000
-1.628452 -13.055415 3.266406 26.000000
-7.880068 -12.965569 3.202307 9.666667
-5.389647 -12.954171 3.222725 100.000000
-1.736434 -12.927908 3.238455 31.000000
-1.697832 -12.948696 3.242311 24.000000
10.545623 -13.008833 3.228175 3.000000
10.629373 -12.972692 3.232970 4.000000
-7.965784 -12.907715 3.201343 13.500000
-2.096219 -12.842999 3.230745 21.000000
-1.791672 -12.879198 3.228335 29.000000
10.661255 -12.873467 3.222118 16.666666
10.826931 -12.880191 3.243570 20.000000
13.559726 -12.849718 3.263724 22.000000
-2.248010 -12.762118 3.217251 10.000000
10.820429 -12.655684 3.209751 3.000000
11.048336 -12.413462 3.203442 1.000000
11.116104 -12.410873 3.211770 15.000000
9.756826 -12.217790 3.300055 0.000000
-1.838166 -12.118460 3.275809 24.416668
-8.024379 -11.887669 3.294361 47.000000
-7.913900 -11.884295 3.279586 44.000000
-7.845990 -11.903589 3.274661 33.000000
-3.551947 -11.742325 3.278666 20.600000
-3.031807 -11.782503 3.251539 25.000000
16.855507 -11.802355 3.225181 0.000000
16.928190 -11.774164 3.231994 10.000000
16.965994 -11.642971 3.225181 2.000000
-3.571290 -11.544100 3.229506 24.000000
14.358919 -11.573768 3.222075 5.000000
-7.879817 -11.516918 3.205264 39.000000
10.646768 -11.445262 3.299229 0.000000
12.598546 -11.500020 3.288241 19.000000
14.350183 -11.455602 3.207963 2.000000
16.911194 -11.449739 3.201025 3.000000
17.140535 -11.448611 3.230756 0.000000
-12.615120 -11.370674 3.273855 60.000000
10.706530 -11.389353 3.299229 12.000000
14.759058 -11.407097 3.258905 16.000000
14.857325 -11.408669 3.272673 1.000000
15.068062 -11.346357 3.295391 13.000000
16.970036 -11.411990 3.205361 5.000000
-6.677403 -11.130629 3.222552 1.500000
-6.591238 -11.185231 3.223275 13.750000
12.509386 -11.180724 3.234232 11.000000
12.688253 -11.174417 3.259218 41.333332
12.772288 -11.130148 3.265779 20.666666
-12.396244 -11.103004 3.207985 16.000000
12.871031 -11.098218 3.276127 11.000000
14.939816 -11.103380 3.252021 20.000000
-12.835835 -10.928013 3.249627 1.000000
-12.789507 -10.958066 3.246599 23.000000
11.083729 -11.014286 3.297990 12.500000
11.152733 -10.944409 3.297990 7.000000
10.870066 -10.904266 3.249666 0.000000
12.722189 -10.831263 3.220856 3.000000
17.444738 -10.875297 3.222084 22.000000
10.692527 -10.793778 3.206712 1.000000
17.472252 -10.665109 3.208457 10.000000
-9.633401 -10.620435 3.293466 18.000000
10.938838 -10.611617 3.216624 10.000000
-11.233206 -10.449508 3.238102 29.000000
13.070361 -10.471359 3.228427 19.000000
-11.182633 -10.337121 3.214146 5.000000
-9.056376 -9.257757 3.215323 3.000000
-8.043297 -9.152271 3.256358 1.000000
-7.943706 -9.134949 3.235358 1.333333
-8.041288 -9.092219 3.243965 1.000000
-9.811121 -8.759855 3.265442 21.000000
-18.377428 0.545432 3.212094 41.000000
-18.438147 0.982471 3.225862 13.000000
-18.675476 1.112823 3.268543 25.000000
-18.791948 1.208633 3.289883 3.000000
-18.819357 1.329182 3.296079 0.000000
-11.824103 2.140274 3.211432 10.500000
-18.722183 2.481463 3.299521 7.000000
-18.097977 2.834071 3.200391 22.000000
-18.241488 3.150855 3.234123 69.000000
-18.080151 3.181511 3.207275 51.000000
-16.433571 3.268842 3.229942 7.000000
-18.430769 3.302933 3.271297 31.000000
-16.442469 3.324342 3.233727 0.000000
-16.537935 3.669404 3.265527 33.000000
-16.238607 3.763909 3.213285 15.000000
-11.511602 4.062866 3.262555 1.000000
-16.458061 4.143140 3.271584 2.000000
-16.444958 4.249785 3.274234 4.500000
-18.277863 4.658973 3.295391 9.000000
-10.891335 4.979545 3.200588 3.000000
-10.886115 5.227440 3.227440 0.000000
-12.133342 5.409726 3.298212 8.000000
-17.279751 6.187042 3.206587 18.000000
-10.524360 6.246426 3.270817 19.000000
-17.253941 6.361897 3.212782 30.000000
-10.534538 6.297301 3.280112 28.000000
-17.259720 6.425691 3.217601 1.000000
-10.052098 7.135736 3.294571 1.000000
-19.290682 7.250886 3.230136 14.000000
-19.330107 7.369908 3.242524 7.500000
-16.139307 16.596413 3.214375 12.000000
-16.040199 16.703209 3.215475 5.000000
-15.746166 16.921190 3.209423 2.000000
-16.085661 17.395273 3.289742 4.000000
-15.096173 18.183428 3.281490 43.000000
-14.376408 18.467310 3.249582 19.000000
-14.350387 18.634407 3.265719 55.333332
-14.303628 18.858007 3.286441 52.000000
-14.415700 18.882256 3.298543 47.000000
-14.292003 18.966131 3.297443 37.000000
-14.047854 19.137842 3.296343 27.000000
12.486466 23.336039 3.205158 22.000000
12.626547 23.332773 3.212852 24.500000
12.768756 23.332275 3.221027 21.000000
12.914154 23.336075 3.229924 23.500000
13.054016 23.328722 3.237378 21.000000
13.199993 23.330839 3.246274 23.000000
13.395757 23.333534 3.258296 21.000000
13.538435 23.326866 3.266232 21.000000
13.686415 23.327831 3.275368 21.000000
13.832628 23.324610 3.284024 17.000000
13.980182 23.322124 3.292921 20.500000
1.840364 23.436291 3.264161 0.500000
1.988415 23.434135 3.265536 1.000000
2.135805 23.423149 3.265811 2.500000
2.284271 23.423069 3.267736 6.000000
2.432221 23.416138 3.268837 13.500000
2.580596 23.412207 3.270487 20.500000
2.729935 23.415209 3.273238 31.500000
2.878227 23.407423 3.274613 44.000000
3.027526 23.406559 3.277089 59.000000
3.176928 23.404743 3.279564 71.500000
3.326715 23.403931 3.282315 80.500000
3.476904 23.404121 3.285340 74.000000
3.626615 23.399433 3.287816 77.500000
3.777354 23.399651 3.291117 70.500000
3.928232 23.398901 3.294417 76.500000
4.078925 23.395222 3.297443 71.500000
-10.925179 24.174019 3.212612 9.500000
-12.437296 24.200260 3.295085 26.500000
-12.292521 24.198467 3.286910 29.000000
-12.146294 24.192200 3.278254 26.500000
-11.955341 24.189722 3.267674 25.000000
-11.809837 24.181606 3.259018 25.000000
-11.671597 24.186884 3.252285 24.500000
-11.530146 24.184301 3.244591 13.000000
-11.389837 24.182642 3.237137 18.000000
-11.205949 24.185274 3.228000 11.000000
-11.066232 24.181885 3.220546 12.000000
-10.789275 24.176321 3.206120 9.000000
1.684890 -39.378918 3.384597 7.000000
1.185951 -39.265526 3.373304 6.000000
-4.216862 -38.880070 3.358246 2.000000
-3.472633 -38.833561 3.347979 1.000000
-3.355067 -38.895893 3.352428 6.000000
-4.044204 -38.413548 3.316837 6.000000
-4.356724 -31.763638 3.315447 39.000000
-5.764793 -31.627478 3.324499 2.000000
-4.645488 -31.650307 3.308041 58.000000
-4.450409 -31.706453 3.310921 51.000000
-3.634555 -27.794571 3.394630 5.000000
-3.535659 -27.715254 3.383569 3.000000
-0.468689 -27.681757 3.352792 25.000000
-3.753924 -27.053211 3.307588 41.500000
-4.130002 -26.958218 3.302779 7.000000
-9.241233 -26.256460 3.370906 24.000000
-8.755363 -26.001020 3.322496 3.000000
-1.389770 -23.957495 3.332101 9.000000
-5.767715 -20.713461 3.370119 5.000000
-7.728250 -19.619299 3.305083 13.000000
-6.904464 -18.195265 3.400028 20.000000
-5.689164 -18.198662 3.331188 3.000000
-6.384728 -18.100182 3.353217 41.000000
-7.129730 -17.934446 3.371804 4.000000
-6.439417 -17.984589 3.337383 28.000000
-6.241179 -17.962595 3.322238 16.000000
-6.112958 -17.956694 3.313977 18.000000
-6.938709 -17.861313 3.347709 23.000000
-11.807591 -17.798798 3.347821 10.000000
-11.723352 -17.792908 3.339769 3.000000
-6.464885 -17.791071 3.307094 37.500000
-11.804518 -17.553741 3.315613 1.000000
-11.738341 -17.574305 3.312516 15.000000
-3.266707 -15.650484 3.374399 26.000000
-4.086463 -15.412174 3.365313 71.000000
-8.872644 -14.949181 3.351083 18.000000
-15.442966 -14.829986 3.355873 1.000000
-2.868817 -14.422523 3.377638 1.000000
-2.294246 -14.339474 3.335552 1.000000
-12.403758 -14.299109 3.307094 1.000000
-2.380455 -14.301703 3.330179 3.000000
10.089715 -14.025823 3.330641 7.000000
10.092039 -13.844713 3.302627 0.000000
10.163364 -13.850943 3.311712 6.000000
10.255381 -13.748640 3.306412 13.500000
-5.655135 -13.472778 3.356147 44.000000
11.344703 -13.453142 3.392347 3.500000
-3.229543 -13.178133 3.368572 33.000000
-3.184480 -13.173120 3.364716 22.000000
-11.602551 -13.118911 3.376069 38.000000
14.066030 -12.957078 3.341169 4.500000
11.627125 -12.737787 3.324584 1.000000
13.968333 -12.745899 3.303652 37.000000
9.454965 -12.717205 3.344662 6.000000
11.720234 -12.678848 3.328369 13.000000
9.477350 -12.581437 3.324561 7.666667
9.576032 -12.547609 3.331445 3.000000
9.851898 -12.497075 3.358705 19.000000
14.574195 -12.324873 3.334630 1.000000
14.805603 -12.361852 3.369738 14.000000
-12.192573 -12.230936 3.329126 4.000000
-5.950454 -12.259840 3.383350 30.666666
-5.891741 -12.269522 3.379174 11.000000
15.048401 -12.246958 3.389702 14.000000
-12.228156 -12.189799 3.328369 5.000000
-3.520542 -12.141526 3.378571 22.000000
-2.422284 -12.177650 3.318325 11.000000
-2.381050 -12.170030 3.314194 13.000000
-7.891829 -12.055387 3.309584 22.000000
-3.419582 -12.052558 3.348276 2.000000
-3.006783 -12.104366 3.333300 21.500000
-12.846201 -11.949969 3.382126 3.000000
-6.155218 -11.941027 3.335320 16.000000
-3.754938 -11.938149 3.344661 19.000000
-3.532215 -11.947530 3.329686 7.000000
-3.350339 -12.023872 3.335882 38.000000
-3.245366 -11.973529 3.315485 21.000000
-3.151477 -11.961649 3.305932 19.500000
10.563212 -11.943737 3.365313 60.000000
12.787681 -11.945517 3.373293 24.333334
10.730868 -11.830348 3.371095 14.000000
14.855210 -11.858760 3.320862 3.000000
-4.004107 -11.816106 3.334333 10.500000
10.778538 -11.808140 3.374399 21.000000
10.426344 -11.714617 3.309968 0.000000
14.959514 -11.637281 3.311224 16.000000
-5.150490 -11.551907 3.380292 14.000000
12.631777 -11.603312 3.306412 0.000000
12.756798 -11.571218 3.320041 20.000000
12.871858 -11.602083 3.340483 36.000000
-12.975332 -11.403119 3.329884 3.000000
10.809699 -11.367210 3.310794 8.500000
13.634996 -11.172043 3.398026 11.000000
13.615203 -11.084517 3.384397 4.000000
-11.571860 -10.900956 3.355400 44.000000
-9.698257 -10.624669 3.304211 12.000000
-8.263474 -10.550170 3.327127 17.000000
-11.894726 -10.256388 3.314924 17.000000
-10.746876 -9.997107 3.371370 6.000000
-8.907662 -8.935690 3.372030 36.000000
-8.977758 -8.826671 3.364800 24.000000
-8.846756 -8.888487 3.351632 17.250000
-9.133362 -8.795527 3.388812 24.500000
-9.159097 -8.655273 3.367898 30.500000
-19.013252 0.743710 3.324304 4.000000
-12.356616 1.818053 3.337948 1.000000
-17.325510 2.716204 3.380612 1.000000
-18.925537 3.024604 3.348398 34.000000
-17.113325 3.292409 3.359412 23.000000
-19.067648 3.478934 3.386260 42.000000
-16.737074 3.768793 3.307169 52.000000
-16.627281 4.130240 3.302627 1.000000
-16.912497 4.712506 3.384397 5.000000
-16.791759 4.735768 3.363198 5.000000
-18.690426 4.889395 3.375246 3.000000
-11.408552 4.958213 3.324522 5.000000
-11.341823 5.099594 3.323489 1.000000
-12.231098 5.224576 3.302068 27.000000
-11.182685 5.413146 3.320390 6.000000
-12.318372 5.631989 3.362789 3.000000
-11.105644 5.947309 3.366866 5.000000
-10.415248 6.864985 3.333817 3.000000
-10.443345 7.073333 3.370997 7.000000
-13.923849 15.888241 3.311277 4.500000
-14.318857 16.082438 3.375074 5.000000
-6.953284 16.172421 3.393483 8.500000
-6.834948 16.212173 3.391590 7.000000
-6.765277 16.260538 3.394997 4.000000
-13.863184 16.618525 3.392108 6.250000
-16.114491 17.985132 3.353006 1.000000
-16.010481 17.982410 3.343103 49.000000
-15.859641 18.039932 3.335218 22.666666
-15.766680 18.240177 3.347688 16.000000
-15.613008 18.567333 3.368409 63.000000
-15.460602 18.503801 3.348055 79.000000
-15.763397 18.627071 3.388214 41.000000
-15.396986 18.664753 3.359607 71.000000
-14.844733 18.582361 3.302394 48.000000
-15.353339 18.731422 3.362908 64.000000
-15.334451 18.828714 3.371710 33.000000
-14.811098 18.781044 3.321099 54.000000
-15.272943 18.995710 3.384363 46.000000
-15.128655 19.060265 3.378861 35.000000
-14.391439 19.223434 3.334301 3.000000
-14.075845 19.689955 3.360708 5.000000
-13.604853 19.677238 3.321649 1.000000
-14.066672 19.808380 3.373360 9.000000
-13.498083 20.057013 3.356857 2.000000
14.130030 23.322266 3.302299 17.000000
14.281268 23.323101 3.311916 21.000000
14.426522 23.313000 3.320091 17.000000
14.581505 23.317093 3.330431 20.500000
14.730449 23.310274 3.339327 16.000000
14.885025 23.310835 3.349426 19.500000
15.042061 23.313890 3.360006 16.000000
15.139024 23.303148 3.365296 16.000000
15.299885 23.309517 3.376596 19.500000
15.458928 23.311668 3.387417 17.000000
15.611725 23.302841 3.396794 22.000000
4.230769 23.396423 3.301294 74.500000
4.383531 23.400532 3.305695 69.000000
4.533869 23.390032 3.308171 70.500000
4.686185 23.388279 3.312021 65.500000
4.879837 23.399263 3.318898 14.000000
4.992947 23.389538 3.320823 64.000000
5.147055 23.390594 3.325500 65.000000
5.300050 23.384840 3.329350 60.000000
5.454969 23.385803 3.334301 64.500000
5.608727 23.379965 3.338428 57.500000
5.725906 23.382168 3.342553 58.000000
5.841318 23.376034 3.345579 54.500000
5.989148 23.393816 3.353006 34.333332
-14.087566 24.234039 3.394630 27.000000
-13.936613 24.236416 3.385734 25.500000
-13.778052 24.224211 3.374913 28.000000
-13.627747 24.224791 3.366017 14.500000
-13.479635 24.228065 3.357601 18.000000
-13.333744 24.233864 3.349667 15.000000
-13.180467 24.224972 3.339808 17.000000
-13.031385 24.222069 3.330912 15.500000
-12.880706 24.214893 3.321534 17.000000
-12.735057 24.215527 3.313359 16.000000
-12.587810 24.211901 3.304703 18.000000
-2.244363 -33.350323 3.456574 23.000000
-1.712051 -33.222515 3.440116 7.000000
-6.108708 -32.927567 3.463157 2.000000
-1.904214 -32.925110 3.410492 8.000000
-4.890669 -32.607445 3.409669 11.000000
-2.777305 -28.072847 3.416270 1.000000
-1.063478 -25.163906 3.497138 6.000000
-0.504431 -24.911848 3.459730 0.000000
-1.126173 -24.800272 3.447077 24.000000
-2.748572 -24.581516 3.434424 3.000000
-5.458429 -24.439590 3.477059 40.000000
-3.827942 -24.444721 3.435524 5.000000
-4.553422 -24.098301 3.405267 21.000000
-2.611157 -22.094610 3.487185 6.000000
-3.163500 -21.527149 3.410380 0.000000
-2.032716 -19.873724 3.490209 22.000000
-1.942672 -19.920313 3.496749 6.000000
-1.835497 -19.786064 3.471622 7.000000
-2.109199 -19.703259 3.461984 8.000000
-6.965822 -18.184523 3.402093 30.000000
-6.622568 -16.881584 3.495696 19.500000
-6.054980 -16.901606 3.460868 2.000000
-5.967713 -16.824299 3.441183 7.000000
-3.481946 -16.172958 3.491698 6.000000
-3.572475 -16.101089 3.480959 0.000000
-3.306527 -16.093878 3.467743 18.000000
-11.408449 -15.970456 3.428941 13.000000
-4.150218 -15.955847 3.479720 34.000000
-8.636823 -15.887201 3.485853 1.000000
-3.580913 -15.902697 3.440483 14.000000
-3.448327 -15.775766 3.408267 37.000000
-12.082449 -15.531770 3.437890 2.000000
-12.211503 -15.495783 3.446840 9.000000
-12.644536 -15.339048 3.472999 1.000000
-12.170282 -15.294678 3.414829 11.500000
-12.922218 -15.183556 3.483325 1.000000
-9.402042 -15.128473 3.433611 12.000000
-9.094894 -15.214532 3.416954 7.000000
-13.116776 -14.742651 3.447528 4.000000
-13.146580 -14.636698 3.437202 10.000000
-3.545096 -14.597839 3.450468 35.666668
-6.665711 -13.606405 3.480167 24.000000
11.315158 -13.547188 3.402569 3.000000
11.490711 -13.496765 3.416954 0.000000
12.025414 -13.426096 3.474497 4.000000
11.946616 -13.422733 3.463897 2.000000
12.022831 -13.338654 3.461625 0.000000
-5.213212 -12.987920 3.474592 22.000000
-5.122965 -12.998746 3.468810 0.000000
-7.929302 -12.829419 3.464241 45.428570
-5.036916 -12.899058 3.437967 23.000000
-10.146538 -12.787986 3.445439 14.000000
-8.036407 -12.796247 3.470765 22.000000
-10.280377 -12.668016 3.443374 30.500000
-10.180969 -12.707952 3.436766 42.500000
-10.318866 -12.593732 3.436353 0.000000
10.719318 -12.590702 3.490046 20.000000
13.121318 -12.517114 3.495696 13.000000
-6.656737 -12.337098 3.480376 0.000000
10.398237 -12.370197 3.410745 2.000000
10.457269 -12.361372 3.417354 93.000000
10.784010 -12.348884 3.460308 26.000000
13.136810 -12.375173 3.479039 3.000000
-6.702374 -12.237013 3.463990 16.000000
10.783998 -12.270845 3.447917 87.000000
-3.950147 -12.140841 3.412179 29.875000
18.365200 -12.183334 3.454357 9.000000
-6.661797 -12.117714 3.433148 30.500000
18.343985 -12.086447 3.443208 1.000000
18.434772 -12.063378 3.453118 1.000000
18.432819 -11.979561 3.445685 4.000000
-13.192037 -11.815775 3.413926 9.000000
-5.239609 -11.620632 3.406800 25.666666
-5.993620 -11.494186 3.464463 10.500000
-11.902436 -11.354361 3.471873 19.000000
-11.798944 -11.326649 3.452048 17.000000
-5.983783 -11.344458 3.427800 5.000000
13.667767 -11.415871 3.432854 16.000000
14.046937 -11.362811 3.482825 1.000000
13.636195 -11.244811 3.407111 29.000000
15.929095 -11.303324 3.412419 14.000000
16.041761 -11.232563 3.421369 37.000000
16.170782 -11.247358 3.441332 1.000000
16.494543 -11.319436 3.495028 4.000000
14.282642 -11.172419 3.495545 11.800000
18.797316 -11.032712 3.416264 8.500000
18.994356 -11.028364 3.442588 45.000000
19.011824 -10.879364 3.433297 17.000000
19.035601 -10.813727 3.431439 16.000000
19.523300 -10.808479 3.497714 9.000000
10.604103 -10.704516 3.460915 2.000000
12.727773 -10.445415 3.475177 5.250000
12.795247 -10.350297 3.473525 0.000000
-8.704144 -9.717976 3.486668 23.000000
-8.883134 -9.549359 3.485636 41.000000
-8.672219 -9.601140 3.457751 24.000000
-8.631674 -9.426461 3.415923 5.500000
-10.518003 -9.185144 3.466882 27.000000
-10.484370 -9.155681 3.455798 33.500000
-10.343766 -9.148172 3.428329 30.000000
-10.582443 -9.095919 3.464472 16.000000
-9.616368 -8.833416 3.489767 0.000000
-9.374705 -8.775763 3.431931 28.000000
-18.092793 1.223930 3.495696 3.000000
-12.897079 1.691060 3.476341 12.000000
-19.823345 1.901787 3.479195 1.000000
-19.715326 1.953947 3.461296 2.000000
-12.762336 2.124236 3.457750 8.000000
-12.645926 2.186606 3.429865 15.000000
-19.871141 2.475085 3.498470 5.000000
-17.584724 3.440421 3.454054 18.000000
-19.149605 3.556082 3.402782 0.000000
-17.597715 3.634714 3.463897 27.333334
-19.629568 3.836935 3.494339 42.000000
-19.071455 3.914811 3.401405 31.000000
-17.301830 4.704050 3.456325 3.000000
-17.370277 4.781311 3.472982 4.000000
-17.037403 4.862877 3.415440 6.000000
-17.180527 4.962157 3.447240 4.000000
-18.862490 5.040121 3.411042 25.333334
-17.104532 4.998476 3.435125 4.000000
-18.932503 5.143851 3.427564 8.000000
-17.282181 5.138910 3.475632 10.000000
-19.049223 5.239877 3.451658 4.000000
-19.271809 5.366282 3.495028 5.000000
-18.928692 5.334880 3.435825 9.000000
-19.139193 5.459165 3.477129 3.000000
-19.004587 5.485397 3.455789 8.000000
-19.093166 5.575999 3.475064 37.000000
-18.897951 5.583477 3.442709 26.000000
-11.585375 5.698201 3.450521 2.000000
-16.757669 5.944077 3.427554 25.000000
-17.008837 6.093390 3.482825 34.000000
-16.917175 6.150615 3.469954 25.000000
-16.894115 6.292936 3.475254 5.000000
-15.298993 16.234896 3.496475 3.000000
-7.106833 16.212870 3.412411 6.000000
-6.727640 16.314392 3.401811 3.000000
-6.707553 16.411798 3.417711 1.000000
-14.925064 16.552713 3.493378 3.000000
-14.854533 16.578913 3.489043 1.000000
-14.692465 16.606810 3.475416 19.000000
-13.808020 16.846178 3.414096 14.333333
-13.766615 17.012499 3.430200 9.000000
-13.869102 17.249685 3.469222 11.000000
-13.711310 17.274584 3.456834 5.000000
-13.595798 17.239996 3.441350 5.000000
-13.301032 17.309214 3.421529 0.000000
-13.729237 17.522146 3.489043 11.000000
-13.113266 17.516109 3.429581 0.000000
-13.467210 17.639885 3.478513 6.000000
-13.126561 17.649179 3.447543 22.000000
-12.881092 17.625555 3.421735 28.666666
-12.813335 17.687920 3.423387 0.000000
-15.556847 19.224831 3.433874 36.000000
8.734346 23.348593 3.461380 41.000000
8.901344 23.346931 3.469357 37.000000
9.027689 23.347260 3.475683 40.000000
9.154970 23.348686 3.482285 37.500000
9.323540 23.345890 3.490537 37.000000
15.766975 23.296482 3.406652 17.000000
15.929268 23.298904 3.417953 21.500000
16.096411 23.306955 3.430216 16.000000
16.194487 23.292137 3.435506 20.000000
7.383437 23.488630 3.418746 22.500000
8.669447 23.512199 3.479534 9.000000
7.290789 23.581871 3.427273 14.000000
8.628154 23.628641 3.492737 3.000000
-15.683340 24.270605 3.499465 16.000000
-15.574847 24.269623 3.492252 19.000000
-15.416679 24.273977 3.482393 15.000000
-15.250324 24.264044 3.470611 26.000000
-15.140384 24.257933 3.462917 16.000000
-14.985228 24.263081 3.453540 21.500000
-14.822053 24.253847 3.442239 15.000000
-14.662411 24.248615 3.431659 20.000000
-14.503111 24.242521 3.421079 25.000000
-14.398480 24.240171 3.414347 27.000000
-14.241865 24.235806 3.404248 25.000000
11.192329 26.227364 3.453299 2.000000
-14.153949 29.929398 3.423658 1.000000
-14.061550 29.977318 3.424070 2.000000
-13.675494 30.386787 3.445876 1.000000
0.499297 -34.464577 3.564373 11.000000
-0.365643 -34.342907 3.551618 15.000000
-0.149530 -34.268929 3.543801 5.000000
-0.041756 -34.177715 3.534338 12.000000
0.065389 -34.058319 3.521994 8.000000
-0.254711 -33.938061 3.509651 3.000000
-6.389255 -33.846546 3.561905 3.000000
-5.671121 -33.494133 3.512942 5.000000
-2.181436 -29.634720 3.598529 6.000000
1.361130 -29.632029 3.592278 19.000000
0.800006 -29.565092 3.581698 18.000000
1.236292 -29.622894 3.590514 14.000000
-1.427583 -29.505659 3.577370 4.000000
-1.334880 -29.509998 3.577370 20.000000
-1.210825 -29.504717 3.576087 40.333332
-1.009855 -29.508965 3.575686 10.000000
1.077022 -29.512587 3.576408 18.000000
-1.511688 -29.334469 3.557172 1.000000
1.442926 -29.397568 3.564386 10.000000
1.524090 -29.178747 3.538417 30.000000
1.658973 -29.125614 3.532887 31.000000
1.877525 -28.955198 3.513892 8.000000
-4.961494 -28.753899 3.533608 5.000000
-7.502467 -24.818054 3.600011 2.000000
-5.325883 -24.758688 3.516392 7.000000
-6.112398 -24.625324 3.522994 27.000000
-6.192632 -24.617527 3.524644 20.000000
-6.963918 -24.414673 3.525194 2.000000
-8.932614 -24.225929 3.585158 6.000000
-8.848308 -24.231544 3.581857 2.000000
-7.046270 -24.316763 3.515292 39.666668
-3.054028 -22.237219 3.518154 11.000000
-7.259910 -21.773331 3.597437 11.000000
-7.165467 -21.717222 3.584429 29.000000
-7.076356 -21.675766 3.573900 24.000000
-6.715172 -21.720060 3.563370 18.000000
-7.185699 -21.327240 3.527445 8.000000
-7.256487 -21.315784 3.529303 11.000000
-2.664348 -20.347475 3.585209 3.000000
-1.687525 -20.265839 3.552854 6.000000
-1.746090 -20.201553 3.542528 19.000000
-1.421622 -20.128223 3.525318 2.000000
-1.795130 -20.035059 3.514303 27.000000
-1.513163 -20.078058 3.517745 19.500000
-4.608441 -16.373035 3.589997 18.833332
-4.407881 -16.416048 3.587519 8.000000
-3.847560 -16.250797 3.524740 12.000000
-9.317840 -16.158504 3.595638 0.000000
-4.442051 -16.203997 3.546217 41.666668
-4.126762 -16.178133 3.523914 20.000000
-3.915785 -16.198278 3.517305 6.000000
-2.715323 -15.415087 3.595232 2.000000
-13.786608 -14.825775 3.537020 18.000000
-3.837396 -14.848794 3.522701 20.000000
-4.527614 -14.799916 3.554937 68.000000
-5.164837 -14.560813 3.548669 10.000000
-4.817738 -14.593123 3.529864 2.000000
-4.606943 -14.567020 3.509269 54.000000
-4.553163 -14.582468 3.508970 26.000000
-14.680216 -14.186423 3.566622 33.000000
-5.004249 -13.306533 3.529531 1.000000
-4.944803 -13.274895 3.517001 3.000000
-5.255599 -13.213454 3.530494 0.000000
10.465187 -13.147124 3.546630 5.000000
-5.333592 -13.079454 3.506881 24.500000
13.260344 -12.570406 3.522196 19.000000
11.493372 -12.512093 3.585867 15.000000
11.542439 -12.408109 3.576781 0.000000
11.519847 -12.306068 3.557782 4.000000
13.952733 -11.954718 3.541882 44.000000
-5.612922 -11.879596 3.511455 1.000000
-5.564093 -11.872677 3.504225 35.000000
13.729019 -11.913436 3.504025 27.000000
16.487976 -11.856542 3.548035 6.000000
-5.913163 -11.741693 3.513520 0.000000
-8.289905 -11.677973 3.555554 8.000000
-5.974878 -11.699087 3.510835 25.600000
10.299213 -11.719221 3.583591 156.000000
-8.395042 -11.593038 3.553626 28.000000
10.118744 -11.587080 3.533446 16.000000
10.222341 -11.558316 3.544192 5.000000
10.364986 -11.572268 3.568369 17.000000
10.317768 -11.446982 3.539714 9.000000
10.496851 -11.463341 3.570160 8.500000
16.989574 -11.463910 3.580734 4.000000
10.702429 -11.325348 3.579114 9.000000
17.067997 -11.400162 3.585897 3.000000
12.632420 -11.278852 3.574303 11.000000
14.254938 -11.310483 3.507811 8.000000
17.005224 -11.281137 3.565245 22.000000
12.594576 -11.138820 3.548695 17.000000
12.703000 -11.163789 3.569346 4.000000
14.423905 -11.152084 3.514625 0.000000
19.388395 -11.175858 3.507625 42.000000
14.455755 -11.104321 3.513868 0.000000
11.027314 -10.992728 3.576428 0.000000
11.149466 -10.941267 3.588068 20.000000
-13.211701 -10.779035 3.598809 10.000000
12.634904 -10.791104 3.506980 2.000000
12.728896 -10.768181 3.518957 4.000000
19.771170 -10.784103 3.529922 8.500000
19.762678 -10.658907 3.519393 5.000000
17.098673 -10.560355 3.511091 6.666667
19.814528 -10.367591 3.505147 0.000000
-9.944585 -10.229812 3.542060 1.000000
-10.019464 -10.178185 3.545916 34.500000
-8.730095 -9.808777 3.509389 0.000000
-8.947523 -9.679377 3.522816 29.000000
-9.631262 -8.931211 3.510422 34.000000
-18.358120 0.374935 3.539610 19.000000
-18.368631 0.432881 3.541882 2.000000
-18.545004 0.524490 3.576331 2.500000
-18.485430 0.609994 3.565353 1.000000
-18.482080 0.939501 3.567372 9.333333
-18.233732 1.175926 3.522196 3.000000
-13.127652 1.386720 3.527980 8.000000
-18.361908 1.939633 3.559296 6.000000
-18.275196 2.046661 3.544910 4.000000
-19.962408 2.168615 3.508107 2.000000
-19.917604 2.353880 3.503977 6.000000
-18.174011 2.907751 3.547939 20.000000
-18.339542 3.498479 3.599045 7.000000
-19.743437 4.344437 3.531857 13.000000
-17.684563 4.304497 3.508568 8.500000
-16.466139 4.310594 3.592476 3.000000
-16.184700 4.318511 3.535478 5.500000
-19.966612 4.823055 3.588651 25.000000
-17.046459 6.288774 3.502511 4.000000
-19.378855 6.870026 3.592093 22.000000
-19.046278 6.887139 3.538397 32.000000
-19.187403 7.006404 3.568687 4.000000
-15.738306 15.881795 3.504528 19.000000
-15.793701 16.038153 3.528064 6.000000
-15.556719 16.098198 3.508863 4.000000
-15.775270 16.222065 3.546646 0.000000
-15.645658 16.292360 3.540452 9.000000
-15.676247 16.427197 3.559034 3.000000
-15.657187 16.510777 3.566467 19.000000
-14.775901 16.807211 3.507625 5.000000
-14.591025 16.915806 3.501431 7.000000
-15.433744 17.009106 3.599914 33.000000
-14.745131 16.986265 3.525587 1.000000
-13.960369 17.475330 3.505766 9.000000
-15.104746 20.782188 3.567279 15.000000
-14.979058 20.953413 3.576356 5.000000
-14.835687 21.030930 3.573606 12.000000
-14.496220 21.107920 3.555451 28.000000
-14.445469 21.176266 3.559302 3.000000
9.496907 23.352911 3.500439 33.500000
9.626466 23.355556 3.507591 8.000000
10.148635 23.362560 3.536747 15.000000
10.228341 23.345078 3.538948 23.000000
10.359145 23.343658 3.546099 23.500000
10.534954 23.343109 3.556002 27.500000
10.669520 23.347303 3.564253 23.000000
10.800226 23.341675 3.571130 26.500000
10.976191 23.336090 3.580757 23.500000
11.154208 23.332794 3.590934 24.500000
11.289047 23.331728 3.598911 22.000000
17.554733 23.423246 3.544829 25.333334
17.510159 23.568853 3.555730 3.000000
10.126181 23.580824 3.563337 8.333333
-16.011963 24.274199 3.521586 19.000000
-15.898635 24.267910 3.513411 20.000000
-16.799381 24.288548 3.576408 7.000000
-16.626434 24.282192 3.563905 17.500000
-16.460554 24.284731 3.552844 26.000000
-16.344255 24.277035 3.544188 11.000000
-16.177948 24.276070 3.532887 19.500000
-15.796322 24.277802 3.507640 18.000000
-1.246791 -34.831829 3.604284 15.000000
-0.590918 -34.900860 3.609632 2.000000
0.346556 -30.546839 3.699517 7.000000
-0.037250 -30.489218 3.692303 15.000000
0.058262 -30.346230 3.674991 14.000000
0.472463 -30.415384 3.683808 18.666666
0.626026 -30.137264 3.650466 15.000000
-5.476505 -30.045835 3.698555 3.000000
-4.504713 -30.034168 3.677877 7.000000
0.716044 -29.940624 3.626902 16.000000
-3.144055 -29.863558 3.636520 7.000000
1.842784 -29.872547 3.624497 13.000000
-6.199864 -29.754881 3.680762 57.000000
0.947245 -29.807032 3.611513 10.500000
-6.290017 -29.719723 3.678838 19.000000
-10.402559 -28.503382 3.674510 9.000000
-10.530210 -28.299753 3.656717 13.000000
-6.366618 -22.589417 3.678577 4.000000
-6.253248 -22.594383 3.674551 57.000000
-6.115104 -22.507317 3.655659 4.000000
-7.162541 -22.416187 3.688487 11.000000
-6.996792 -22.381540 3.675480 10.000000
-7.158839 -22.164185 3.650704 3.000000
-7.584820 -21.829699 3.622212 2.000000
-7.491781 -21.782417 3.610444 10.000000
-7.713107 -19.580856 3.676767 53.000000
-7.647254 -19.593977 3.674701 51.000000
-6.808827 -17.933798 3.697852 61.000000
-6.846861 -17.864639 3.688009 36.000000
-7.728024 -17.187605 3.632738 2.000000
-7.746297 -17.084545 3.616081 7.000000
-9.523552 -16.161335 3.616081 1.000000
-13.480563 -16.042753 3.660933 9.000000
