# This PCD file was generated using the MATLAB® pcwrite function
# from Computer Vision Toolbox®.
# .PCD v.7 - Point Cloud Data file format
VERSION .7
FIELDS x y z intensity
SIZE 4 4 4 4
TYPE F F F F
COUNT 1 1 1 1
WIDTH 1250
HEIGHT 1
VIEWPOINT 0 0 0 1 0 0 0
POINTS 1250
DATA ascii
8.612726 -0.159461 0.739718 22.500000
8.933577 -0.165326 0.767267 20.000000
10.601974 -0.162829 0.725087 11.000000
6.767540 -0.029483 0.767990 11.857142
8.541463 -0.048604 0.733484 20.142857
6.874615 0.099594 0.710982 0.000000
8.633801 0.084423 0.741429 52.000000
8.759700 0.154493 0.752323 44.333332
6.334523 0.271125 0.767827 30.333334
8.862485 0.225909 0.761278 100.500000
6.403331 0.354638 0.776644 21.000000
6.454497 0.326980 0.782655 45.500000
8.520818 0.364577 0.732360 1.000000
10.257200 0.374322 0.701891 8.000000
-10.591138 0.462429 0.724951 2.000000
6.463102 0.433922 0.784469 24.909090
6.849698 0.433341 0.709748 17.000000
8.720322 0.473816 0.749927 28.333334
-10.570087 0.528064 0.723723 15.000000
6.308156 0.568537 0.767026 71.000000
9.011355 0.527482 0.775138 13.000000
10.733979 0.526857 0.734912 7.000000
-10.412905 0.647114 0.713455 17.875000
5.719920 0.632492 0.799055 7.000000
6.231307 0.605092 0.758177 28.000000
9.237562 0.613590 0.794987 32.000000
10.587102 0.653100 0.725360 7.000000
6.750698 0.744112 0.715658 39.555557
9.235552 0.722697 0.795500 10.500000
10.225557 0.746949 0.701127 10.000000
6.799860 0.872467 0.708956 43.846153
9.212618 0.830309 0.794302 6.000000
6.513874 0.971177 0.797563 6.500000
6.825043 1.011912 0.743811 51.500000
6.884426 1.059648 0.720308 51.666668
6.876804 1.174861 0.736863 58.000000
6.880348 1.281400 0.723737 48.000000
6.826990 1.360384 0.719869 60.000000
7.171484 1.558402 0.758916 16.000000
4.588523 3.172492 0.774575 62.000000
4.637831 3.163714 0.779526 7.000000
4.568902 3.229190 0.776854 11.428572
2.886725 3.987633 0.771626 255.000000
3.032656 3.962024 0.782062 255.000000
3.113713 3.951144 0.788488 255.000000
3.173816 3.924901 0.745963 156.000000
2.608712 4.049603 0.786044 189.000000
2.726364 4.018826 0.792297 255.000000
-9.849734 4.185004 0.731841 5.500000
-9.827676 4.279343 0.733001 3.333333
-7.465797 7.955352 0.746061 30.428572
-7.316148 7.959042 0.739278 3.000000
-6.796168 7.977001 0.716627 50.000000
-6.740130 7.961765 0.713353 40.000000
-7.482033 8.088350 0.753469 74.000000
-7.244858 8.083035 0.742280 32.000000
-8.321294 8.134601 0.795768 6.000000
-7.176264 8.159945 0.743098 46.000000
-7.107341 8.141552 0.739051 34.833332
-6.857237 8.169237 0.729363 28.333334
-6.616154 8.173189 0.719084 57.000000
-8.318336 8.208780 0.799179 35.000000
-8.232511 8.252647 0.797132 22.000000
-7.479271 8.239655 0.760973 55.000000
-7.307015 8.204100 0.751285 37.000000
-7.192645 8.388839 0.755652 51.000000
-6.770351 8.310149 0.733001 93.000000
-6.604382 8.371606 0.729181 32.000000
-7.633456 8.409673 0.776665 57.000000
-7.007853 8.492138 0.752923 22.000000
-6.920409 8.440051 0.746373 35.000000
-6.798038 8.452034 0.741734 20.000000
-6.699314 8.528702 0.741643 48.000000
-6.500365 8.553045 0.734639 36.750000
-7.448384 8.632085 0.779667 59.000000
-7.218070 8.691120 0.772571 40.000000
-6.632429 8.627952 0.744190 91.000000
-6.287510 8.676284 0.732728 24.000000
-7.107785 8.894210 0.778575 45.000000
-6.869521 8.878507 0.767659 40.000000
-6.577775 8.812016 0.751968 31.000000
-6.432509 8.994779 0.756198 42.000000
-10.782050 9.082529 0.718353 18.000000
-6.514359 9.049018 0.762474 31.000000
-6.526708 9.187370 0.770661 69.000000
-6.513748 9.323404 0.777756 39.000000
-6.661180 9.439328 0.790037 72.000000
-6.515171 9.419635 0.783214 57.000000
-10.207443 9.575453 0.713162 9.000000
-10.209440 9.883247 0.724052 3.500000
-5.178715 13.000331 0.713060 0.000000
-5.038643 13.003860 0.710618 3.000000
-5.460637 13.105447 0.723442 9.000000
-4.726456 13.171496 0.713060 3.000000
-4.649025 13.150290 0.710719 12.000000
-4.522853 13.255453 0.713671 3.000000
-6.216590 13.923439 0.776977 17.000000
-6.210015 14.026915 0.781659 19.000000
14.754277 15.337343 0.714550 43.500000
3.494941 21.697922 0.737905 5.000000
3.598065 21.687168 0.738106 4.000000
3.404620 21.791210 0.740522 14.000000
3.217911 22.193260 0.752938 14.000000
4.076634 22.189896 0.757502 10.500000
3.153493 22.495239 0.762670 11.000000
3.384315 22.591036 0.766965 4.000000
5.059863 22.525696 0.775152 30.000000
4.885113 22.748270 0.781193 38.000000
5.012807 22.818687 0.784414 20.500000
4.816402 22.954908 0.787501 22.000000
4.416100 23.019016 0.786964 12.000000
5.442315 23.040602 0.794884 4.000000
4.383769 23.244913 0.794212 27.000000
4.327478 23.348980 0.797300 20.000000
4.751551 -25.050989 0.856090 2.000000
5.243352 -25.054804 0.859446 6.000000
4.851241 -24.934105 0.852869 6.000000
5.142835 -24.965433 0.855822 8.000000
5.003478 -24.881577 0.852131 7.500000
3.905377 -23.848734 0.811393 4.000000
3.773268 -23.742460 0.807165 8.000000
3.639039 -23.615807 0.802266 8.000000
-4.179963 -17.141991 0.899071 1.000000
-4.296098 -16.953430 0.891173 2.333333
-4.320959 -16.648056 0.876415 15.000000
-4.762995 -16.523516 0.876245 4.333333
-4.628162 -16.542469 0.875295 7.500000
-4.478082 -16.505056 0.871428 15.000000
-4.389684 -16.590836 0.874481 15.000000
-4.992045 -16.348646 0.871021 0.000000
-4.894111 -16.396238 0.871903 0.000000
-5.074797 -16.253355 0.867628 0.666667
-5.231215 -16.128845 0.863998 1.000000
-5.318638 -16.053944 0.861759 1.500000
-5.399559 -15.961555 0.858604 1.500000
-5.490245 -15.872834 0.855822 2.666667
-5.650817 -15.721605 0.851276 6.000000
-5.565200 -15.794479 0.853311 4.500000
-5.664241 -15.453244 0.838655 14.500000
-6.109134 -15.312853 0.840080 10.750000
-5.969919 -15.312045 0.837434 4.000000
-5.808299 -15.322766 0.834991 15.666667
-5.725885 -15.396440 0.837027 15.000000
-5.888678 -15.245017 0.832752 15.000000
-6.273202 -15.167509 0.836365 9.500000
-6.415483 -15.040997 0.833227 11.000000
-6.496667 -14.969886 0.831531 10.000000
-6.615959 -14.859874 0.828850 11.000000
-6.736691 -14.755102 0.826510 11.000000
-6.838347 -14.671582 0.824813 11.500000
-6.992700 -14.523310 0.821353 12.000000
-6.914990 -14.595840 0.822981 11.500000
-7.054084 -14.475842 0.820539 12.000000
-7.052061 -14.243858 0.809886 15.333333
-7.182126 -14.114080 0.806951 17.000000
-7.335712 -13.978499 0.804407 17.250000
-7.466112 -13.854530 0.801947 18.000000
-7.559975 -13.768643 0.800386 18.500000
-12.593520 -12.026222 0.887305 0.000000
15.862012 -7.545413 0.895040 28.000000
15.661643 -7.389853 0.882420 33.000000
15.486268 -7.218067 0.870614 19.000000
15.523756 -7.146694 0.870817 4.000000
15.801937 -6.623059 0.873056 6.000000
-6.970019 -6.427288 0.814151 6.000000
-6.944352 -6.343287 0.807649 49.000000
15.791329 -6.386524 0.867967 66.000000
-6.925884 -6.286617 0.803200 50.000000
15.555457 -6.234339 0.853922 23.000000
15.434475 -6.073578 0.845169 23.000000
15.323212 -5.974271 0.838044 32.000000
15.360537 -5.933299 0.839062 19.000000
15.785843 -5.870703 0.858197 7.000000
16.530798 -5.795481 0.892598 6.000000
-6.660447 -5.443791 0.889550 54.000000
-6.639666 -5.374777 0.883379 54.000000
16.483330 -5.374848 0.883438 12.000000
-6.608998 -5.281663 0.874875 56.000000
16.512266 -5.298304 0.883641 6.500000
16.746586 -5.286605 0.894837 30.000000
-6.562099 -5.127064 0.861161 56.500000
16.557196 -5.169676 0.883845 8.000000
-6.471591 -4.830985 0.835136 58.750000
-6.422383 -4.669713 0.821147 59.500000
-6.375831 -4.514497 0.807878 59.500000
15.412363 -4.338025 0.815857 11.000000
-6.207372 -3.956114 0.891417 60.666668
-6.182190 -3.872092 0.883402 61.500000
-5.931430 -3.013232 0.805690 70.000000
-5.847208 -2.730496 0.896060 78.166664
-6.059653 -2.204312 0.895327 65.500000
-6.262927 -2.146608 0.801770 61.250000
-6.985698 -1.913666 0.877151 56.500000
9.375399 -1.953501 0.822365 26.000000
-7.170952 -1.855779 0.897027 56.000000
-7.068558 -1.888697 0.886047 56.500000
-7.628018 -1.720353 0.808632 51.333332
9.474865 -1.757773 0.827498 2.000000
-7.729842 -1.683936 0.818096 11.333333
9.771078 -1.638637 0.850769 23.500000
10.074887 -1.608326 0.876094 6.000000
9.316024 -1.457184 0.809702 12.000000
9.375707 -1.436360 0.814494 24.000000
9.992906 -1.402632 0.866512 27.000000
9.429669 -1.399154 0.818600 50.500000
9.748174 -1.368219 0.845294 52.500000
9.600611 -1.270776 0.831605 57.500000
8.588690 -1.123098 0.895722 47.000000
9.286289 -1.184659 0.803885 54.000000
8.331687 -1.062880 0.868567 41.000000
8.440049 -1.040749 0.879401 14.000000
8.142793 -0.934952 0.847583 5.000000
8.465981 -0.945124 0.880910 113.000000
9.294767 -0.934333 0.802173 48.500000
9.395907 -0.691641 0.809018 1.000000
9.434834 -0.649814 0.812098 47.000000
9.696317 -0.621935 0.834343 18.000000
9.714136 -0.592440 0.835711 1.000000
9.769942 -0.523957 0.840160 36.333332
9.887033 -0.571814 0.850427 19.000000
6.221549 -0.318910 0.896870 14.571428
6.255529 -0.234846 0.869196 1.500000
6.351230 -0.132522 0.882069 17.400000
6.809268 -0.115290 0.824733 0.000000
6.233061 -0.033074 0.865483 30.500000
6.290653 -0.005089 0.873487 46.000000
6.697365 -0.033432 0.811076 22.200001
6.423452 0.192888 0.892301 32.000000
6.656993 0.103395 0.806299 1.333333
6.768598 0.161875 0.819924 0.000000
6.475294 0.278320 0.899942 43.000000
6.644073 0.211070 0.805016 1.500000
8.430080 0.286465 0.872270 29.200001
8.554461 0.258374 0.885024 61.000000
9.954809 0.300669 0.855218 31.000000
-12.604666 0.312444 0.862218 49.500000
8.354592 0.383764 0.864864 7.000000
9.317530 0.388824 0.800805 8.333333
10.013561 0.333933 0.860352 0.000000
-12.582155 0.430563 0.860922 67.000000
5.913552 0.401072 0.822985 0.000000
8.404556 0.449618 0.870377 13.400000
-12.551836 0.587467 0.859284 55.000000
6.625432 0.559365 0.805209 47.000000
8.371361 0.516415 0.867332 3.000000
6.041919 0.607496 0.843157 34.666668
6.264692 0.623091 0.874147 19.000000
-12.584157 0.727819 0.861991 31.333334
5.756484 0.711788 0.805382 19.600000
5.899040 0.783938 0.826286 14.500000
6.897253 0.780403 0.840603 29.000000
9.296242 0.712961 0.800633 34.250000
-12.535536 0.883190 0.859353 14.000000
5.762741 0.895272 0.809783 8.500000
5.854961 0.887534 0.822252 103.000000
6.925094 0.833145 0.844690 28.500000
7.100385 0.888175 0.866571 20.000000
9.311747 0.883505 0.803200 2.500000
5.749697 0.976617 0.809783 6.000000
5.881704 0.980039 0.827937 156.000000
6.004188 0.942378 0.843890 169.000000
6.673893 1.091696 0.818962 37.000000
6.701765 1.117884 0.822809 37.000000
6.780560 1.163898 0.833149 58.000000
6.781017 1.452829 0.804643 55.571430
5.818521 1.671732 0.840589 1.000000
6.117630 1.643759 0.879587 7.444445
7.243787 1.633787 0.899272 61.000000
5.933089 1.782340 0.897241 3.333333
6.043498 1.771071 0.874477 4.600000
8.077419 2.009435 0.860749 2.000000
7.451234 2.273806 0.805615 24.666666
7.979768 2.215055 0.856399 4.714286
7.457178 2.350204 0.808550 3.200000
7.510416 2.456233 0.817136 1.000000
3.007232 3.961227 0.898842 176.222229
3.122015 3.923480 0.875994 1.500000
-11.320467 5.070991 0.848255 9.333333
-11.273146 5.160103 0.847823 16.750000
-8.754426 8.172210 0.818964 18.666666
-8.498518 8.255791 0.810231 11.000000
-8.351694 8.319687 0.806138 35.000000
-8.090383 8.474979 0.801226 56.000000
-8.450968 8.525041 0.820874 65.000000
-8.456898 8.748199 0.832063 30.000000
-8.085843 8.796371 0.817054 1.000000
-8.694502 8.853757 0.848573 41.500000
-8.531796 8.825573 0.839431 44.000000
-8.464704 8.923059 0.841069 2.000000
-8.050851 9.096631 0.830698 10.000000
-7.849328 9.391025 0.836975 4.000000
-7.088281 9.653060 0.818964 56.000000
-7.015589 9.617249 0.814052 34.000000
-7.858512 9.770527 0.857442 3.000000
-6.768014 9.851211 0.817326 8.000000
-6.241973 9.896626 0.800134 40.000000
-6.219571 10.035301 0.807366 36.500000
-6.159119 10.162053 0.812596 31.333334
-6.330088 10.213361 0.821693 36.000000
-6.063426 10.281339 0.816235 12.000000
-7.435322 10.328317 0.870268 0.000000
-6.749014 10.372746 0.846254 52.000000
-6.987267 10.413797 0.857579 41.000000
-6.896039 10.454487 0.856442 43.000000
-6.203708 10.444085 0.830698 13.000000
-6.083049 10.449263 0.826823 25.799999
-6.764630 10.614255 0.860717 36.000000
-6.088491 10.626806 0.837521 22.000000
-6.037297 10.692652 0.839704 13.000000
-7.317387 10.722869 0.887734 31.000000
-6.917235 10.741590 0.873680 27.000000
-6.112295 10.746476 0.845435 21.000000
-6.021237 10.742894 0.842160 27.000000
-7.364272 10.864723 0.897558 36.000000
-6.037905 10.852427 0.849255 36.000000
-5.956333 10.947412 0.852257 62.000000
-6.108887 11.102745 0.866584 55.000000
-6.064130 11.229423 0.872725 65.000000
-6.063752 11.356437 0.880366 61.500000
-6.047454 11.455472 0.885824 22.000000
-5.659133 11.680244 0.887552 51.333332
-5.506312 11.690926 0.883709 54.000000
-4.713183 11.677279 0.861126 1.500000
-4.442802 11.689612 0.855168 0.333333
-4.320341 11.698540 0.852803 0.000000
-5.821681 11.794764 0.899468 26.666666
-4.664753 11.716059 0.862354 0.000000
-5.407391 11.816456 0.888644 35.333332
-4.267641 11.841007 0.860717 1.000000
-4.217192 11.876026 0.861809 0.000000
-5.388288 11.972713 0.897831 17.000000
-6.406777 14.595038 0.812193 12.000000
-7.712818 14.715714 0.846594 3.000000
-7.542829 14.727305 0.843133 26.000000
-7.334140 14.716352 0.837841 9.000000
-6.438895 14.836715 0.824135 13.333333
-7.715761 15.065027 0.862471 9.000000
-6.858945 15.233391 0.851276 1.000000
-6.579878 15.932399 0.878349 4.000000
1.283739 16.095940 0.822778 2.000000
1.487371 16.094448 0.823592 16.000000
1.555411 16.272625 0.832955 18.000000
1.198380 16.318829 0.833770 0.000000
1.381895 16.354408 0.836314 7.000000
1.464855 16.413383 0.839673 7.000000
1.159709 16.501837 0.842930 0.000000
1.278624 16.693382 0.853108 1.000000
4.269143 23.445055 0.800118 15.000000
4.577198 23.460186 0.802534 31.000000
3.906901 23.548658 0.801461 22.000000
3.183846 23.798443 0.806159 3.000000
4.247550 23.749563 0.810051 3.000000
4.059218 23.847336 0.812199 22.666666
4.908040 23.952549 0.820923 3.000000
4.826035 24.130234 0.826225 13.500000
5.836728 24.200050 0.835822 10.000000
5.759748 24.214378 0.835688 16.000000
5.606795 24.598898 0.847097 10.000000
5.996284 24.523331 0.847634 4.000000
5.396001 24.748299 0.850453 17.000000
5.918260 25.232632 0.870184 27.000000
5.874086 25.403004 0.875419 13.000000
5.237864 25.562178 0.876090 1.000000
5.772186 25.696846 0.884278 1.000000
5.856441 25.694176 0.884815 6.000000
7.938127 -27.430387 0.958773 7.000000
7.809041 -27.305286 0.953538 6.000000
7.685168 -27.195040 0.948840 6.000000
7.565291 -27.095833 0.944545 7.000000
7.439735 -26.973021 0.939444 7.000000
7.320287 -26.868973 0.935015 7.000000
7.204676 -26.776024 0.930988 7.000000
7.088696 -26.678753 0.926827 7.000000
6.970355 -26.569416 0.922264 7.000000
6.794856 -26.406393 0.915485 7.000000
6.102440 -26.265205 0.905351 2.000000
6.628688 -26.273434 0.909781 7.000000
6.201710 -26.133038 0.901794 7.000000
6.515209 -26.169991 0.905485 8.000000
6.361973 -26.078026 0.901257 8.000000
9.528771 -25.058319 0.900116 20.000000
9.620341 -25.061850 0.901324 0.000000
-1.034018 -19.535250 0.996819 15.000000
-1.122423 -19.466370 0.993562 14.000000
-1.295941 -19.307451 0.986030 14.000000
-1.209252 -19.383097 0.989593 14.000000
-1.353506 -19.259449 0.983791 14.000000
-1.523846 -19.106462 0.976667 14.000000
-1.438984 -19.183123 0.980229 14.500000
-1.608450 -19.035358 0.973410 14.000000
-2.050909 -18.940508 0.970764 5.333333
-1.900971 -18.944138 0.970153 7.500000
-1.748407 -18.920006 0.968185 14.666667
-2.278682 -18.830017 0.966489 0.000000
-2.223721 -18.872789 0.968321 1.000000
-2.358919 -18.751665 0.963028 0.500000
-2.519425 -18.609846 0.956922 1.000000
-2.440527 -18.688871 0.960382 1.000000
-2.600474 -18.550312 0.954479 0.000000
-2.717047 -18.433598 0.949441 0.750000
-2.834924 -18.334026 0.945319 0.500000
-2.910027 -18.249468 0.941655 1.000000
-2.962182 -17.855080 0.922249 11.666667
-3.530582 -17.701235 0.919739 0.666667
-3.392386 -17.743122 0.920485 5.200000
-3.259124 -17.739681 0.919060 6.500000
-3.110781 -17.714882 0.916482 14.666667
-3.610171 -17.618595 0.916414 0.000000
-3.713937 -17.563286 0.914735 0.250000
-3.853896 -17.412752 0.908747 1.000000
-4.094320 -17.212799 0.901554 1.000000
-3.999828 -17.297815 0.904675 0.666667
-12.579390 -14.604258 0.982163 3.000000
16.237576 -7.107525 0.903183 3.000000
18.043600 -6.969683 0.985623 20.000000
18.169874 -6.952940 0.991323 36.000000
16.960335 -6.766473 0.930459 8.500000
-6.968949 -6.446544 0.981715 3.000000
17.393625 -6.406502 0.944505 14.000000
-6.941081 -6.350440 0.972869 28.750000
17.218513 -6.280644 0.933920 10.000000
-6.887537 -6.173462 0.956479 50.333332
13.225394 -6.141828 0.997166 17.000000
-6.835863 -6.011931 0.941393 51.666668
-6.801490 -5.906196 0.931518 52.000000
-6.779440 -5.831293 0.924729 52.500000
-6.742483 -5.708057 0.913552 53.000000
-6.697021 -5.562057 0.900248 53.666668
17.441561 -5.566312 0.932902 1.000000
-6.518467 -4.986549 0.957451 56.000000
-6.469257 -4.829237 0.977657 56.500000
13.466122 -4.866695 0.979154 6.000000
13.437513 -4.792803 0.975607 34.666668
13.717216 -4.779578 0.993345 37.333332
-6.421845 -4.669320 0.961547 57.250000
-6.373064 -4.512533 0.945678 58.000000
13.566099 -4.568133 0.978881 11.000000
-6.341613 -4.415749 0.935820 35.000000
-6.321180 -4.342864 0.928766 54.666668
-6.286603 -4.218201 0.916824 59.000000
13.490394 -4.272861 0.967693 25.750000
13.821501 -4.270539 0.989252 38.000000
-6.243524 -4.076448 0.902999 60.250000
-6.146778 -3.760468 0.915164 62.500000
-6.105183 -3.625891 0.922933 63.900002
-6.052144 -3.451333 0.954912 51.900002
-6.023419 -3.325248 0.955345 66.800003
-5.981155 -3.180377 0.940602 72.599998
-5.938799 -3.027472 0.925584 74.166664
-5.899962 -2.903178 0.913022 75.666664
-5.882755 -2.837515 0.906879 77.000000
8.731934 -2.697976 0.945096 20.750000
-5.798144 -2.570646 0.932158 78.363640
8.669579 -2.570926 0.935118 17.625000
8.812128 -2.511864 0.947565 1.000000
-5.758655 -2.439767 0.924304 75.699997
8.823806 -2.485246 0.947976 1.000000
-5.727195 -2.347176 0.914761 21.750000
-5.948567 -2.242885 0.933179 65.000000
-5.809402 -2.290570 0.922908 46.900002
9.228358 -2.227460 0.981715 25.000000
-6.254734 -2.142577 0.918019 63.000000
-6.144608 -2.180688 0.905321 64.333336
9.203886 -2.175732 0.978012 1.500000
-6.598216 -2.031115 0.958591 60.000000
-6.530526 -2.055282 0.950614 59.500000
-6.408105 -2.094303 0.936091 60.599998
9.288126 -2.057427 0.983772 28.000000
-6.866140 -1.949903 0.927702 57.375000
-6.726035 -1.993923 0.932438 57.833332
-7.321668 -1.809061 0.913338 55.000000
8.586671 -1.831420 0.907928 31.666666
9.391566 -1.834042 0.989532 42.000000
-7.618236 -1.718155 0.945758 53.000000
-7.523488 -1.746619 0.935339 54.000000
-7.455281 -1.767822 0.927885 54.500000
9.313314 -1.712731 0.979246 48.000000
-7.721163 -1.682048 0.956979 13.000000
7.838355 -1.327165 0.962750 24.000000
8.072849 -1.392972 0.992084 27.000000
7.830362 -1.236041 0.960025 24.555555
8.798303 -1.216173 0.918489 43.000000
7.824210 -1.135844 0.957460 0.500000
8.904547 -1.192866 0.929049 69.000000
8.034930 -0.999379 0.980543 2.000000
8.775985 -1.035600 0.913826 2.000000
9.390560 -1.018483 0.976777 75.000000
8.124270 -0.919792 0.990161 5.500000
9.292836 -0.919359 0.965668 47.000000
9.449110 -0.994809 0.982538 28.000000
8.169929 -0.816913 0.994328 31.000000
8.808517 -0.843509 0.915060 57.000000
8.922055 -0.826103 0.926581 72.000000
9.269385 -0.828902 0.962377 46.000000
10.799646 -0.812020 0.929994 11.500000
9.101237 -0.756255 0.944410 54.000000
11.056507 -0.709179 0.951383 4.000000
8.979687 -0.628597 0.930871 34.428570
9.377463 -0.532477 0.971291 12.000000
6.202650 -0.408693 0.974306 16.500000
9.487653 -0.429173 0.982126 7.000000
9.503386 -0.369987 0.983498 29.333334
6.007469 -0.291721 0.942717 7.333333
6.088715 -0.142462 0.954609 19.600000
6.073253 -0.084804 0.952008 1.000000
10.612934 -0.012966 0.911343 3.000000
6.187935 0.078844 0.969970 33.000000
10.592997 0.020337 0.909632 9.000000
10.672586 0.054019 0.916476 9.000000
6.319597 0.138302 0.900495 32.299999
5.782564 0.383073 0.908340 6.500000
6.491740 0.358398 0.902753 0.000000
10.729346 0.391552 0.921952 7.000000
5.832587 0.432413 0.916702 8.000000
10.522876 0.466768 0.904499 27.500000
5.918835 0.594938 0.932393 4.666667
5.964265 0.583778 0.939310 7.000000
6.634110 0.528520 0.924071 5.250000
10.620085 0.521267 0.913054 0.000000
10.781570 0.563152 0.927085 2.000000
6.079489 0.778801 0.960679 0.000000
6.867412 0.726642 0.958866 4.000000
9.192106 0.799355 0.954148 8.000000
9.357328 0.715081 0.970468 21.000000
9.605436 0.774522 0.996527 30.000000
6.057507 0.834067 0.958408 51.000000
6.157418 0.860941 0.974512 39.666668
6.342727 0.900259 0.927320 65.666664
9.195168 0.867625 0.955108 16.666666
5.557019 0.908005 0.983730 0.000000
5.724672 0.963080 0.909889 4.000000
5.752215 0.933761 0.913399 78.666664
6.276725 0.964959 0.995365 67.000000
6.650836 0.958400 0.933010 96.000000
6.881033 1.085813 0.935984 45.000000
7.551323 1.019501 0.922787 35.700001
6.858378 1.120644 0.964917 62.000000
6.627454 1.200885 0.935211 43.000000
6.906082 1.211696 0.937923 57.857143
6.158271 1.375002 0.989016 34.375000
6.979135 1.350505 0.923947 47.000000
5.889516 1.488450 0.952162 25.250000
6.038344 1.448624 0.973315 44.799999
6.859252 1.478011 0.974270 124.000000
7.049679 1.419346 0.956042 32.333332
5.787411 1.535565 0.938505 23.600000
6.714493 1.550164 0.956849 35.916668
5.730401 1.617098 0.933271 4.000000
7.552164 1.728289 0.938224 62.000000
7.897476 1.938332 0.984791 22.666668
7.339907 2.072828 0.923660 51.428570
7.477823 2.010672 0.937743 23.000000
7.845600 2.017321 0.981024 18.000000
7.314511 2.165268 0.923797 15.000000
7.984820 2.129126 0.903159 0.000000
7.270339 2.201948 0.919950 6.333333
7.594124 2.378399 0.963711 2.000000
7.465085 2.493436 0.953132 1.000000
7.394373 2.543049 0.946960 7.166667
7.334436 2.604465 0.942552 1.000000
4.612004 3.169452 0.934981 29.450001
4.576739 3.226592 0.923456 10.000000
2.885399 3.985033 0.903967 255.000000
3.050472 3.940830 0.906436 153.000000
2.756877 4.011601 0.908965 155.916672
-9.839460 4.198893 0.918644 7.666667
-9.819380 4.275733 0.919670 4.333333
-8.099598 7.942810 0.974141 37.500000
-7.177726 7.957697 0.920241 25.000000
-8.292509 8.030365 0.991252 38.500000
-8.067541 8.036629 0.977849 38.000000
-7.931683 8.076937 0.972088 42.000000
-7.328586 8.073801 0.936325 39.000000
-7.049223 8.066457 0.919899 45.000000
-7.162286 8.118317 0.929652 43.500000
-7.880555 8.203495 0.976822 35.000000
-7.609217 8.236109 0.962882 51.400002
-7.517870 8.230233 0.957201 40.000000
-6.931849 8.240587 0.924690 49.000000
-7.287766 8.392485 0.954463 72.000000
-7.208318 8.371600 0.948645 23.666666
-7.950567 8.407486 0.993648 54.000000
-7.539783 8.438674 0.971746 34.000000
-7.201466 8.479712 0.955319 40.500000
-7.007312 8.437163 0.941801 30.200001
-6.928825 8.450315 0.938379 29.000000
-6.522192 8.540035 0.922750 49.000000
-6.414679 8.537346 0.916990 45.500000
-6.815088 8.694734 0.948645 41.000000
-6.711786 8.646408 0.939919 72.000000
-6.465352 8.718340 0.932048 37.500000
-10.579105 8.829830 0.942313 15.000000
-10.539092 8.852753 0.941222 34.000000
-6.974677 8.812525 0.965072 44.500000
-6.400474 8.802996 0.934614 44.000000
-10.526152 8.926838 0.943814 15.500000
-7.226645 8.927352 0.986290 19.000000
-6.412092 8.996031 0.948645 44.000000
-10.441414 9.150417 0.949409 24.333334
-10.304479 9.164783 0.943041 35.000000
-9.682844 9.184085 0.912622 24.799999
-6.466130 9.162930 0.963019 81.000000
-10.232859 9.216945 0.941767 24.000000
-9.615614 9.253330 0.912567 27.500000
-10.195381 9.417913 0.949136 1.000000
-9.625420 9.409468 0.920482 16.000000
-4.617235 9.723829 0.924348 18.000000
-5.069161 9.886454 0.954053 40.200001
-4.725144 9.831295 0.936668 67.000000
-5.312684 10.025583 0.974312 36.000000
-5.353182 10.202346 0.989370 42.400002
-5.189439 10.295664 0.990055 3.000000
-5.121419 10.240627 0.983210 10.000000
-4.973214 10.264723 0.979446 25.000000
-4.524443 10.289820 0.965243 16.000000
-5.077614 10.314224 0.987203 18.333334
-4.324808 10.338624 0.962334 5.000000
-4.649961 10.419509 0.979788 16.000000
-4.416975 10.420907 0.971917 0.000000
-4.238396 10.406630 0.964901 2.500000
-4.781082 10.579046 0.996899 19.500000
-4.302981 10.709396 0.991081 0.000000
-7.504700 10.923496 0.906291 9.000000
-5.791523 13.199594 0.985704 1.000000
-5.966424 13.257322 0.994164 4.000000
-5.892215 13.203118 0.988706 12.000000
-5.678192 13.222746 0.984066 2.500000
-4.595933 13.205029 0.956140 0.000000
-4.515859 13.242515 0.956777 0.000000
-5.549834 13.326106 0.987159 1.666667
-7.365867 17.677973 0.975853 4.000000
1.404745 17.613148 0.900333 1.000000
-7.302993 17.762337 0.978601 2.500000
-7.063632 17.732109 0.972596 1.000000
-7.224462 17.809540 0.979313 1.000000
1.995735 18.430819 0.944640 15.333333
1.857839 18.514858 0.948169 15.500000
2.278942 19.083448 0.979313 28.000000
2.449452 19.227459 0.987659 39.000000
2.215836 19.328159 0.991323 7.000000
2.406269 19.373812 0.994783 38.000000
6.507035 26.254406 0.908170 30.000000
6.435917 26.321318 0.909781 14.000000
6.651814 26.481981 0.916760 15.000000
7.001446 26.462004 0.919042 10.000000
7.904651 26.481857 0.927901 28.000000
8.087229 26.485195 0.929780 35.000000
6.806345 26.566475 0.920787 10.000000
7.109377 26.532555 0.922264 32.000000
7.195836 26.521666 0.922666 27.000000
8.012071 26.537262 0.930720 36.000000
7.872330 26.679102 0.933941 12.000000
5.918637 26.741417 0.919579 1.000000
7.533207 26.764374 0.933539 17.000000
7.658125 26.724705 0.933404 33.500000
7.427754 26.820072 0.934389 29.666666
7.866831 26.972349 0.943337 15.000000
8.346139 27.028807 0.949780 8.000000
8.484190 27.023468 0.950988 23.000000
6.282985 27.171320 0.936357 4.000000
8.897314 27.285858 0.963605 38.000000
5.763387 27.468021 0.942330 8.000000
9.196186 27.757786 0.981793 8.500000
7.358318 27.810806 0.965887 2.000000
7.200405 27.922300 0.968169 10.000000
9.025117 27.975685 0.986960 33.000000
7.334568 28.077465 0.974343 5.000000
7.613517 28.061110 0.976222 6.000000
7.891726 28.038136 0.977967 8.000000
8.972433 28.114346 0.990853 30.000000
11.023890 -30.124197 1.077026 11.000000
10.181952 -29.840969 1.058637 2.000000
10.703426 -29.827871 1.064006 4.000000
10.243073 -29.714350 1.055281 7.000000
10.345577 -29.708452 1.056221 8.000000
10.560144 -29.721968 1.059039 6.000000
10.424266 -29.634317 1.054744 9.000000
8.771001 -28.617170 1.004947 1.000000
8.895067 -28.541126 1.003739 6.500000
9.180905 -28.509272 1.005618 6.000000
9.022202 -28.476070 1.002933 9.000000
0.652588 -21.482206 1.095137 1.000000
1.123349 -21.434736 1.093712 10.000000
1.193781 -21.486944 1.096562 5.000000
0.782669 -21.344542 1.088352 7.333333
1.052662 -21.370331 1.090252 12.000000
0.947905 -21.283237 1.085570 10.000000
0.308696 -21.054420 1.072949 0.000000
0.043616 -20.824936 1.061143 0.000000
-0.086998 -20.768873 1.058293 0.000000
-0.243578 -20.228264 1.030813 11.500000
-0.337733 -20.155020 1.027149 11.000000
-0.430827 -20.067310 1.022773 13.000000
-0.553964 -19.958385 1.017378 12.500000
-0.705839 -19.818974 1.010525 14.000000
-0.945452 -19.611752 1.000483 14.000000
-0.856364 -19.693790 1.004452 14.000000
-7.029067 -14.247284 1.086403 12.500000
-7.126619 -14.163657 1.084265 13.000000
-7.243133 -14.063411 1.081764 13.000000
-7.396822 -13.928990 1.078489 14.000000
-7.320834 -13.997547 1.080217 13.333333
-7.472146 -13.859962 1.076761 14.000000
-7.640811 -13.705327 1.073031 15.000000
-7.565110 -13.772305 1.074532 14.000000
-7.714980 -13.636209 1.071393 15.000000
-7.790578 -13.570158 1.070029 16.000000
-7.921360 -13.453244 1.067618 15.833334
-8.032413 -13.352380 1.065572 17.000000
-8.199983 -13.204691 1.062934 18.500000
-8.106493 -13.285783 1.064298 17.000000
-8.346478 -13.071175 1.060546 19.500000
-8.806439 -12.924325 1.069483 11.666667
-8.530956 -12.908499 1.058090 23.500000
-8.435368 -12.984368 1.058840 22.000000
-8.642729 -12.856894 1.059386 12.000000
-8.972752 -12.776464 1.067641 8.750000
-9.113338 -12.649940 1.066163 11.166667
-9.288728 -12.502735 1.065117 12.750000
-9.212378 -12.564095 1.065390 12.000000
-9.359931 -12.434587 1.064298 14.000000
-9.431191 -12.366777 1.063548 16.750000
-9.588218 -12.223913 1.062388 23.333334
-9.521324 -12.283662 1.062797 21.500000
-9.683777 -12.135024 1.061678 25.799999
-9.791719 -12.035829 1.061023 18.000000
-9.756370 -12.069632 1.061296 17.000000
-9.771335 -11.933990 1.054747 20.000000
-9.874077 -11.717533 1.047856 24.500000
-9.709240 -11.744755 1.042057 12.500000
-9.969105 -11.643485 1.048197 3.000000
19.103193 -9.645567 1.090455 18.500000
18.161905 -9.134485 1.035902 0.000000
18.401407 -9.182623 1.047912 69.000000
18.197460 -9.009560 1.034680 51.000000
18.210739 -8.891858 1.032645 35.000000
18.483181 -8.721165 1.041398 16.000000
18.190626 -8.583139 1.024910 22.000000
18.441204 -7.323738 1.011068 28.000000
18.467514 -6.934125 1.005165 2.000000
18.796236 -6.990258 1.021856 11.000000
18.960552 -6.983640 1.029592 3.000000
13.245789 -6.201962 1.000167 8.000000
13.351693 -6.115691 1.004261 18.666666
13.380358 -6.010560 1.003078 28.333334
-6.797159 -5.902435 1.090186 51.000000
13.749295 -5.918537 1.023637 9.000000
-6.778200 -5.830226 1.082733 52.000000
13.440411 -5.873383 1.003033 25.000000
13.830275 -5.825080 1.026229 5.500000
-6.736351 -5.702855 1.068867 52.333332
-6.695101 -5.560462 1.053959 53.000000
13.830718 -5.545898 1.018997 1.000000
-6.653547 -5.438152 1.040654 53.500000
13.824445 -5.442806 1.015995 39.000000
-6.632830 -5.369243 1.033441 54.000000
-6.605356 -5.278753 1.023983 54.000000
-6.555022 -5.111249 1.035971 55.400002
14.159095 -4.966768 1.026093 0.000000
14.277057 -4.857527 1.031278 39.000000
13.914523 -4.783007 1.006171 56.000000
14.208505 -4.685263 1.023091 22.000000
-6.370726 -4.509213 1.083744 57.000000
-6.324950 -4.358528 1.066553 49.000000
-6.281321 -4.213063 1.050187 59.500000
-6.240870 -4.073164 1.034783 60.250000
14.197346 -4.071017 1.009992 19.500000
-6.207290 -3.968227 1.022956 60.000000
14.412655 -3.913039 1.021271 23.333334
-6.184101 -3.890764 1.066774 61.000000
-6.151123 -3.788147 1.095286 61.428570
-6.054918 -3.505704 1.096636 3.000000
-6.032206 -3.442130 1.088584 4.500000
-6.016085 -3.333557 1.078054 46.000000
-5.974073 -3.176617 1.060525 71.400002
-5.928140 -3.022059 1.042955 73.166664
-5.899079 -2.914239 1.031290 74.500000
-5.877415 -2.852910 1.091118 72.857140
-5.840334 -2.727289 1.068213 75.500000
-5.797053 -2.582938 1.092409 76.571426
-5.759421 -2.450733 1.093530 75.750000
-5.726281 -2.346842 1.081196 33.750000
9.677357 -2.368034 1.030266 0.000000
-6.011779 -2.217106 1.052058 62.666664
-5.827472 -2.276573 1.093048 52.799999
-6.247116 -2.138337 1.068671 60.428570
-6.116285 -2.181405 1.076102 62.250000
-6.576088 -2.035574 1.078983 57.333332
-6.506658 -2.059036 1.069692 58.000000
-6.414181 -2.085206 1.057150 58.750000
-6.972640 -1.908781 1.068406 56.250000
-6.703179 -1.994349 1.096171 56.250000
8.494600 -1.937643 1.055141 23.500000
9.735880 -1.948971 1.026768 8.000000
-7.311163 -1.805109 1.045648 54.000000
-7.161418 -1.851987 1.027081 54.666668
-7.055220 -1.883817 1.079224 55.500000
8.525543 -1.888506 1.057486 0.000000
9.706917 -1.848173 1.021831 54.000000
-7.624569 -1.705534 1.084844 44.750000
-7.506745 -1.741351 1.069991 52.000000
-7.444482 -1.763879 1.062289 53.000000
-7.730699 -1.665788 1.098047 5.000000
9.683600 -1.670905 1.016194 52.599998
9.684580 -1.561625 1.014425 10.500000
9.775087 -1.458268 1.022037 40.750000
10.043464 -1.409729 1.048781 1.000000
10.259535 -1.472939 1.071822 15.000000
10.376239 -1.224424 1.080462 12.500000
8.244188 -1.143970 1.007954 66.000000
9.605772 -1.133518 1.000230 17.000000
9.729263 -0.993410 1.011339 47.000000
8.986923 -0.817827 1.092831 59.000000
8.297146 -0.794540 1.009396 102.000000
9.040668 -0.637084 1.097560 51.333332
8.902832 -0.549922 1.080208 37.500000
5.910666 -0.370851 1.034671 1.000000
6.014163 -0.282569 1.051882 9.000000
6.587479 -0.022131 1.032529 13.750000
6.045164 0.018315 1.056150 22.600000
6.183082 0.044953 1.080278 31.000000
6.551928 0.032019 1.026954 0.000000
6.385304 0.143338 1.019893 22.416668
6.398320 0.212254 1.003417 2.000000
6.745147 0.244976 1.057924 1.000000
6.647854 0.361811 1.043523 13.000000
10.159027 0.370739 1.051249 8.000000
8.484909 0.469923 1.029113 3.000000
9.981173 0.458401 1.033249 11.750000
10.599110 0.420145 1.096920 15.000000
6.703355 0.549938 1.054207 2.500000
6.178470 0.624318 1.084925 5.000000
9.716558 0.676052 1.007224 5.500000
5.623325 0.737288 1.093304 78.333336
6.081489 0.730585 1.070124 54.500000
6.161552 0.706378 1.083548 22.444445
5.626695 0.827897 1.096333 33.666668
9.698112 0.812669 1.006402 19.000000
5.728811 0.961068 1.098647 47.599998
5.787432 0.914543 1.023657 39.333332
5.900262 0.907083 1.042932 1.000000
6.375166 1.000604 1.011469 14.000000
6.639238 0.999350 1.052349 80.000000
7.271022 1.071098 1.020480 9.000000
6.076828 1.199963 1.082171 6.500000
6.032744 1.288474 1.077746 38.714287
6.163718 1.267472 1.099381 7.000000
6.288315 1.241692 1.004656 38.500000
5.756241 1.392581 1.034671 95.000000
5.922105 1.337840 1.060716 43.833332
6.464443 1.308157 1.033767 92.000000
6.057991 1.485743 1.089744 93.000000
6.602588 1.401015 1.057924 105.000000
7.099107 1.494877 1.072519 21.000000
5.733013 1.659829 1.078376 4.000000
5.828662 1.615310 1.056700 15.500000
8.049551 1.868747 1.000740 40.000000
8.133359 1.928724 1.012282 20.000000
7.411392 2.396672 1.081544 32.000000
7.291912 2.438478 1.067607 29.666666
7.328171 2.549115 1.077326 11.000000
7.181263 2.676387 1.064123 5.333333
7.151979 2.716782 1.062289 2.000000
4.608166 3.170970 1.078313 50.849998
4.583955 3.221676 1.080054 7.500000
-11.309693 5.080402 1.064659 12.000000
-11.279407 5.195107 1.066371 8.000000
-11.265661 5.124559 1.062777 28.500000
-7.010353 7.971292 1.097743 43.000000
-8.777529 8.082659 1.024619 6.500000
-6.878063 8.098753 1.098772 45.500000
-8.733510 8.118522 1.023935 9.000000
-8.591715 8.164621 1.017775 7.000000
-8.446734 8.102960 1.005112 27.000000
-8.002144 8.542304 1.005112 76.000000
-8.488484 9.118728 1.069793 3.000000
-7.350394 9.119294 1.005797 47.666668
-8.432159 9.289593 1.077322 4.000000
-7.927510 9.245918 1.045837 0.000000
-8.497583 9.450670 1.091353 2.000000
-7.860236 9.464338 1.056446 1.000000
-6.805618 9.708605 1.018117 57.000000
-6.762050 9.743834 1.018459 55.000000
-6.740893 9.811734 1.022224 30.000000
-6.805369 10.177261 1.051313 55.000000
-6.733693 10.194231 1.049122 53.799999
-6.543552 10.140368 1.036323 27.799999
-6.450992 10.174965 1.034544 20.750000
-5.614861 10.243015 1.003059 101.000000
-6.981976 10.370719 1.073557 44.000000
-5.616809 10.362221 1.012128 96.500000
-7.121131 10.435276 1.084851 10.000000
-7.059246 10.414709 1.080402 4.000000
-5.747197 10.406738 1.020855 142.000000
-4.935692 10.626494 1.006139 35.799999
-5.236210 10.982869 1.044810 2.000000
-4.781336 11.134182 1.040533 7.000000
-5.150201 11.540435 1.085193 6.000000
-6.197171 14.124241 1.054747 1.000000
-6.097253 14.260242 1.060569 5.333333
-5.996194 14.271347 1.058567 3.000000
-5.871997 14.353082 1.060478 0.000000
-5.642947 14.369646 1.055702 0.000000
-6.009627 14.430107 1.068937 2.000000
-5.314615 14.460281 1.053519 0.000000
-5.882359 14.508293 1.070575 0.000000
14.731842 15.362224 1.084552 0.000000
14.780031 15.315866 1.084552 57.000000
3.470218 19.640554 1.016293 26.666666
2.600250 19.750368 1.015071 26.666666
2.874984 20.050550 1.032136 10.500000
3.030930 20.017546 1.031627 24.000000
5.497787 20.137909 1.063687 9.500000
3.345319 20.362232 1.051474 15.500000
5.414824 20.336121 1.072339 18.000000
3.765747 20.497896 1.061957 9.500000
5.278887 20.470886 1.077224 23.000000
5.338123 20.434875 1.076206 19.000000
6.080247 20.605783 1.094730 12.000000
9.104301 28.840046 1.015416 7.000000
8.559094 29.006527 1.015416 7.000000
9.064454 29.355055 1.031523 7.000000
9.687465 29.395411 1.039174 14.000000
9.759555 29.304146 1.037026 33.000000
13.414055 -32.193523 1.170984 4.000000
13.230444 -32.035973 1.163735 5.000000
13.049478 -31.881285 1.156621 5.000000
12.868106 -31.722080 1.149373 5.000000
12.678917 -31.539795 1.141320 6.000000
12.510232 -31.404917 1.135011 5.000000
12.336652 -31.254419 1.128166 6.000000
12.167060 -31.110586 1.121589 6.000000
11.998487 -30.966000 1.115011 6.000000
11.826645 -30.809465 1.108032 4.000000
3.209531 -23.249060 1.195898 9.000000
3.084692 -23.149055 1.189995 9.500000
2.917816 -22.999548 1.181343 9.500000
2.754375 -22.860767 1.173303 9.500000
2.631867 -22.746540 1.166789 9.000000
2.044679 -22.642372 1.158443 3.000000
2.472827 -22.615694 1.159257 10.000000
1.963131 -22.529291 1.152336 0.000000
2.143615 -22.550930 1.154270 6.500000
2.394596 -22.555820 1.155797 10.000000
2.536719 -22.544298 1.156000 17.000000
2.279620 -22.481375 1.151421 8.500000
-4.297215 -16.945440 1.195471 2.666667
-4.324903 -16.651304 1.176459 12.500000
-4.754038 -16.520586 1.175586 3.600000
-4.632702 -16.547588 1.175094 6.000000
-4.390073 -16.580605 1.172911 13.000000
-4.857060 -16.449867 1.172911 0.000000
-4.478413 -16.494883 1.168818 12.000000
-4.996722 -16.353745 1.169363 0.000000
-4.933880 -16.393631 1.170728 0.000000
-5.075596 -16.245779 1.163906 0.333333
-5.230776 -16.146858 1.160676 0.000000
-5.334782 -16.093204 1.159403 0.500000
-5.475743 -15.929809 1.151898 0.000000
-5.393090 -15.960770 1.152080 0.000000
-5.510053 -15.867289 1.148623 0.000000
-5.636497 -15.750780 1.143984 0.000000
-5.566153 -15.788448 1.144803 0.000000
-5.672384 -15.695463 1.141255 6.000000
-5.665874 -15.449367 1.125291 12.000000
-6.091809 -15.331491 1.128156 5.666667
-5.980907 -15.332324 1.125427 3.000000
-5.810608 -15.320811 1.120515 13.000000
-5.726815 -15.390716 1.122971 12.000000
-6.295749 -15.214371 1.125973 1.000000
-6.214328 -15.288740 1.128565 1.000000
-5.890991 -15.243090 1.117513 12.000000
-6.378068 -15.143246 1.123653 1.000000
-6.442918 -15.054296 1.119787 1.000000
-6.609778 -14.901779 1.114784 1.000000
-6.518824 -14.970816 1.116603 1.000000
-6.666857 -14.841361 1.112601 1.000000
-6.733818 -14.772673 1.110213 1.000000
-6.907931 -14.633671 1.106597 1.000000
-6.846463 -14.682325 1.107825 1.000000
-7.004248 -14.521363 1.102504 1.666667
-7.052800 -14.466793 1.100593 8.000000
19.538544 -10.175431 1.122515 12.000000
19.602272 -10.091509 1.123431 1.000000
14.619896 -7.807939 1.133409 27.500000
14.735909 -7.766077 1.139072 14.000000
14.861663 -7.654261 1.143165 13.000000
15.102477 -7.333347 1.148077 8.000000
15.664060 -7.036422 1.174276 7.000000
15.970084 -6.815114 1.187375 0.000000
15.789271 -6.679394 1.172365 19.000000
15.590385 -6.508824 1.155309 23.500000
15.911445 -6.508191 1.175586 40.799999
-6.961125 -6.439306 1.148375 3.000000
-6.928068 -6.328531 1.136352 36.666668
16.079609 -6.272411 1.180279 12.000000
-6.880937 -6.167557 1.119040 50.333332
15.736772 -6.195705 1.156537 2.000000
16.114571 -6.198671 1.180689 31.500000
-6.831416 -6.008019 1.101728 50.666668
15.162922 -5.832629 1.110964 6.500000
15.805549 -5.824707 1.151898 11.000000
15.894996 -5.801020 1.157083 16.000000
15.193983 -5.762551 1.111236 12.000000
15.868106 -5.734778 1.153808 43.000000
-6.653227 -5.435950 1.192944 54.000000
-6.627976 -5.363400 1.183867 54.000000
16.533611 -5.394436 1.189285 13.000000
-6.605754 -5.277182 1.173965 54.333332
-6.558398 -5.122334 1.192416 55.500000
-6.513409 -4.972769 1.137840 55.333332
-6.468143 -4.826643 1.120603 57.000000
16.112835 -4.730051 1.148350 17.500000
-6.419325 -4.665775 1.101898 57.750000
-6.278219 -4.210982 1.184900 58.250000
13.322024 -4.093300 1.196758 16.500000
-6.096418 -3.619962 1.111315 53.599998
13.570681 -3.155483 1.196416 20.000000
13.583790 -3.098630 1.196416 2.000000
-5.733224 -2.385367 1.197032 53.666668
-6.495342 -2.055455 1.190251 59.000000
8.355236 -2.059969 1.194869 41.000000
9.656641 -2.059652 1.195743 19.500000
-6.852211 -1.945302 1.116457 55.750000
8.258287 -1.858139 1.175340 45.500000
-7.429091 -1.760232 1.196668 52.000000
-7.320362 -1.795263 1.181390 53.333332
8.144058 -1.778670 1.157461 9.000000
9.541480 -1.708188 1.173862 1.000000
9.591156 -1.654956 1.178671 3.000000
9.725512 -1.646693 1.194541 4.000000
7.901676 -1.530133 1.117543 4.375000
7.850402 -1.406819 1.107400 28.000000
8.445914 -1.404271 1.188818 102.000000
7.994011 -1.367795 1.126104 65.000000
8.028195 -1.231355 1.127754 37.000000
8.145648 -1.223190 1.143708 104.000000
9.052401 -1.241609 1.106537 17.333334
9.501968 -1.161676 1.159275 45.000000
9.590896 -1.131763 1.169534 12.000000
7.866859 -1.036356 1.101761 21.750000
7.936101 -1.064542 1.111801 33.000000
7.871081 -0.980395 1.101348 12.000000
7.939721 -0.913048 1.109710 8.000000
9.328947 -0.804693 1.133948 20.000000
10.786571 -0.828087 1.118727 34.000000
9.163555 -0.732578 1.113269 1.500000
11.108081 -0.607425 1.150408 25.000000
11.286730 -0.688348 1.169335 11.000000
10.874364 -0.543251 1.125927 12.000000
8.624990 -0.269594 1.198170 1.500000
5.895398 -0.152769 1.136840 16.750000
5.995444 -0.160138 1.156147 19.000000
6.365811 -0.148907 1.112461 7.000000
9.578335 -0.147049 1.160096 12.250000
5.914812 -0.027483 1.104527 16.166666
6.034976 -0.075912 1.190850 42.000000
5.851059 0.599445 1.133811 18.000000
7.927806 0.562709 1.103549 4.000000
8.087996 0.599623 1.126104 91.000000
5.760277 0.617481 1.116776 49.500000
6.137883 0.687457 1.190596 8.500000
5.434541 0.775045 1.199074 33.200001
5.702021 0.741389 1.108447 99.666664
7.059496 0.769400 1.113050 56.000000
7.211211 0.763020 1.136587 27.000000
8.135956 0.783403 1.134906 15.000000
8.410335 0.756546 1.172498 7.333333
5.453357 0.816316 1.184214 4.400000
7.287760 0.860063 1.172279 39.866669
8.153120 0.849585 1.138206 13.500000
8.285810 0.876723 1.156911 25.000000
5.551141 0.995807 1.190333 46.000000
6.141618 0.943091 1.197789 5.000000
6.727113 0.915514 1.186120 46.250000
6.780269 0.998913 1.197364 44.333332
8.209268 0.920817 1.147009 28.000000
8.450359 0.974750 1.181116 14.000000
5.832481 1.008493 1.141004 117.000000
6.062918 1.000998 1.184593 51.428570
8.559270 1.096468 1.198170 5.000000
5.386350 1.106639 1.160595 1.000000
6.200364 1.183904 1.102823 25.000000
6.422817 1.195037 1.141374 76.000000
6.364633 1.287960 1.134490 18.000000
6.970681 1.250623 1.110056 36.388889
5.861465 1.302707 1.157493 29.111111
6.994124 1.449690 1.119553 60.000000
6.179483 1.536137 1.112461 94.000000
6.591076 1.638305 1.186579 36.333332
5.661765 1.762161 1.138151 9.681818
6.588175 1.703817 1.188874 5.000000
8.026571 1.703172 1.139307 20.000000
8.308769 1.708568 1.177815 4.000000
7.844028 2.240417 1.132705 23.333334
7.742414 2.387813 1.125004 8.000000
7.894058 2.362257 1.144120 27.000000
7.955330 2.326301 1.150859 31.000000
7.145822 2.473070 1.185209 3.500000
7.735866 2.474782 1.127754 6.000000
7.838228 2.453348 1.140407 6.000000
7.917362 2.505452 1.153060 2.000000
-9.837924 4.198237 1.106109 7.000000
-9.813809 4.261058 1.106383 6.000000
-7.276003 7.865624 1.108029 55.000000
-8.391987 7.999962 1.198959 47.000000
-8.243443 8.075411 1.193336 28.333334
-7.233881 8.070788 1.120784 0.000000
-7.033165 8.099237 1.109264 52.500000
-10.479472 8.149241 1.139949 0.000000
-10.427056 8.227394 1.140548 18.000000
-10.360669 8.267852 1.138238 15.000000
-7.748976 8.246040 1.170158 24.500000
-7.634127 8.200937 1.158637 42.000000
-7.340803 8.242035 1.141356 73.000000
-7.294048 8.399719 1.150408 62.000000
-7.121995 8.306439 1.131482 21.000000
-6.971449 8.314094 1.122018 37.000000
-7.754083 8.488964 1.188947 59.666668
-10.314661 8.536089 1.149702 27.833332
-7.607576 8.595777 1.187027 35.000000
-6.737543 8.568110 1.127162 57.500000
-7.148251 8.607054 1.156991 50.000000
-10.429909 8.854610 1.174856 18.666666
-10.306187 8.852203 1.166642 33.500000
-10.190216 8.864483 1.159798 32.500000
-7.113306 8.815608 1.171392 34.000000
-7.056787 8.830395 1.168923 35.000000
-10.207554 8.992911 1.168182 39.000000
-7.160138 9.017670 1.190730 70.000000
-10.285716 9.148151 1.182042 13.000000
-10.066897 9.182674 1.170064 5.000000
-9.515175 9.156619 1.133960 3.500000
-10.307411 9.225602 1.187860 11.000000
-10.026434 9.232697 1.170407 18.000000
-9.936119 9.236446 1.164931 21.000000
-6.793016 9.312138 1.191965 31.000000
-6.739722 9.331139 1.190319 36.000000
-9.949891 9.425608 1.176909 43.000000
-6.285124 11.268937 1.108008 34.000000
-6.114783 11.451949 1.114795 14.000000
-5.528805 11.690999 1.110518 5.000000
-5.381642 11.662976 1.102988 31.000000
-5.708425 11.735216 1.120613 14.000000
-5.468688 11.754415 1.113255 19.000000
-6.044825 11.899552 1.146109 4.000000
-5.944145 11.885513 1.141147 33.000000
-5.829689 11.842278 1.133446 12.000000
-5.401363 11.803037 1.114624 23.000000
-6.284945 11.905343 1.156033 3.000000
-5.961025 11.919476 1.144398 32.000000
-5.386729 12.489836 1.168011 1.000000
-7.675614 14.877593 1.144803 11.000000
-7.508108 14.895821 1.140709 28.000000
-7.591582 14.905701 1.143893 15.333333
-7.465206 14.966418 1.143711 20.666666
-6.684485 16.193703 1.198018 0.000000
1.379344 16.599890 1.139072 5.000000
1.340224 16.767239 1.150261 2.000000
1.295178 16.870840 1.157083 1.000000
3.219347 21.960484 1.130963 9.000000
3.294241 21.989771 1.132999 20.000000
3.464407 22.173878 1.143584 41.000000
3.403793 22.243885 1.146637 2.000000
4.947815 22.692732 1.183481 28.000000
4.885726 22.751125 1.185720 19.000000
5.494323 22.780384 1.194066 1.000000
5.572505 22.790174 1.195491 1.000000
3.681290 22.855366 1.179613 33.000000
3.796809 22.885084 1.182056 8.000000
4.090413 22.870956 1.183888 0.000000
12.350847 31.678288 1.141588 22.000000
11.705970 31.781656 1.137159 15.000000
12.048909 31.785807 1.141320 19.000000
12.142993 31.732861 1.140783 52.000000
11.828053 31.804676 1.139306 15.000000
12.294480 31.828808 1.145615 35.000000
11.608253 31.928061 1.140649 15.666667
12.031902 32.044315 1.149239 17.000000
11.254259 32.101192 1.142125 7.000000
10.853812 32.251446 1.142528 3.000000
11.541897 32.270760 1.150715 15.000000
11.045170 32.482132 1.151924 9.000000
11.149758 32.454838 1.152192 14.000000
11.285743 32.517841 1.155682 10.000000
14.492809 32.551380 1.196352 4.000000
14.611376 32.542160 1.197694 18.000000
11.556558 32.634712 1.162393 10.000000
11.908056 32.967537 1.176889 2.000000
16.065222 -34.514858 1.278230 6.000000
15.841093 -34.314713 1.268968 5.000000
15.630031 -34.138947 1.260646 5.000000
15.416924 -33.954918 1.252056 5.000000
15.203489 -33.766239 1.243331 5.000000
14.220083 -33.532951 1.222929 2.000000
14.997920 -33.591156 1.235143 5.000000
14.286054 -33.396221 1.219573 3.000000
14.424160 -33.284477 1.217963 10.500000
14.717529 -33.243309 1.220647 7.000000
14.566419 -33.183231 1.216754 7.000000
4.852648 -24.941317 1.294725 7.000000
5.140677 -24.954960 1.298287 8.000000
5.003717 -24.882927 1.293300 8.000000
3.908325 -23.866735 1.232334 7.000000
3.771130 -23.729004 1.224294 8.500000
3.639414 -23.618238 1.217678 9.000000
3.552085 -23.542652 1.213200 9.000000
3.464099 -23.458849 1.208315 9.000000
3.295407 -23.329838 1.200580 9.000000
3.378965 -23.390539 1.204244 9.000000
-2.279125 -18.806156 1.295442 0.000000
-1.778768 -18.888096 1.297352 10.000000
-2.371189 -18.743799 1.291985 0.000000
-2.494260 -18.619759 1.284662 0.000000
-2.663363 -18.469322 1.276066 0.000000
-2.808726 -18.334700 1.268425 0.000000
-2.915856 -18.265526 1.264877 0.000000
-2.940320 -17.877480 1.238952 10.500000
-3.394823 -17.739048 1.235077 3.200000
-3.263894 -17.748215 1.234040 5.500000
-3.113198 -17.710402 1.229674 11.666667
-3.013256 -17.796551 1.234313 12.000000
-3.615917 -17.630995 1.230765 0.000000
-3.542946 -17.698690 1.234313 0.000000
-3.686629 -17.555161 1.226672 0.000000
-3.855525 -17.405735 1.219122 0.000000
-3.759280 -17.490789 1.223397 0.000000
-3.977965 -17.313374 1.214801 0.000000
-4.165935 -17.141733 1.206341 0.000000
-12.284241 -14.347465 1.291621 8.000000
16.079664 -7.995970 1.228036 22.500000
16.213871 -7.967672 1.235405 18.000000
17.189560 -6.830133 1.264877 13.000000
-6.909879 -6.269892 1.295542 48.000000
-6.873311 -6.158547 1.281422 49.000000
-6.828887 -6.003680 1.262534 50.333332
13.002939 -6.063432 1.232007 18.500000
-6.797746 -5.900864 1.249882 50.000000
13.021200 -5.947831 1.229269 2.000000
-6.780249 -5.848425 1.243280 51.000000
12.705624 -5.851994 1.201207 28.000000
12.978106 -5.878939 1.223451 59.000000
17.423468 -5.836584 1.256554 1.500000
-6.743522 -5.725209 1.228289 52.000000
12.812840 -5.731460 1.205314 10.000000
13.027359 -5.729447 1.222083 12.000000
13.800154 -5.710565 1.282485 20.500000
17.560431 -5.729428 1.263149 2.000000
-6.690047 -5.554286 1.207339 52.333332
13.890052 -5.582394 1.285480 3.000000
