# This PCD file was generated using the MATLAB® pcwrite function
# from Computer Vision Toolbox®.
# .PCD v.7 - Point Cloud Data file format
VERSION .7
FIELDS x y z intensity
SIZE 4 4 4 4
TYPE F F F F
COUNT 1 1 1 1
WIDTH 1223
HEIGHT 1
VIEWPOINT 0 0 0 1 0 0 0
POINTS 1223
DATA ascii
-10.418262 -19.919825 2.722340 13.000000
-10.423394 -19.778095 2.707433 11.000000
9.558601 -17.707798 2.794080 1.000000
-10.518195 -17.050508 2.781702 13.000000
10.022614 -17.124197 2.755021 55.000000
10.098495 -17.130169 2.761072 37.000000
10.818438 -16.981544 2.795730 2.000000
-10.530381 -16.891464 2.763823 13.000000
10.958560 -16.848940 2.790779 20.000000
11.046168 -16.867462 2.799581 13.000000
-10.530728 -16.774412 2.750070 12.000000
10.020885 -16.756947 2.711011 32.000000
10.787867 -16.758799 2.767399 12.000000
10.042812 -16.674475 2.702759 9.000000
-10.535306 -16.607521 2.730815 12.500000
10.470972 -16.608360 2.726140 15.000000
-10.542965 -16.447599 2.712662 13.000000
-10.551614 -16.347820 2.701659 13.000000
11.357145 -16.153664 2.741818 4.500000
-10.626441 -14.298086 2.792225 11.000000
-10.628697 -14.207673 2.781076 12.000000
-10.633545 -14.075460 2.764972 11.000000
-10.642511 -13.904817 2.744532 11.000000
-10.645139 -13.773200 2.728428 11.000000
-10.650310 -13.646570 2.713253 11.000000
10.272766 -12.023598 2.762910 2.500000
10.406922 -11.988689 2.773580 21.000000
-10.716604 -11.893643 2.796986 13.000000
10.561991 -11.862855 2.774957 16.000000
-10.714215 -11.816133 2.786660 13.000000
-10.719730 -11.674119 2.768991 12.333333
10.318140 -11.736627 2.730211 6.000000
10.507126 -11.689863 2.746044 19.500000
10.801418 -11.717695 2.784251 8.500000
10.887402 -11.699848 2.792167 18.000000
-10.726940 -11.499266 2.747421 13.000000
-10.731334 -11.360031 2.730211 13.000000
-10.738491 -11.225467 2.714033 12.000000
9.136626 -11.009016 2.757867 18.166666
11.325863 -11.006229 2.759124 1.000000
9.187387 -10.894960 2.747267 24.000000
9.397705 -10.898880 2.774146 3.000000
9.258390 -10.828660 2.746384 22.333334
11.720932 -10.560987 2.756370 5.000000
11.816707 -10.250401 2.732965 5.000000
11.825993 -10.161230 2.724015 2.000000
11.927792 -10.151348 2.736407 17.000000
10.426538 -9.822036 2.761275 20.000000
-10.798804 -9.672217 2.794589 13.000000
-10.803099 -9.584740 2.783988 13.000000
10.602070 -9.556204 2.751432 4.000000
-10.802054 -9.433307 2.764555 13.666667
11.082921 -9.375746 2.798374 24.000000
-10.809959 -9.262071 2.744113 13.000000
10.866863 -9.281193 2.754839 10.500000
11.078307 -9.253050 2.782474 2.000000
9.064685 -9.150521 2.718518 21.000000
-10.841675 -9.113417 2.730232 8.000000
8.997454 -9.139907 2.706954 2.000000
-10.870493 -8.964221 2.716099 10.000000
9.204595 -8.891880 2.701172 1.000000
-11.123745 -8.656487 2.717108 5.666667
-11.002562 -8.701765 2.704111 6.000000
-11.221781 -8.453151 2.708275 7.000000
-11.192336 -8.541746 2.714080 7.333333
10.152338 -8.159775 2.749082 4.000000
10.286187 -8.161505 2.771385 11.000000
9.133495 -8.026797 2.792909 11.000000
10.617476 -7.756586 2.775240 19.000000
9.176487 -7.713643 2.753509 21.000000
-10.857996 -7.580304 2.794928 14.000000
-10.864996 -7.458988 2.781574 13.666667
-10.880702 -7.319831 2.767806 9.000000
-10.916121 -7.219760 2.762299 7.500000
-10.933407 -7.132854 2.755278 9.500000
9.578383 -7.136887 2.743659 37.666668
9.705911 -7.121878 2.765150 48.000000
-10.930292 -7.009109 2.740546 12.333333
9.775765 -7.032364 2.766045 3.000000
9.845387 -7.035617 2.779477 12.000000
-10.952215 -6.854378 2.726985 11.250000
9.529439 -6.900699 2.702468 39.000000
-11.108311 -6.831207 2.752386 9.000000
-11.226869 -6.711160 2.760647 8.000000
-11.166797 -6.734903 2.752387 3.250000
9.805907 -6.731854 2.732018 1.000000
-11.251711 -6.559216 2.748876 6.250000
9.730379 -6.635127 2.705155 16.000000
-11.293415 -6.418193 2.741648 7.000000
-11.300951 -6.282314 2.728982 7.333333
-11.308489 -6.124775 2.714388 8.250000
-10.999804 -5.197270 2.794401 12.000000
-10.999912 -5.071065 2.782164 15.000000
-11.009293 -4.950112 2.772612 17.666666
-11.085389 -4.900801 2.783954 20.000000
-11.181210 -4.817700 2.796491 1.000000
-11.047174 -4.842471 2.770523 4.000000
-11.330605 -4.465542 2.797386 9.333333
-11.366096 -4.328948 2.793655 8.000000
-11.376812 -4.176890 2.783731 8.250000
-11.383368 -4.017701 2.772761 8.000000
-11.387722 -3.859026 2.761792 11.000000
-11.390291 -3.720738 2.752315 16.666666
9.762402 -3.671391 2.787476 31.000000
-11.393596 -3.583684 2.743435 17.250000
-11.400395 -3.429003 2.734481 16.750000
-11.399491 -3.273108 2.724183 16.250000
9.922844 -3.293190 2.794188 45.500000
-11.406823 -3.120588 2.716348 17.250000
-11.414952 -2.969153 2.709184 18.000000
-11.420135 -2.817777 2.701797 18.000000
10.038089 -2.813945 2.786185 9.750000
10.084830 -2.685349 2.789197 11.666667
9.926934 -2.615406 2.743582 11.500000
10.121302 -2.581769 2.791607 0.000000
10.704460 -2.322219 2.719435 14.500000
10.185776 -0.304062 2.723443 22.333334
10.371257 0.505425 2.775082 8.000000
10.881633 0.650288 2.706423 3.500000
10.182791 1.010993 2.734804 11.000000
-11.568850 2.131662 2.702021 17.000000
-11.573660 2.283284 2.709632 16.250000
-11.573619 2.434761 2.716572 16.250000
9.952771 2.538767 2.745131 0.666667
-11.578255 2.588079 2.725079 16.000000
9.849963 2.611649 2.723443 18.666666
-11.584649 2.742805 2.734481 16.000000
9.780434 2.791567 2.718279 6.000000
10.014899 2.756771 2.776115 4.333333
-11.588980 2.898092 2.743883 16.000000
9.823254 2.870656 2.735148 18.000000
-11.586938 3.033309 2.751121 16.000000
-11.595773 3.172297 2.761344 16.000000
-11.597151 3.329854 2.771418 16.000000
10.668324 3.447830 2.783529 4.000000
-11.603855 3.490209 2.783283 16.000000
10.489821 3.481419 2.744012 10.500000
-11.608538 3.631243 2.793804 16.000000
10.568974 3.563015 2.769072 0.000000
-11.611531 3.712412 2.800072 15.000000
9.450886 3.759054 2.718279 19.000000
9.215565 4.848473 2.783000 4.333333
9.114389 4.899383 2.765529 9.000000
8.696963 5.198843 2.707952 17.000000
-11.655835 5.284931 2.701172 13.333333
-11.667033 5.423129 2.715490 13.333333
-11.670673 5.536669 2.726366 13.000000
-11.674435 5.628586 2.735453 13.000000
-11.673733 5.741703 2.745778 13.000000
-11.683186 5.883743 2.760922 13.000000
-11.687509 6.024682 2.775240 12.666667
-11.689977 6.189615 2.791830 12.250000
-11.587339 6.275711 2.781298 11.000000
9.154816 6.306030 2.759916 25.000000
8.863092 6.386413 2.712206 19.250000
7.820938 6.511557 2.719829 0.500000
8.153093 6.510859 2.788508 2.000000
10.154056 6.738678 2.799177 21.000000
10.024555 6.835655 2.786939 10.000000
9.496546 7.200436 2.737391 16.000000
8.048347 7.346525 2.705460 18.500000
9.527449 7.350252 2.763956 16.333334
10.569979 7.428690 2.726779 17.500000
7.978081 7.468369 2.713170 28.000000
8.193468 7.550031 2.766181 6.500000
8.267161 7.642086 2.795095 1.000000
-11.738144 7.684227 2.704489 12.333333
-11.745753 7.848344 2.723166 12.000000
-11.749853 7.985222 2.738560 12.000000
9.099340 7.996704 2.782462 3.000000
-11.753502 8.123429 2.754208 12.000000
-11.762015 8.294201 2.774398 12.000000
8.332558 8.306468 2.702468 32.666668
-11.762527 8.433605 2.790046 12.000000
8.523546 8.390698 2.747241 10.000000
-11.764042 8.518874 2.799888 12.000000
8.401638 8.534657 2.750823 7.000000
9.635894 8.740359 2.745778 9.000000
9.583669 8.803378 2.746604 5.000000
7.917371 8.980503 2.749927 19.000000
9.449986 9.043207 2.760647 32.000000
8.873759 9.243777 2.704476 9.000000
8.871865 9.329467 2.717279 17.500000
8.951702 9.266521 2.719345 0.000000
9.027043 9.643135 2.787906 58.000000
10.107272 9.949740 2.734018 9.000000
8.300736 10.001837 2.743300 20.000000
-11.822768 10.061964 2.712312 11.000000
-11.815038 10.119564 2.717819 11.000000
-11.824975 10.192648 2.727457 11.000000
-11.816709 10.250399 2.732965 14.000000
-11.827950 10.391227 2.750633 11.000000
9.621159 10.473932 2.741589 19.000000
-11.829325 10.558125 2.770138 11.000000
-11.834367 10.696980 2.787004 11.500000
-11.837715 10.801749 2.799740 12.000000
-11.908600 12.479066 2.703652 9.000000
-11.913407 12.602549 2.718208 9.500000
-11.917588 12.766698 2.737409 10.000000
-11.922832 12.934319 2.757229 9.500000
-11.927790 13.103946 2.777360 9.500000
-11.934759 13.236300 2.793464 10.000000
9.307981 14.826694 2.743912 0.000000
9.443202 14.937670 2.769927 32.000000
9.680000 14.997416 2.797800 11.000000
8.624197 15.070892 2.721614 2.000000
8.720838 15.129316 2.737099 5.000000
8.790152 15.139438 2.743912 22.000000
8.413130 15.196478 2.722543 20.500000
-12.012741 15.331443 2.704410 8.000000
7.834168 15.412025 2.709846 9.250000
-12.015596 15.484930 2.721463 10.000000
-12.012561 15.632469 2.737417 8.000000
8.327745 15.616160 2.773953 2.000000
-12.020265 15.796129 2.756121 8.000000
7.846647 15.834715 2.769927 0.000000
-12.022068 15.953825 2.773725 8.000000
-12.031253 16.070805 2.787478 8.000000
6.949534 16.136639 2.753823 13.000000
7.193902 16.074635 2.760326 14.000000
7.034833 16.194464 2.767449 14.000000
10.229004 16.640020 2.712111 19.000000
9.560719 17.594007 2.780327 27.000000
9.277675 17.731478 2.778676 2.000000
9.073847 17.885529 2.784728 7.000000
7.518251 18.079224 2.718713 78.000000
7.594938 18.103010 2.725864 5.000000
7.739823 18.207376 2.747044 3.500000
-12.142358 18.790792 2.709356 7.000000
-12.143319 18.922419 2.722821 7.000000
-12.147833 19.060938 2.737248 10.000000
-12.155853 19.206379 2.752637 7.000000
-12.163069 19.352062 2.768025 6.000000
-12.167395 19.494608 2.782933 7.000000
-12.173038 19.640741 2.798322 7.000000
9.558966 20.249582 2.711761 1.000000
-11.783215 23.561342 2.724197 5.000000
-14.764212 28.617376 2.765171 13.000000
-14.278513 29.004997 2.776123 6.000000
-14.493571 29.209894 2.800078 7.000000
-14.295759 29.271734 2.797340 10.000000
-14.026113 29.419556 2.798709 3.000000
-13.788519 29.395252 2.788100 8.000000
10.570584 30.134260 2.742242 4.000000
10.651891 30.063335 2.738820 1.000000
11.459115 30.502645 2.798025 3.000000
-10.217657 -25.952307 2.884250 11.000000
10.689095 -25.895203 2.897005 16.000000
-10.230081 -25.746294 2.864912 10.000000
10.075992 -25.777086 2.862032 7.000000
10.284848 -25.831560 2.875198 37.000000
10.750510 -25.813745 2.891656 5.000000
11.052605 -25.737782 2.896593 8.500000
-10.235394 -25.525688 2.843928 10.000000
9.662975 -25.424599 2.812658 7.000000
10.000680 -25.349281 2.818007 15.000000
-10.245392 -25.320057 2.824590 10.000000
10.201773 -25.161720 2.807721 9.000000
11.518423 -25.170021 2.862443 7.000000
11.629114 -25.202353 2.870261 1.000000
-10.248185 -25.099882 2.803606 11.000000
11.133139 -24.946821 2.825001 6.000000
11.201655 -24.889956 2.822533 7.000000
-10.368342 -21.438391 2.883921 12.000000
-10.371252 -21.273645 2.866128 12.000000
-10.381991 -21.126913 2.850739 13.000000
-10.390150 -20.976765 2.834870 13.000000
-10.388599 -20.809011 2.816596 12.000000
-10.396807 -20.662758 2.801207 12.000000
-10.486665 -17.931410 2.884300 13.000000
-10.486644 -17.802790 2.868897 13.000000
10.197481 -17.805805 2.849092 20.000000
-10.498046 -17.694794 2.856794 13.000000
-10.500751 -17.510929 2.835064 13.000000
-10.504165 -17.330786 2.813884 12.000000
10.625106 -17.270861 2.815535 5.000000
10.729392 -17.318230 2.828737 0.000000
-10.509018 -17.216539 2.800681 13.000000
11.170616 -16.902546 2.813151 16.666666
-10.591972 -15.126905 2.894425 12.000000
-10.599194 -14.986495 2.877082 12.000000
-10.607965 -14.800764 2.854165 12.000000
-10.612769 -14.660967 2.836822 12.000000
-10.619213 -14.573258 2.826292 12.000000
-10.622873 -14.482469 2.815143 12.000000
-10.621374 -14.385442 2.802755 12.000000
-10.693350 -12.604773 2.887856 13.000000
-10.694019 -12.446179 2.866859 13.000000
10.347175 -12.463229 2.830029 5.000000
10.415133 -12.385907 2.827276 1.000000
-10.694407 -12.289570 2.846207 13.000000
-10.703674 -12.145277 2.828309 13.000000
10.670885 -12.061239 2.813508 13.000000
-10.707622 -11.996941 2.809377 13.000000
11.140793 -11.601287 2.810066 3.000000
10.066651 -10.821638 2.849102 0.000000
10.136857 -10.747129 2.847891 37.200001
-10.768415 -10.468302 2.895035 14.000000
-10.771856 -10.308251 2.874088 15.000000
-10.776464 -10.183714 2.858188 15.000000
-10.781277 -10.029236 2.838502 15.000000
-10.790254 -9.880569 2.820331 13.000000
-10.793855 -9.759892 2.805188 13.000000
9.690245 -9.690241 2.892401 8.000000
9.734420 -9.643106 2.891988 18.000000
9.822796 -9.609121 2.900249 26.000000
9.853629 -9.459201 2.882902 21.000000
11.169447 -9.388901 2.812760 12.000000
10.341481 -8.748515 2.858946 0.000000
10.375219 -8.665802 2.853164 31.000000
-10.836815 -8.378747 2.891162 13.000000
10.904878 -8.322338 2.895293 4.000000
-10.841487 -8.220284 2.871612 13.333333
-10.842057 -8.060914 2.851512 13.333333
9.263672 -8.025785 2.815295 14.250000
9.340914 -7.977879 2.821563 6.500000
10.744765 -7.988499 2.825905 16.000000
10.829624 -7.998884 2.841599 48.000000
-10.847972 -7.907648 2.833339 13.666667
11.141230 -7.908882 2.883728 1.000000
-10.856212 -7.758028 2.816267 13.666667
11.104351 -7.788658 2.862746 37.200001
-10.858962 -7.657320 2.804427 14.000000
11.237740 -7.697439 2.874917 21.500000
9.920145 -7.570815 2.866336 16.000000
11.339633 -7.628622 2.884554 7.666667
9.919030 -7.520769 2.859172 17.000000
9.786913 -7.372291 2.814400 0.000000
9.337332 -6.851462 2.875334 21.750000
-10.903770 -6.264966 2.888498 15.750000
-10.909404 -6.109602 2.872007 16.000000
-10.914071 -5.977801 2.858277 16.000000
-10.922975 -5.805405 2.841263 16.000000
-10.917542 -5.831975 2.843054 16.000000
-10.930414 -5.677971 2.829175 16.500000
-10.918389 -5.671652 2.826041 16.000000
-10.933904 -5.527960 2.814176 14.500000
-10.969260 -5.373806 2.805669 8.500000
-10.996266 -5.280334 2.801863 10.000000
-11.223225 -4.877669 2.810818 17.000000
-11.270703 -4.751709 2.809475 7.500000
-11.315691 -4.624792 2.807833 11.666667
-11.316837 -4.542456 2.800968 8.000000
-10.984221 -3.876828 2.891960 17.250000
-10.988871 -3.723847 2.880635 17.750000
9.878905 -3.679821 2.817426 9.000000
-10.991416 -3.571366 2.869310 17.750000
-11.000216 -3.421997 2.860153 15.500000
9.940936 -3.438466 2.811230 12.000000
10.136200 -3.434824 2.860287 13.500000
-11.022816 -3.277674 2.855093 8.000000
10.277512 -3.321527 2.886623 0.000000
-11.054365 -3.117684 2.851575 9.200000
-11.064233 -2.970877 2.844250 13.000000
-11.071632 -2.935620 2.843769 13.000000
-11.075002 -2.806555 2.836540 15.000000
-11.077308 -2.659463 2.828347 19.750000
-11.114925 -2.502701 2.828636 9.600000
-11.322153 -2.363250 2.871559 2.333333
-11.184405 -2.407940 2.840395 2.000000
-11.310931 -2.231355 2.862322 2.500000
-11.397683 -2.081553 2.876539 3.500000
-11.315475 -2.066590 2.855816 2.000000
-11.381576 -1.918941 2.865615 2.333333
-11.407934 -1.770155 2.866177 2.750000
-11.414862 -1.624628 2.862563 5.750000
-11.409356 -1.477780 2.856298 9.500000
-11.420968 -1.315389 2.854274 10.400000
-11.440782 -1.154043 2.854852 10.000000
-11.459214 -1.010612 2.856057 13.250000
-11.466169 -0.866183 2.854852 18.000000
-11.478030 -0.722127 2.855334 12.500000
-11.478498 -0.577459 2.853407 16.750000
-11.481939 -0.433068 2.852684 22.500000
-11.492500 -0.270833 2.854081 11.200000
-11.496387 -0.108363 2.854371 8.750000
-11.500723 0.036134 2.855334 8.250000
-11.504213 0.180730 2.856539 8.000000
-11.509766 0.325527 2.858708 8.000000
-11.512524 0.470442 2.860635 8.000000
-11.516363 0.615642 2.863286 8.000000
10.586216 0.732828 2.836016 3.000000
-11.527575 0.779830 2.868539 8.800000
-11.528210 0.943760 2.871719 8.750000
10.516726 1.010793 2.823623 2.000000
-11.536697 1.090554 2.877020 8.500000
10.775421 1.104029 2.894885 6.000000
-11.538488 1.237193 2.881117 8.000000
-11.544191 1.384766 2.886659 8.000000
-11.545122 1.532266 2.891478 8.000000
-11.548006 1.680580 2.897261 8.000000
10.256918 3.102607 2.863901 8.000000
10.186058 3.168666 2.850992 26.000000
-11.610163 3.792574 2.805445 16.000000
-11.616638 3.936601 2.817310 15.750000
-11.618367 4.080114 2.828429 16.000000
-11.623445 4.226051 2.840816 15.750000
-11.632874 4.374862 2.854695 15.000000
-11.633077 4.521590 2.866784 15.500000
-11.634094 4.691102 2.881335 15.000000
-11.639144 4.842568 2.895587 15.333333
9.451823 4.853376 2.839631 12.000000
9.271713 5.116210 2.830164 13.000000
8.843802 6.139758 2.877327 11.000000
-11.691525 6.403573 2.813514 15.000000
-11.698886 6.503553 2.825078 13.000000
8.258270 6.552467 2.817426 38.000000
9.301418 6.537142 2.822564 4.500000
-11.701720 6.650270 2.840773 13.000000
9.322752 6.617990 2.838467 26.000000
10.181685 6.711035 2.800968 36.000000
-11.705083 6.798916 2.857019 13.000000
10.378852 6.794318 2.849322 27.000000
-11.710040 6.950216 2.874091 12.333333
10.317598 6.893999 2.850218 63.000000
10.550494 6.859428 2.890513 23.000000
-11.715990 7.078725 2.889097 12.000000
10.175126 7.079796 2.847233 4.666667
8.021516 7.253079 2.890237 3.000000
9.746432 7.341797 2.802759 53.000000
10.006663 7.488665 2.870813 39.000000
10.113114 7.502368 2.892304 4.666667
8.266271 7.836176 2.827865 11.000000
8.119883 7.918394 2.815817 35.500000
8.286555 7.904981 2.843287 37.000000
9.359483 7.867478 2.808430 0.000000
10.822740 7.889184 2.826730 7.000000
9.307581 7.974825 2.815295 20.000000
10.703949 8.010491 2.821774 13.000000
10.711323 8.095076 2.833752 8.000000
9.170695 8.213961 2.827832 7.000000
9.219752 8.205844 2.834995 0.000000
9.245957 8.386662 2.867231 18.000000
-11.766531 8.605536 2.810110 12.000000
-11.770615 8.722549 2.824117 12.000000
9.025373 8.759828 2.888946 16.500000
-11.773839 8.869111 2.841531 12.000000
-11.781841 9.020975 2.860459 12.000000
-11.787030 9.172754 2.879135 12.000000
-11.789644 9.324309 2.897559 12.000000
9.910028 9.394409 2.882076 22.000000
9.427701 9.652533 2.847795 15.750000
8.031098 9.739037 2.899467 0.000000
9.124385 9.685949 2.808558 53.000000
8.390003 10.338655 2.810210 0.000000
9.844294 10.716862 2.805188 11.500000
-11.841454 10.873528 2.808689 11.000000
-11.846395 10.981455 2.822113 12.000000
-11.854725 11.128491 2.840700 11.000000
-11.851685 11.266551 2.856877 11.000000
-11.855879 11.413219 2.875120 11.000000
-11.862942 11.564493 2.894395 11.000000
-11.938013 13.366094 2.808949 9.000000
-11.946582 13.546057 2.830937 9.000000
-11.946368 13.675097 2.846112 10.000000
-11.954140 13.814933 2.863455 9.000000
-11.956949 13.994925 2.885134 9.000000
9.783059 15.053083 2.813904 2.000000
10.061435 15.063692 2.839299 15.000000
9.746859 15.311296 2.844874 23.000000
10.103563 15.334504 2.878321 1.000000
10.053175 15.362863 2.877702 1.000000
8.835023 15.782530 2.834963 62.000000
8.896209 15.775347 2.838680 2.000000
8.276648 15.940026 2.815143 23.000000
8.328516 15.917447 2.815762 28.000000
-12.041433 16.243519 2.807558 8.000000
-12.043362 16.407057 2.825987 8.000000
-12.047787 16.521641 2.839190 8.000000
-12.055540 16.697102 2.859545 8.000000
-12.059743 16.869738 2.879349 8.000000
-12.061735 16.985071 2.892552 7.000000
9.736733 18.052872 2.847992 51.000000
9.588902 18.467302 2.889251 39.000000
8.774668 18.808758 2.881824 13.000000
7.398337 18.956198 2.825437 17.000000
8.696722 18.873312 2.885400 28.000000
6.782047 19.130686 2.818285 9.000000
6.737659 19.196758 2.824887 1.000000
7.572567 19.224081 2.868897 22.000000
7.155812 19.406929 2.872014 10.000000
7.339374 19.526087 2.896403 21.000000
-12.175790 19.783728 2.813229 7.000000
-12.186055 19.940472 2.830061 7.000000
-12.183085 20.077110 2.844007 7.000000
-12.191682 20.234329 2.860838 6.000000
-12.193296 20.381575 2.876226 6.000000
-12.206262 20.549520 2.894500 6.000000
-12.352871 24.895594 2.873964 11.000000
-11.107841 25.101744 2.838579 1.000000
-11.017290 25.217587 2.845779 0.500000
-10.800734 25.706478 2.883427 2.000000
-14.818756 29.171494 2.809660 6.000000
-14.006874 29.618401 2.813425 3.000000
-13.904106 30.132671 2.849701 2.000000
8.853140 31.432859 2.804185 16.000000
9.207050 31.546965 2.821980 21.000000
9.078573 31.849482 2.843883 5.000000
8.813789 31.867908 2.839263 25.000000
-10.172561 -27.077999 2.991226 11.000000
-10.184204 -26.852457 2.969831 10.000000
-10.193116 -26.623396 2.948024 11.000000
9.166758 -26.607119 2.910171 2.000000
10.763887 -26.548122 2.962425 22.000000
11.705177 -26.451614 2.991226 18.000000
-10.203557 -26.401966 2.927040 11.000000
11.580454 -26.393526 2.980529 13.000000
-10.215601 -26.188150 2.906879 11.000000
10.734246 -26.237986 2.931566 53.000000
11.865161 -26.144474 2.969008 7.000000
10.495005 -26.120317 2.910994 4.000000
11.200677 -25.747505 2.903588 3.000000
-10.342841 -22.455969 2.994045 12.000000
-10.344764 -22.275700 2.974329 12.000000
-10.349019 -22.102837 2.955574 11.000000
-10.353992 -21.933760 2.937300 12.000000
-10.359711 -21.768454 2.919507 13.000000
-10.367929 -21.610489 2.902676 12.000000
-10.457399 -18.819143 2.989374 12.000000
10.460117 -18.808565 2.988274 12.000000
10.676079 -18.778034 2.999276 8.000000
-10.460346 -18.685938 2.973420 11.000000
-10.466453 -18.559805 2.958567 11.000000
-10.467953 -18.426933 2.942613 13.000000
-10.472661 -18.301107 2.927760 11.000000
-10.478355 -18.112677 2.905480 13.500000
9.266935 -16.724792 2.996935 10.500000
9.800747 -16.272562 2.977424 22.000000
10.028221 -16.300638 2.999722 14.000000
10.060652 -16.238819 2.994148 7.000000
-10.563229 -15.868996 2.987954 11.500000
-10.567391 -15.714089 2.968133 12.000000
10.060563 -15.682974 2.920440 6.000000
-10.570182 -15.612095 2.955126 12.000000
9.964531 -15.641180 2.906813 2.000000
10.110713 -15.598886 2.913626 9.500000
-10.576888 -15.516770 2.943357 12.000000
-10.583098 -15.421556 2.931589 12.000000
-10.588043 -15.274101 2.913007 12.000000
-10.668940 -13.321862 2.981822 13.000000
-10.671757 -13.155111 2.959449 13.000000
-10.679159 -12.996466 2.938797 13.000000
-10.683727 -12.836739 2.917801 13.000000
-10.687111 -12.718362 2.902312 13.000000
-10.741323 -11.224524 2.994851 14.000000
-10.746048 -11.089108 2.976680 14.000000
-10.754988 -10.959698 2.960023 14.000000
-10.755414 -10.857263 2.946016 14.000000
8.975492 -10.919115 2.983266 22.500000
9.058077 -10.914380 2.993592 1.000000
-10.761978 -10.762039 2.933901 14.000000
-10.765106 -10.630733 2.916487 14.500000
10.967114 -10.462106 2.921787 58.000000
9.589298 -9.989152 2.922552 6.000000
9.837184 -9.683863 2.913465 17.000000
10.346307 -9.564029 2.973767 0.000000
10.362837 -9.459252 2.961376 33.000000
-10.814444 -9.119561 2.985744 14.500000
-10.820932 -8.980622 2.967984 14.000000
-10.822738 -8.867777 2.953116 14.000000
-10.824871 -8.784624 2.942377 13.500000
-10.827927 -8.674837 2.928334 13.500000
11.035371 -8.671551 2.962202 5.500000
-10.832162 -8.539460 2.911263 13.666667
9.799092 -8.184598 2.932599 2.000000
8.905845 -8.044230 2.979507 32.000000
9.820245 -8.098001 2.923645 34.000000
11.253304 -8.068485 2.922552 4.500000
8.984271 -7.779736 2.950593 14.833333
10.490515 -7.446955 2.954985 30.000000
9.580483 -7.264078 2.984969 15.000000
-10.876017 -7.168766 2.991997 15.666667
-10.878695 -7.024344 2.974387 16.000000
9.461593 -7.034488 2.927139 30.000000
-10.884008 -6.883302 2.957970 15.000000
-10.889862 -6.720581 2.939315 15.250000
-10.892459 -6.557856 2.920361 15.333333
-10.900045 -6.423232 2.906034 15.666667
-10.944944 -5.066607 2.994366 16.750000
-10.952529 -4.924590 2.981435 16.000000
-10.954971 -4.781625 2.967620 15.750000
-10.963009 -4.601723 2.951878 16.166668
-10.966497 -4.462014 2.939428 16.250000
-10.972912 -4.304721 2.926416 16.500000
-10.973954 -4.166450 2.914288 16.666666
-10.980189 -4.031277 2.904007 16.500000
10.646019 -2.309513 2.911409 22.500000
-11.051151 -1.928749 2.998163 16.500000
-11.054375 -1.768674 2.991966 16.600000
-11.055373 -1.608871 2.985770 16.750000
-11.060349 -1.467931 2.981897 16.750000
-11.059699 -1.326631 2.976991 16.500000
-11.063088 -1.168647 2.973170 16.000000
-11.068958 -1.005409 2.970450 16.166668
-11.072861 -0.871455 2.968471 16.250000
-11.078686 -0.721489 2.967180 14.800000
-11.080527 -0.557450 2.965114 16.750000
-11.081831 -0.417975 2.963823 17.000000
-11.090072 -0.278787 2.964856 16.750000
-11.094603 -0.121982 2.965320 17.600000
-11.094486 0.034864 2.965114 17.000000
-11.100900 0.174396 2.967180 17.750000
-11.104237 0.331516 2.969038 16.799999
-11.109871 0.488957 2.972085 16.750000
-11.113459 0.629144 2.974925 16.250000
-11.119133 0.769736 2.978798 16.750000
-11.125389 0.928394 2.983704 16.200001
-11.133310 1.087721 2.989642 17.250000
-11.133167 1.229122 2.993515 18.000000
-11.136019 1.371296 2.998679 18.000000
-11.552814 1.829820 2.904008 8.000000
-11.557608 1.979762 2.911236 8.000000
-11.562358 2.130472 2.918947 8.000000
-11.567049 2.281974 2.927140 8.000000
-11.567852 2.433546 2.934850 8.250000
-11.566670 2.585476 2.942561 7.500000
-11.551048 2.728456 2.946737 8.000000
-11.563025 2.756836 2.951235 10.000000
-11.537587 2.885226 2.952681 8.250000
-11.534616 3.019625 2.960231 5.333333
-11.514213 3.091686 2.959909 3.000000
-11.561855 3.182570 2.977258 13.500000
-11.505066 3.205812 2.965210 1.500000
-11.578775 3.344250 2.992198 21.000000
-11.506720 3.362672 2.976295 1.000000
-11.533983 3.488908 2.991716 19.500000
-11.480256 3.512127 2.980632 1.000000
10.300862 3.526693 2.909860 11.000000
-11.442383 3.618695 2.979507 12.000000
-11.329553 3.661532 2.956054 8.000000
-11.278795 3.713723 2.948103 12.000000
-11.261938 3.816336 2.952199 19.500000
-11.262047 3.935140 2.961837 18.000000
-11.269173 4.097239 2.977017 15.000000
-11.266780 4.237183 2.988503 12.333333
-11.264098 4.378157 3.000390 9.000000
-11.640784 4.972474 2.907526 15.666667
-11.648693 5.128063 2.923421 16.000000
-11.656455 5.285185 2.939763 14.666667
-11.658979 5.408262 2.952075 10.500000
-11.663868 5.578476 2.969760 7.750000
-11.670380 5.717277 2.984983 7.500000
-11.673018 5.786919 2.992594 7.000000
9.245098 6.177489 2.971655 31.000000
8.885184 6.349446 2.918639 10.000000
8.836960 6.357019 2.909344 28.000000
9.609035 7.004460 2.952199 23.000000
10.538488 7.089582 2.917377 43.000000
-11.721667 7.208465 2.904379 12.000000
-11.726123 7.364413 2.922552 13.000000
7.966949 7.395587 2.905213 0.000000
-11.727575 7.520378 2.940450 12.666667
8.040525 7.622176 2.960983 11.000000
9.344859 7.607911 2.991716 3.000000
9.380786 7.588282 2.995571 0.000000
-11.731491 7.679876 2.959449 12.333333
-11.738857 7.843737 2.979825 12.000000
-11.740599 7.978940 2.996070 11.500000
8.216637 8.346727 2.907863 20.000000
8.385883 8.599372 2.982078 17.000000
8.741303 9.328087 2.936330 18.500000
8.909795 9.398815 2.974685 66.000000
-11.793550 9.478970 2.916740 12.000000
-11.790784 9.630091 2.934659 12.000000
-11.796826 9.728009 2.947530 12.000000
9.845551 9.692100 2.915944 19.000000
-11.793405 9.787601 2.954344 12.000000
-11.805742 9.923882 2.973020 12.000000
9.655982 9.995570 2.933290 4.000000
10.084759 9.990158 2.996070 16.000000
-11.809130 10.085999 2.993715 12.000000
-11.868558 11.716318 2.913671 11.000000
-11.881097 11.877012 2.935011 12.500000
-11.884673 11.993028 2.949812 11.000000
-11.882881 12.066802 2.958761 11.000000
-11.890495 12.188967 2.974938 11.000000
-11.894324 12.347146 2.995246 11.000000
-11.962399 14.135563 2.902477 9.000000
-11.967945 14.278111 2.920130 8.000000
-11.967482 14.414901 2.936544 11.000000
-11.974947 14.516440 2.949551 11.000000
8.615070 14.520976 2.949812 3.000000
-11.979382 14.615118 2.961939 8.000000
8.593408 14.588711 2.958073 16.000000
-11.985816 14.717025 2.974946 8.000000
8.581348 14.673458 2.969775 25.000000
-11.986977 14.861027 2.992599 8.500000
8.142198 15.096443 2.996623 20.000000
6.938452 15.341866 2.941723 29.000000
7.186140 15.530825 2.989739 12.000000
9.967141 16.328798 2.998483 19.000000
10.022530 16.304138 2.999722 2.000000
8.704700 16.509933 2.925395 17.000000
8.925570 16.548895 2.947073 13.000000
9.677556 16.508158 2.999309 28.666666
8.622925 16.735266 2.950790 24.000000
8.633270 16.885422 2.972469 20.000000
-12.069983 17.110294 2.907405 8.000000
-12.074211 17.288813 2.928035 8.000000
-12.083940 17.477482 2.950315 8.000000
-12.085043 17.597010 2.964068 8.000000
-12.089987 17.723259 2.978921 8.000000
-12.094254 17.849710 2.993775 7.000000
-12.208216 20.700640 2.910370 6.000000
-12.215349 20.862259 2.927682 7.000000
-12.219602 21.020687 2.944513 6.000000
-12.222979 21.179344 2.961345 6.000000
-12.229415 21.345127 2.979138 6.000000
-12.232979 21.507702 2.996450 6.000000
-13.382505 24.968718 2.929509 5.000000
-13.059099 25.410290 2.954402 4.500000
-12.895863 25.584934 2.962837 5.000000
-11.797481 25.567238 2.911817 1.000000
-12.244542 25.682739 2.942264 1.000000
-11.480129 25.724369 2.913051 3.000000
-12.495871 25.791498 2.963659 6.000000
-12.028792 25.854725 2.948847 3.000000
-12.231829 25.864956 2.958722 1.000000
-12.170794 25.946482 2.963659 6.000000
-11.106579 26.203600 2.943087 2.000000
-10.903475 26.181046 2.932801 1.000000
12.234175 32.565750 2.987275 10.000000
10.306309 32.988323 2.967768 8.000000
4.233316 34.035522 2.945181 6.000000
4.988236 33.985466 2.949630 23.000000
5.100300 34.005096 2.952710 113.000000
5.435637 34.049973 2.960924 6.000000
5.531051 33.961922 2.954764 1.000000
2.725441 34.097366 2.937310 3.000000
3.594803 34.144939 2.948261 16.000000
4.351316 34.109024 2.952710 10.000000
3.167657 34.211224 2.950315 6.000000
3.277398 34.224907 2.952368 14.000000
3.488730 34.167957 2.949288 2.000000
3.707211 34.181019 2.952368 20.000000
3.818555 34.204853 2.955448 19.000000
3.069038 34.320244 2.958870 10.000000
3.944633 34.355019 2.969479 21.000000
3.402951 34.396877 2.968110 16.000000
2.983465 34.587807 2.981115 9.000000
4.855480 34.592346 2.999595 25.000000
10.446952 -28.016142 3.092031 17.000000
-10.145308 -27.529648 3.034017 6.000000
-10.160981 -27.307461 3.013033 9.000000
11.377140 -27.078375 3.037308 20.000000
11.486998 -27.101110 3.043892 2.000000
-10.309718 -23.342148 3.090224 11.000000
-10.315136 -23.157291 3.070027 11.000000
-10.324373 -22.983505 3.051272 11.000000
-10.330985 -22.806269 3.032036 11.000000
10.792019 -22.820385 3.057043 3.000000
10.893051 -22.725338 3.051913 15.333333
-10.336587 -22.629219 3.012800 12.000000
11.217314 -22.254747 3.018090 23.000000
11.328539 -22.300825 3.029151 28.000000
11.401073 -22.098633 3.011358 11.000000
9.462516 -20.181969 3.094998 11.000000
9.613012 -20.090925 3.092522 4.000000
9.439520 -19.969460 3.066941 21.000000
9.892300 -19.788956 3.071892 6.000000
9.736602 -19.709240 3.052363 10.000000
10.404560 -19.717321 3.095548 0.000000
-10.427981 -19.628708 3.086195 11.000000
-10.435372 -19.494555 3.070242 11.000000
10.663483 -19.461123 3.081244 3.000000
-10.442022 -19.360546 3.054288 11.000000
10.322432 -19.267397 3.035034 24.000000
10.634577 -19.264502 3.055389 31.000000
11.065685 -19.286591 3.087433 7.500000
-10.446044 -19.223209 3.037785 11.000000
-10.451504 -19.019279 3.013304 11.000000
10.632986 -18.885843 3.009362 3.666667
9.069214 -17.318354 3.064139 1.000000
9.462390 -17.269098 3.086437 4.000000
8.918430 -17.227531 3.040602 10.000000
9.127590 -17.231750 3.056396 6.000000
9.217039 -17.160900 3.053196 32.000000
9.896031 -16.666817 3.038124 2.000000
10.201509 -16.699644 3.067236 17.000000
-10.537716 -16.611332 3.083340 12.000000
-10.545580 -16.451679 3.062900 12.000000
9.842877 -16.459282 3.005916 34.000000
9.974790 -16.444418 3.014587 41.000000
10.616694 -16.492861 3.074359 10.000000
10.729868 -16.497324 3.084579 8.000000
-10.550066 -16.345423 3.049273 12.000000
-10.552432 -16.181347 3.027905 12.000000
-10.553626 -16.017576 3.006535 12.000000
-10.640776 -14.085032 3.084051 13.000000
-10.644041 -13.906820 3.059612 13.000000
-10.651533 -13.736910 3.036895 13.000000
-10.661549 -13.616741 3.021406 12.000000
-10.662005 -13.485999 3.003507 13.000000
10.332220 -12.136024 3.072457 0.000000
10.362099 -12.017324 3.058829 20.000000
10.534842 -11.968336 3.073593 12.000000
-10.719467 -11.930338 3.091764 14.000000
-10.721526 -11.782858 3.070943 13.000000
-10.727470 -11.641613 3.051636 13.500000
-10.732075 -11.500753 3.032329 14.000000
-10.738039 -11.363148 3.013779 14.000000
11.527035 -11.205636 3.098957 1.000000
11.525456 -11.133895 3.089114 13.000000
9.212746 -11.030053 3.033242 21.000000
9.202789 -10.913206 3.013004 0.500000
11.450300 -10.854540 3.041415 19.000000
9.307799 -10.828945 3.013830 0.500000
10.105249 -10.659884 3.100152 64.000000
11.472036 -10.705279 3.024758 13.500000
10.621279 -10.100410 3.093544 5.500000
-10.783152 -9.967843 3.099326 14.000000
-10.786677 -9.877277 3.086935 13.500000
-10.796995 -9.732010 3.067936 13.666667
10.511771 -9.655915 3.012591 27.000000
-10.798505 -9.580651 3.046872 14.500000
10.650449 -9.479204 3.009287 22.000000
-10.804084 -9.435068 3.027460 14.000000
10.725906 -9.441119 3.015895 14.250000
-10.809309 -9.261523 3.004331 14.000000
10.202978 -8.174156 3.002892 49.000000
10.439867 -8.230126 3.053485 34.000000
10.272974 -8.098536 3.004683 45.500000
-10.846888 -8.011632 3.097362 16.000000
10.549812 -7.946968 3.033785 7.000000
-10.847581 -7.907373 3.083333 16.000000
-10.852903 -7.755673 3.063932 15.333333
11.093185 -7.666972 3.097362 5.000000
-10.858466 -7.606070 3.045127 16.000000
10.752808 -7.582463 3.022144 50.000000
-10.866459 -7.460002 3.027517 16.666666
9.586163 -7.447891 3.013884 11.750000
9.741864 -7.459003 3.046172 4.500000
10.778818 -7.525003 3.019458 32.500000
9.933641 -7.434018 3.080388 11.000000
-10.871596 -7.313730 3.009608 16.000000
9.696281 -7.304020 3.013884 15.000000
-10.905416 -6.062398 3.097737 16.000000
-10.912596 -5.976984 3.089062 16.000000
-10.917661 -5.824681 3.072195 17.000000
-10.928015 -5.654887 3.054846 17.000000
-10.920182 -5.716216 3.060147 17.000000
-10.929644 -5.525827 3.040630 17.000000
-10.935470 -5.357300 3.023281 17.000000
-10.942061 -5.212101 3.009065 17.000000
-10.987769 -3.685007 3.097310 17.500000
-10.994385 -3.572340 3.089564 17.750000
-10.999664 -3.421841 3.078720 17.500000
-11.005681 -3.272608 3.068650 17.000000
-11.008761 -3.123498 3.058322 16.250000
-11.013565 -2.975852 3.049027 17.750000
-11.018276 -2.829045 3.040249 17.750000
-11.023860 -2.683273 3.032245 17.250000
-11.028248 -2.519769 3.023363 16.600000
-11.031068 -2.356820 3.014687 16.250000
-11.038027 -2.213647 3.008749 16.750000
-11.045033 -2.071028 3.003327 16.750000
-11.142656 1.532344 3.006012 17.600000
-11.146287 1.693699 3.013138 17.750000
-11.149860 1.837873 3.020109 17.250000
-11.154421 1.982911 3.027855 17.500000
-11.157091 2.128358 3.035601 17.500000
-11.158810 2.274374 3.043605 17.250000
-11.163336 2.421795 3.052900 17.500000
-11.169682 2.570552 3.063228 17.000000
-11.174045 2.719847 3.073556 16.500000
-11.177349 2.869898 3.084142 16.750000
-11.181441 3.021209 3.095502 17.250000
-11.244197 4.533875 3.010028 10.500000
-11.229317 4.692780 3.021594 17.500000
-11.234124 4.840538 3.037015 18.333334
-11.240491 4.990574 3.053401 17.750000
-11.247359 5.142367 3.070428 17.333334
-11.251127 5.272843 3.084886 17.333334
-11.254345 5.382532 3.097255 17.500000
-11.672348 5.878290 3.001847 8.000000
-11.650838 6.028941 3.013190 8.250000
-11.616302 6.197333 3.024159 17.000000
-11.572843 6.338604 3.030800 13.000000
9.301104 6.299688 3.002294 0.000000
-11.612425 6.479247 3.054380 18.500000
-11.473089 6.472671 3.025726 13.000000
-11.353189 6.499457 3.004832 22.333334
-11.349753 6.640292 3.020353 17.666666
10.125860 6.643862 3.006816 18.666666
10.053963 6.740696 3.005209 0.000000
10.207082 6.727774 3.035088 9.000000
-11.353591 6.786971 3.038262 13.000000
-11.357884 6.935661 3.056768 11.000000
-11.328267 7.089756 3.069603 10.750000
-11.315226 7.230844 3.084378 16.500000
-11.318714 7.308398 3.094676 17.000000
9.555849 7.436347 3.006173 3.000000
9.538552 7.471119 3.008101 9.000000
9.957330 7.525214 3.098701 24.000000
10.930156 7.810804 3.085721 12.000000
8.064479 7.988837 3.033794 3.000000
-11.744068 8.116899 3.013142 8.333333
-11.748069 8.284371 3.034068 7.000000
-11.749491 8.424252 3.051415 7.000000
9.026710 8.450002 3.069786 6.000000
-11.727146 8.576763 3.066491 7.250000
-11.687426 8.717944 3.077436 7.500000
-11.632456 8.791158 3.077435 4.500000
-11.552119 8.845051 3.070827 4.500000
9.660099 8.817791 3.004235 18.000000
-11.440562 8.903055 3.059676 12.666667
-11.430166 9.039999 3.075783 14.500000
9.554468 9.019423 3.017965 32.666668
9.502953 9.122561 3.025726 22.000000
9.682296 9.063704 3.046321 45.000000
-11.434224 9.160585 3.092304 11.500000
9.173937 9.437061 3.023040 32.000000
9.264880 9.712097 3.083035 24.000000
9.344330 9.703426 3.094228 0.500000
8.774641 9.827707 3.026174 14.500000
8.786357 9.934663 3.046321 1.000000
8.989221 9.973036 3.083930 23.000000
-11.810879 10.216528 3.010372 12.500000
-11.821808 10.323729 3.025515 12.000000
-11.817183 10.418298 3.036872 12.500000
-11.820343 10.553810 3.054665 9.500000
-11.825172 10.692413 3.073215 6.000000
-11.830174 10.832816 3.092143 6.000000
-11.899336 12.508718 3.016243 11.000000
-11.903816 12.632022 3.032420 11.000000
-11.911331 12.759998 3.049630 12.000000
-11.919049 12.930201 3.072348 11.500000
-11.913833 13.047312 3.086804 11.000000
9.260949 14.924814 3.068676 38.000000
-11.992105 15.011496 3.011490 8.000000
9.417222 15.000705 3.094377 11.000000
-11.998400 15.165486 3.031001 8.000000
-12.003638 15.319825 3.050512 8.000000
8.170973 15.264379 3.024848 31.000000
-12.008772 15.476146 3.070333 10.000000
-12.010418 15.629681 3.089534 9.000000
6.967685 15.701206 3.001098 21.000000
7.767954 15.675912 3.056515 24.000000
7.885827 15.788908 3.083362 26.000000
7.596415 15.954842 3.087263 16.666666
9.928083 16.380306 3.002200 17.000000
10.206824 16.487612 3.039363 3.000000
9.578151 16.860594 3.039363 40.000000
6.992720 17.916883 3.014587 4.333333
-12.100053 17.979656 3.009178 8.000000
-12.106264 18.173340 3.032008 7.500000
7.454773 18.194601 3.081895 30.666666
7.585315 18.240494 3.096347 0.000000
7.707475 18.210670 3.099444 9.000000
-12.115450 18.374044 3.055939 8.000000
-12.118445 18.504820 3.071342 8.000000
-12.122892 18.639122 3.087296 8.000000
-12.243440 21.684345 3.015686 6.000000
-12.245154 21.847404 3.032998 6.000000
-12.255618 22.028036 3.052715 6.000000
-12.253538 22.188097 3.069546 6.000000
-12.262036 22.369249 3.089262 6.000000
-12.164642 22.526217 3.100323 8.000000
-13.802891 25.948542 3.039366 43.000000
-13.769604 26.083258 3.050063 45.000000
-13.798370 26.337854 3.074750 48.000000
-13.754107 26.455206 3.083391 37.000000
-13.701945 26.558392 3.090385 37.000000
-12.874976 26.788111 3.073516 38.000000
-11.719680 26.940569 3.038131 10.000000
-12.636087 27.048769 3.087299 15.500000
-12.472622 27.030392 3.078453 30.000000
-11.828245 26.958265 3.044303 12.000000
-11.159718 27.035311 3.024554 0.000000
-11.016453 27.048862 3.020233 1.000000
-12.796558 27.059113 3.095323 16.000000
-12.333566 27.063477 3.075573 16.000000
-12.179763 27.063290 3.068990 16.000000
-11.685413 27.094162 3.051298 9.000000
-12.041678 27.212051 3.077219 4.000000
-12.169261 27.268559 3.087917 4.000000
-11.676876 27.310003 3.071459 9.000000
12.771853 33.047501 3.042373 2.000000
12.141226 33.267387 3.041004 8.000000
8.191056 34.170612 3.017391 60.500000
10.123190 34.285156 3.069751 8.000000
10.250239 34.318104 3.075569 19.000000
10.495941 34.352119 3.084466 12.000000
10.604985 34.322781 3.084809 7.000000
7.693363 34.731205 3.054693 21.000000
4.999812 34.825447 3.021155 12.000000
7.373119 34.837261 3.057773 59.000000
7.472478 34.767170 3.053666 79.000000
7.585064 34.759098 3.055035 64.000000
2.677489 34.876648 3.003702 2.000000
2.900531 34.906796 3.007808 6.000000
3.699956 35.143723 3.034502 1.000000
5.832302 35.115959 3.056746 5.000000
3.259148 35.199345 3.035528 2.000000
3.931308 35.214840 3.042715 2.000000
5.518949 35.283554 3.066671 69.000000
6.714316 35.264336 3.082584 71.000000
4.296584 35.453171 3.066671 5.000000
4.192656 35.529816 3.072146 16.000000
4.643961 35.513847 3.075569 27.000000
4.752333 35.475380 3.073515 13.000000
4.553550 35.694294 3.089942 6.000000
10.978983 -28.887194 3.195716 10.000000
10.780994 -28.728014 3.173086 4.333333
11.081244 -28.613575 3.173086 4.000000
11.192809 -28.634207 3.179258 4.000000
-10.337336 -24.014568 3.166205 3.000000
-10.333653 -23.799850 3.142161 8.000000
-10.308017 -23.538107 3.111865 9.000000
-10.425421 -20.549631 3.199521 8.000000
-10.412374 -20.365089 3.175866 11.000000
10.645839 -20.329037 3.186318 17.000000
-10.414600 -20.212530 3.157161 12.000000
10.154075 -20.154070 3.133506 27.000000
-10.419626 -20.067192 3.139558 12.000000
10.174291 -20.037287 3.120303 50.000000
-10.416493 -19.907980 3.119753 11.000000
10.231462 -19.916855 3.109026 13.500000
-10.419850 -19.763010 3.102149 11.000000
-10.499021 -17.508049 3.199786 12.000000
-10.507749 -17.336699 3.177488 12.000000
10.818593 -17.279774 3.195450 2.000000
-10.510690 -17.219278 3.162003 12.000000
9.877028 -17.183609 3.106567 9.500000
10.072572 -17.209551 3.125459 0.000000
10.116553 -17.160801 3.122362 47.000000
-10.519031 -17.051857 3.140324 12.000000
-10.526170 -16.884708 3.118645 12.000000
11.054432 -16.880079 3.162622 0.000000
-10.528733 -16.771233 3.103780 12.000000
10.909451 -16.545050 3.106258 20.000000
11.063697 -16.551743 3.120504 5.000000
10.978861 -16.537031 3.111213 24.000000
-10.610553 -14.804371 3.182148 14.000000
-10.616714 -14.666417 3.163217 14.000000
-10.620970 -14.575669 3.150826 14.000000
-10.622429 -14.481862 3.137746 14.000000
-10.628340 -14.347757 3.119503 14.000000
-10.635705 -14.217041 3.101949 13.000000
-10.698126 -12.605938 3.187163 14.000000
-10.700310 -12.449116 3.164449 14.500000
-10.703535 -12.295725 3.142492 14.000000
-10.711746 -12.150156 3.122428 14.000000
-10.708870 -12.032048 3.105014 14.000000
10.050079 -11.044922 3.151780 7.000000
10.055708 -10.947001 3.137324 56.000000
10.127242 -10.955590 3.148889 12.000000
10.125382 -10.748555 3.116673 2.000000
10.607546 -10.792336 3.193908 9.500000
10.275023 -10.703470 3.131542 2.000000
10.682175 -10.715784 3.193495 20.000000
-10.768749 -10.634323 3.194321 13.500000
10.149494 -10.639413 3.103456 47.000000
-10.768424 -10.534180 3.179452 14.000000
-10.772938 -10.439753 3.166236 14.500000
-10.774702 -10.310970 3.147650 15.000000
10.971744 -10.270771 3.172018 29.000000
11.024015 -10.254910 3.177800 0.000000
-10.778111 -10.185279 3.129889 14.000000
-10.783241 -10.062613 3.112956 14.000000
10.725764 -10.103913 3.110065 20.000000
11.130803 -9.969578 3.153845 20.000000
11.277157 -9.785818 3.151367 3.000000
11.405658 -9.834682 3.178626 5.000000
9.620655 -9.605484 3.122658 1.500000
10.466588 -8.910916 3.157357 4.000000
10.491555 -8.875472 3.156462 12.000000
-10.828209 -8.675063 3.186907 15.000000
-10.831670 -8.539082 3.168103 14.666667
-10.837650 -8.379383 3.146612 15.666667
10.835956 -8.432526 3.153775 17.000000
11.169878 -8.250199 3.189593 4.000000
-10.841581 -8.220346 3.125121 15.666667
9.814634 -8.197579 3.174843 10.000000
-10.841797 -8.087141 3.106764 15.000000
9.777604 -8.114643 3.154602 56.000000
9.848758 -8.095526 3.165204 42.500000
8.869387 -7.981897 3.188969 14.250000
11.242568 -7.648931 3.123330 1.666667
-10.879952 -6.880736 3.196047 15.333333
-10.887174 -6.718911 3.176288 15.500000
-10.892262 -6.557733 3.156530 15.666667
-10.894496 -6.419966 3.139502 15.333333
-10.901828 -6.263856 3.121591 15.750000
-10.903776 -6.128950 3.105447 16.000000
-10.954406 -4.781368 3.194391 15.000000
-10.961104 -4.621188 3.179158 16.750000
-10.967299 -4.462338 3.164441 16.750000
-10.974843 -4.305469 3.150756 17.500000
-10.973092 -4.166113 3.136900 17.333334
-10.979802 -4.031133 3.125970 17.500000
-10.987683 -3.878052 3.114093 18.000000
-10.991817 -3.763364 3.105056 18.000000
-11.187204 3.174137 3.107896 17.500000
-11.190880 3.327693 3.120289 17.750000
-11.192458 3.481837 3.132683 17.750000
-11.199272 3.638930 3.147141 17.750000
-11.204094 3.777160 3.159965 17.000000
-11.208662 3.916496 3.173219 16.500000
-11.210316 4.075850 3.187936 16.750000
-11.256963 5.470963 3.107375 17.000000
-11.259989 5.582207 3.120226 17.333334
-11.263419 5.716781 3.135968 17.000000
-11.270681 5.877248 3.155807 17.000000
-11.276442 6.038827 3.175807 17.000000
-11.280317 6.178399 3.193155 17.000000
9.814930 6.753282 3.184063 3.000000
9.664510 6.860596 3.167539 49.000000
-11.320038 7.385094 3.104526 17.000000
-11.323359 7.514747 3.121539 17.000000
10.020670 7.499147 3.107375 3.000000
10.178540 7.468679 3.134362 0.000000
-11.330566 7.674344 3.143328 17.000000
-11.336845 7.835459 3.165416 16.666666
-11.340023 7.996623 3.187205 16.666666
8.916639 8.777665 3.106411 15.000000
9.286689 8.914953 3.196047 19.000000
-11.438129 9.252502 3.105108 10.000000
10.196010 9.190200 3.152880 34.000000
-11.416029 9.353960 3.115021 8.666667
8.749790 9.317683 3.173397 6.500000
-11.393381 9.485905 3.129064 12.000000
-11.393164 9.638317 3.149715 15.000000
9.649591 9.619324 3.129598 13.000000
-11.398798 9.797632 3.172431 13.500000
-11.403427 9.926882 3.191017 14.000000
9.123545 10.016113 3.111988 17.833332
9.230270 9.985250 3.123330 43.000000
-11.830953 10.936418 3.105771 6.000000
-11.802237 11.013477 3.111828 6.000000
-11.731498 11.121125 3.116119 6.666667
-11.668048 11.200992 3.117886 4.000000
-11.577059 11.218922 3.107664 6.500000
-11.509115 11.294222 3.108421 14.500000
-11.504778 11.432766 3.126593 13.500000
-11.508844 11.581450 3.147414 10.500000
-11.482495 11.737921 3.165333 11.333333
-11.464458 11.905083 3.186028 14.500000
-11.925743 13.143035 3.100572 9.000000
-11.926609 13.227262 3.111587 5.000000
-11.929714 13.356802 3.128797 4.500000
-11.921154 13.517182 3.148761 5.500000
-11.860223 13.662942 3.160922 7.333333
-11.787889 13.753166 3.164594 6.000000
-11.637606 13.751764 3.147384 12.000000
-11.719077 13.760129 3.157710 6.000000
-11.601738 13.841188 3.155300 14.500000
-11.603129 13.976037 3.173543 12.000000
-11.599659 14.106657 3.190753 7.500000
-12.011944 15.785189 3.109045 9.000000
8.847950 15.805622 3.164594 72.000000
-12.019545 15.950476 3.130414 10.000000
8.028851 15.908138 3.113193 28.000000
8.461282 15.926766 3.150826 18.000000
7.762313 16.042822 3.113652 43.000000
7.797129 15.986484 3.107456 1.000000
8.208278 16.054197 3.150137 32.000000
-12.028586 16.067244 3.145899 10.000000
-12.031501 16.230120 3.166648 6.000000
-12.040305 16.402893 3.189256 4.000000
9.397911 17.757111 3.148996 11.000000
7.442727 18.384430 3.108735 5.000000
-12.128770 18.776953 3.103800 7.000000
-12.131763 18.911673 3.119753 7.000000
-12.136149 19.049940 3.136257 9.000000
-12.146148 19.198460 3.154411 8.000000
-12.144786 19.330462 3.169814 7.000000
-12.151111 19.476084 3.187418 8.000000
-12.260017 22.533236 3.106575 8.000000
-10.716143 23.612658 3.140237 3.000000
-10.630680 23.820946 3.158992 2.000000
-10.178709 23.806076 3.135428 1.000000
-10.498361 23.927269 3.164282 2.000000
-9.780970 23.907890 3.128215 1.000000
-10.369829 24.043808 3.171015 1.000000
-13.710904 26.781935 3.111369 36.000000
-13.606881 26.785854 3.106843 7.000000
-12.991098 27.248629 3.121655 20.000000
-13.744721 27.269041 3.157863 35.000000
-13.538074 27.500889 3.169795 14.000000
-13.469076 27.579033 3.173909 35.000000
9.937277 29.207266 3.190367 12.000000
9.872135 29.317526 3.199008 10.000000
5.395221 29.599874 3.111369 3.000000
5.501248 29.653194 3.118775 5.000000
8.945227 29.609343 3.198596 4.000000
5.615044 29.745239 3.130296 11.000000
5.773742 30.067392 3.166092 11.000000
13.676535 33.799648 3.131009 18.000000
12.087834 34.809311 3.164205 3.000000
12.236708 34.883987 3.174472 14.000000
12.754708 34.948349 3.194663 3.000000
11.140940 35.270142 3.176183 17.000000
6.593465 35.540539 3.103973 57.000000
9.708299 35.757141 3.181658 77.000000
9.830092 35.761051 3.184738 6.000000
4.928746 35.934078 3.114582 9.000000
4.479268 36.012951 3.116293 20.000000
6.136199 36.240917 3.156334 30.000000
-10.436703 -20.814590 3.233079 3.000000
-10.514738 -18.241457 3.300128 0.000000
-10.530325 -18.136566 3.287121 4.000000
-10.529393 -18.004471 3.269158 8.000000
10.101810 -18.030693 3.239427 13.000000
-10.501667 -17.828295 3.243144 10.000000
-10.497134 -17.693256 3.224562 12.000000
10.304361 -17.733126 3.214652 27.000000
10.904111 -17.724379 3.261725 1.000000
10.884817 -17.569099 3.239427 24.000000
11.121716 -17.457596 3.244382 0.000000
11.020334 -17.418982 3.230756 14.000000
-10.581669 -15.576443 3.289883 12.500000
-10.583687 -15.422413 3.267854 13.000000
-10.582811 -15.317765 3.252710 13.000000
-10.588131 -15.222984 3.239630 13.000000
-10.595222 -15.131546 3.227239 13.000000
-10.602646 -14.991386 3.207963 13.500000
-10.675129 -13.324827 3.291270 14.000000
-10.683155 -13.164470 3.268177 14.000000
-10.684603 -12.998473 3.243570 14.000000
-10.690676 -12.840525 3.220856 14.000000
-10.698038 -12.726855 3.204956 14.000000
-10.738973 -11.364149 3.300055 14.000000
