# This PCD file was generated using the MATLAB® pcwrite function
# from Computer Vision Toolbox®.
# .PCD v.7 - Point Cloud Data file format
VERSION .7
FIELDS x y z intensity
SIZE 4 4 4 4
TYPE F F F F
COUNT 1 1 1 1
WIDTH 1235
HEIGHT 1
VIEWPOINT 0 0 0 1 0 0 0
POINTS 1235
DATA ascii
-11.693152 4.944247 0.646904 17.000000
-11.699787 5.077548 0.649890 17.000000
-11.706409 5.234175 0.653418 16.750000
-11.708678 5.390399 0.656811 16.000000
-11.717574 5.528913 0.660203 17.000000
-11.627427 5.575924 0.657082 14.000000
-11.613450 5.614161 0.657286 16.000000
-11.705245 5.726798 0.664003 15.000000
10.405283 5.791506 0.606804 9.500000
10.476810 5.723998 0.608330 8.500000
-11.728994 5.853016 0.667939 16.333334
10.360731 5.895286 0.607414 37.000000
-11.732595 5.993601 0.671331 17.000000
10.160538 6.005323 0.601409 25.000000
10.473863 6.003294 0.615149 25.000000
-11.735772 6.135368 0.674792 16.000000
-11.744359 6.281496 0.678659 16.000000
-11.747719 6.426417 0.682323 16.000000
-11.757518 6.576508 0.686462 16.333334
-11.762063 6.725359 0.690398 15.000000
-11.769441 6.877563 0.694605 15.666667
-11.770408 7.027781 0.698540 15.000000
10.164534 8.498810 0.675131 12.333333
10.267466 8.448803 0.677540 3.000000
9.622135 8.573009 0.656675 2.000000
9.288734 8.759385 0.650568 51.000000
9.346144 8.721521 0.651383 25.000000
8.785114 8.849737 0.635403 55.500000
9.133518 8.869561 0.648736 36.000000
9.234638 8.818640 0.650650 27.400000
8.975180 8.956402 0.646090 58.000000
9.048590 8.954294 0.648668 47.000000
8.985603 9.137435 0.653011 59.000000
10.071018 9.202552 0.695147 0.000000
8.932963 9.286133 0.656573 16.500000
9.071327 9.282761 0.661357 28.000000
8.920893 9.361316 0.658914 21.000000
8.976085 9.581511 0.669005 32.428570
9.256415 9.531885 0.677031 16.000000
8.903994 9.764799 0.673367 47.000000
9.257867 10.025631 0.695351 29.000000
-12.019821 13.363503 0.603478 12.000000
-12.017930 13.488633 0.606565 12.000000
-12.025603 13.626063 0.610189 12.000000
-12.032991 13.808346 0.614954 12.000000
-12.042287 13.951130 0.618780 12.000000
-12.043903 14.086741 0.622270 11.500000
-12.052367 14.231796 0.626162 12.000000
-12.057041 14.374216 0.629920 10.500000
-12.063321 14.520025 0.633813 12.000000
-12.069633 14.667801 0.637773 10.500000
10.352379 14.795719 0.606297 0.000000
-12.067986 14.855046 0.642605 11.000000
-12.074347 15.006729 0.646699 9.000000
-12.079422 15.158838 0.650792 9.000000
-12.080977 15.308151 0.654752 9.000000
9.470243 15.363525 0.605961 28.500000
9.547798 15.327250 0.606297 7.000000
-12.089556 15.418389 0.657839 9.000000
8.043670 15.993057 0.601062 23.000000
-12.132656 16.959217 0.700120 8.000000
8.755563 18.184544 0.677638 54.500000
8.643664 18.244633 0.677839 51.500000
8.648254 18.631071 0.689651 14.000000
16.881386 33.564899 0.609890 16.000000
18.221249 33.559361 0.619889 54.000000
16.272017 33.660286 0.606904 4.000000
18.130905 33.644604 0.620408 35.000000
16.757114 33.845936 0.613072 6.000000
18.085480 33.814255 0.622486 14.000000
18.944139 33.868778 0.629952 18.000000
19.107382 33.910141 0.631835 18.000000
19.373671 33.883163 0.633587 13.000000
17.933411 33.913193 0.622745 22.000000
19.257256 33.926468 0.633263 20.000000
19.535912 33.919170 0.635405 18.000000
18.893944 34.029530 0.631835 25.000000
17.435823 34.131321 0.622161 29.000000
18.833275 34.172783 0.633393 4.000000
15.652496 34.282822 0.611773 4.000000
14.297545 34.415348 0.604956 2.000000
15.614001 34.484848 0.614500 30.000000
18.869781 34.494942 0.638262 16.000000
15.541628 34.614002 0.615928 19.000000
16.093237 34.669910 0.620473 8.000000
16.266497 34.756832 0.622940 6.000000
19.883106 35.029064 0.653844 6.000000
19.666527 35.160282 0.653973 4.000000
12.724348 35.227448 0.608008 34.000000
12.851402 35.232384 0.608787 12.000000
19.859348 35.244667 0.656700 5.000000
12.641900 35.346329 0.609371 4.000000
-10.774357 -21.255808 0.800118 6.000000
-10.777430 -21.097250 0.795421 6.000000
8.684482 -21.028458 0.763878 8.000000
-10.785100 -20.949547 0.791125 6.000000
-10.790110 -20.798456 0.786696 6.000000
10.351670 -20.689840 0.776763 6.000000
11.203568 -20.737860 0.791394 12.000000
11.282038 -20.727142 0.792333 4.000000
-10.792420 -20.644003 0.782132 6.000000
8.610620 -20.574234 0.748844 29.500000
8.850574 -20.511379 0.750052 1.000000
9.718106 -20.540255 0.762938 0.000000
10.422922 -20.589054 0.774817 19.500000
8.680946 -20.470892 0.746562 24.000000
8.977670 -20.451704 0.749918 28.000000
9.028931 -20.394154 0.748844 19.000000
8.795931 -20.384624 0.745422 12.500000
9.717188 -20.372505 0.757837 9.000000
9.807003 -20.313856 0.757368 13.000000
10.546245 -20.276423 0.767367 3.000000
8.936831 -19.931854 0.733408 4.000000
9.604044 -19.347221 0.725221 20.000000
10.072153 -19.364923 0.732871 24.000000
10.346812 -19.296722 0.735153 1.000000
10.242943 -19.247963 0.732066 23.000000
9.390369 -19.142803 0.715892 14.500000
9.904667 -18.897659 0.716362 2.000000
10.443483 -18.902739 0.725086 11.000000
10.099553 -18.694323 0.713409 8.000000
10.293701 -18.770710 0.718778 21.000000
10.975731 -18.603386 0.725221 1.000000
11.575279 -18.538712 0.733811 17.000000
11.599194 -17.458187 0.703744 34.000000
8.536908 -12.937072 0.789801 1.000000
8.896604 -12.857917 0.796722 4.000000
8.920970 -12.806958 0.795297 48.000000
9.062604 -12.667853 0.793669 32.000000
8.350689 -12.526072 0.767105 19.000000
8.465548 -12.484912 0.768631 14.333333
8.658404 -12.347127 0.768428 50.000000
8.743230 -12.385136 0.772499 32.000000
8.855966 -12.216072 0.768835 58.000000
9.190469 -12.267288 0.781048 17.000000
8.633991 -12.149204 0.759471 22.000000
8.899438 -12.115114 0.765985 29.000000
9.378826 -12.156677 0.782372 22.000000
8.818945 -12.084928 0.762321 29.000000
8.536510 -11.469311 0.728531 42.000000
8.624980 -11.387762 0.727920 12.666667
-2.743451 -11.211559 0.789309 255.000000
-2.604518 -11.254672 0.789982 206.600006
-2.469715 -11.283470 0.789873 0.400000
10.054613 -11.237599 0.768360 46.000000
-3.067643 -11.091656 0.786967 255.000000
-2.913180 -11.144110 0.787690 255.000000
-2.811580 -11.185106 0.788672 255.000000
9.733465 -11.134122 0.753568 80.000000
10.054340 -11.142988 0.764764 23.000000
-3.300649 -11.050670 0.788672 0.000000
-3.219751 -11.057806 0.787581 2.200000
8.804901 -11.049459 0.719930 19.000000
-11.159753 -10.962883 0.797129 13.000000
9.132659 -10.922535 0.725477 13.000000
-11.168200 -10.834135 0.792855 13.500000
8.815495 -10.816574 0.711025 16.000000
9.098091 -10.881048 0.722729 15.500000
9.195941 -10.858842 0.725070 29.000000
9.575718 -10.861498 0.737826 33.000000
9.836864 -10.833341 0.745629 14.000000
-11.163933 -10.694664 0.787766 14.000000
8.655772 -10.688986 0.700847 15.000000
9.728028 -10.646083 0.734841 4.000000
-11.072257 -10.507179 0.777792 21.000000
-11.599740 -10.466471 0.796112 4.000000
-11.340310 -10.427916 0.785018 9.250000
-11.168184 -10.465549 0.779895 11.666667
-11.389350 -10.341732 0.783898 5.000000
-11.437407 -10.222708 0.781659 0.000000
9.509837 -10.276885 0.713467 25.000000
9.411401 -10.106628 0.703697 34.000000
9.646475 -10.165266 0.714078 12.000000
-11.446861 -10.057813 0.776448 0.000000
9.739076 -10.071027 0.713875 6.000000
-11.473705 -9.919687 0.772855 0.000000
-11.462376 -9.738051 0.766392 0.000000
-11.455990 -9.609372 0.761914 0.000000
-11.514050 -9.444352 0.758827 0.000000
10.595537 -9.480162 0.724460 10.000000
-11.429968 -9.226068 0.748479 0.000000
10.645216 -9.169268 0.715910 5.000000
10.722530 -9.177341 0.719167 9.000000
-11.236169 -8.982563 0.733009 10.000000
-11.237947 -8.868919 0.729481 13.666667
10.548505 -8.857523 0.701865 5.000000
-11.238899 -8.699038 0.724188 13.666667
-11.236472 -8.556836 0.719676 13.500000
-11.246274 -8.425613 0.716046 14.000000
-11.251128 -8.264860 0.711364 14.000000
-11.253969 -8.104753 0.706682 14.000000
-11.256471 -7.972999 0.702883 14.000000
8.591393 -7.919606 0.799042 26.000000
10.050702 -3.793842 0.734639 17.000000
8.796703 -2.687744 0.789853 3.000000
10.581343 -2.659813 0.746100 2.000000
10.674859 -2.647694 0.752104 9.000000
8.571078 -2.545356 0.767780 66.500000
8.868469 -2.558076 0.792591 102.000000
8.711658 -2.483225 0.777876 0.000000
8.766726 -2.459318 0.781868 81.000000
8.527733 -2.094845 0.754067 44.000000
8.520211 -1.999966 0.751524 72.000000
8.623699 -2.081513 0.761791 95.000000
9.079817 -2.056200 0.799436 70.000000
10.286730 -2.076011 0.717628 5.000000
10.452813 -1.939201 0.726998 30.000000
10.684772 -1.912869 0.742280 3.000000
9.094495 -1.835423 0.796698 55.000000
10.317518 -1.880592 0.717173 8.000000
10.718242 -1.884130 0.744190 5.000000
-11.480700 -1.693277 0.793584 7.000000
8.978044 -1.746105 0.785405 27.750000
10.195924 -1.594816 0.705712 2.000000
-11.478145 -1.509097 0.791674 30.000000
10.178506 -1.508027 0.703645 9.857142
10.267139 -1.441125 0.708986 8.000000
-11.481858 -1.363055 0.790692 36.799999
10.288607 -1.378287 0.709860 3.000000
-11.485536 -1.199090 0.789696 44.250000
-8.635735 -1.232134 0.749072 21.000000
-11.492743 -1.054021 0.789218 49.750000
-11.498119 -0.908968 0.788740 55.000000
-11.505648 -0.764205 0.788536 59.500000
-11.509360 -0.619297 0.788195 55.500000
-11.514240 -0.474536 0.788058 59.750000
-11.520291 -0.329839 0.788126 64.000000
-11.527603 -0.139817 0.788365 67.000000
-11.527685 -0.022132 0.788308 74.000000
10.323836 -0.028861 0.705984 10.500000
-11.536946 0.050342 0.788945 71.000000
-11.533131 0.140912 0.788741 56.250000
-11.540422 0.286084 0.789423 37.750000
10.352855 0.247594 0.708168 8.000000
-11.553562 0.413574 0.790583 26.333334
9.292953 0.558621 0.799436 46.500000
10.625712 0.571723 0.727680 9.000000
-11.674269 0.785635 0.800134 10.000000
-11.652746 0.876132 0.799111 10.500000
-11.608746 1.038057 0.797023 10.400000
-11.589574 1.201772 0.796791 11.000000
-11.588421 1.349053 0.797814 12.750000
-11.589355 1.496985 0.799111 14.250000
8.891318 1.779157 0.778646 19.750000
8.917619 1.864613 0.782324 0.000000
8.845201 2.678948 0.793618 0.000000
8.808309 2.795147 0.793549 8.600000
8.896719 2.755696 0.799778 0.000000
9.755241 3.672585 0.712807 24.000000
9.619118 3.760011 0.706257 39.000000
10.278799 3.741090 0.748011 18.000000
10.462036 3.715079 0.759199 14.000000
10.521684 3.773525 0.764384 12.000000
9.849177 3.861887 0.723450 44.666668
9.944347 3.815287 0.728362 19.000000
10.086846 3.833648 0.737913 20.000000
10.047632 4.000470 0.739551 19.000000
10.192074 4.207113 0.754014 19.000000
9.262049 6.088655 0.757971 28.000000
9.910332 6.099260 0.795768 18.000000
9.964190 6.074976 0.798042 25.666666
9.018681 6.154434 0.746646 38.000000
9.101230 6.273937 0.755925 37.500000
9.129019 6.420742 0.763225 50.750000
9.124620 6.525363 0.767113 9.000000
9.166379 6.701421 0.776483 13.333333
-11.780948 7.185562 0.703154 15.000000
-11.786172 7.342033 0.707564 15.000000
-11.795103 7.502813 0.712314 16.000000
-11.800133 7.636811 0.716215 14.500000
-11.802591 7.770629 0.720049 14.666667
-11.806198 7.933510 0.724799 14.666667
-11.814359 8.101672 0.729956 14.666667
-11.822502 8.244463 0.734434 14.000000
-11.822518 8.383285 0.738505 14.666667
-11.828080 8.499339 0.742169 14.000000
-11.833690 8.559868 0.744205 14.000000
-11.837595 8.676580 0.747869 14.666667
-11.838003 8.820589 0.752245 15.000000
-11.846329 8.972405 0.757232 14.000000
-11.853095 9.124861 0.762219 14.000000
-11.860187 9.279647 0.767342 14.666667
-11.867777 9.436711 0.772601 14.500000
-11.871437 9.592836 0.777724 15.000000
-11.877081 9.752522 0.783084 14.500000
-11.872396 9.874207 0.786850 14.000000
-11.883409 10.042378 0.792787 14.333333
-11.890106 10.209110 0.798554 14.500000
9.409987 10.254817 0.709193 29.000000
9.382923 10.355185 0.712043 13.000000
9.237966 10.500530 0.712653 13.666667
-12.139532 17.081972 0.703610 8.000000
-12.143441 17.201675 0.706966 8.000000
-12.154909 17.391449 0.712402 8.000000
-12.158210 17.571785 0.717435 8.000000
-12.170880 17.708733 0.721462 8.000000
-12.176039 17.836031 0.725086 8.000000
-12.173797 17.953606 0.728308 8.000000
-12.177624 18.081291 0.731932 8.000000
-12.187554 18.281532 0.737704 8.000000
-12.196033 18.482218 0.743475 7.000000
-12.201464 18.617405 0.747368 7.000000
-12.208335 18.756165 0.751395 8.000000
-12.205782 18.881714 0.754884 7.000000
-12.217678 19.030979 0.759314 7.000000
-12.222300 19.170401 0.763341 7.000000
-12.228313 19.313408 0.767502 8.000000
-12.229282 19.449879 0.771394 7.000000
-12.240110 19.603493 0.775958 7.000000
-12.241666 19.743776 0.779985 7.000000
-12.244549 19.887676 0.784146 7.000000
-12.250827 20.038599 0.788575 7.000000
-12.258342 20.193180 0.793139 7.000000
-12.271205 20.358273 0.798105 6.000000
8.617040 21.306505 0.771663 17.000000
8.554523 21.344604 0.772065 22.000000
10.212010 -24.727190 0.898237 8.000000
9.742181 -24.456171 0.883875 26.000000
9.964670 -24.344767 0.883204 9.000000
-10.824728 -24.007589 0.884211 10.000000
-10.687900 -24.005409 0.882264 8.000000
-10.989530 -23.969986 0.885352 2.500000
10.494571 -23.907299 0.876627 4.000000
9.531986 -23.497974 0.851393 5.000000
9.645135 -23.564106 0.854882 5.000000
10.054955 -23.505266 0.858372 12.000000
10.714026 -23.401463 0.864144 8.000000
10.172128 -23.371981 0.855822 10.000000
10.604094 -23.354925 0.861191 53.000000
10.420701 -23.143890 0.852198 14.000000
10.242005 -22.939234 0.843473 23.000000
11.025007 -22.928747 0.854211 7.000000
11.214117 -22.770029 0.852198 1.000000
11.077591 -22.672245 0.847232 6.000000
-10.722791 -22.541517 0.838104 4.000000
-10.733053 -22.381554 0.833406 6.000000
-10.742417 -22.221750 0.828708 5.000000
-10.738619 -22.036957 0.823071 5.000000
-10.756685 -21.899052 0.819178 5.000000
-10.761575 -21.736174 0.814346 5.000000
-10.760191 -21.562750 0.809112 6.000000
-10.768604 -21.410980 0.804682 6.000000
11.008725 -21.329014 0.805890 2.000000
-11.361577 -13.359253 0.893615 0.000000
-11.320368 -13.226374 0.887102 0.000000
10.017886 -13.284533 0.847815 5.000000
8.636367 -13.177664 0.802829 1.000000
9.372197 -13.187960 0.824406 1.000000
10.028186 -13.040689 0.838248 6.000000
10.002750 -12.756978 0.826035 15.000000
10.069999 -12.759987 0.828274 2.000000
-11.099564 -12.603354 0.855754 6.500000
9.571572 -12.610253 0.806697 10.333333
-11.104088 -12.449883 0.850054 13.000000
9.670472 -12.413324 0.801811 2.000000
-11.112469 -12.302794 0.844762 13.000000
9.804424 -12.343531 0.803236 3.000000
-11.115409 -12.151665 0.839164 13.000000
11.224508 -12.168072 0.843540 3.500000
-11.119593 -12.003929 0.833770 13.000000
11.485470 -12.027261 0.847408 33.000000
11.641380 -12.037989 0.853311 11.000000
11.761473 -12.010423 0.856568 1.000000
-11.126472 -11.860981 0.828681 13.000000
-11.130617 -11.716983 0.823490 13.000000
-11.136169 -11.576279 0.818503 13.500000
11.818869 -11.549706 0.842048 28.666666
11.946837 -11.528868 0.845983 26.000000
-11.141779 -11.437409 0.813618 13.000000
11.977922 -11.450336 0.844355 7.500000
-11.148767 -11.266281 0.807647 13.333333
11.101271 -11.288868 0.806764 34.666668
11.158125 -11.216714 0.806188 37.000000
-11.154377 -11.096172 0.801709 13.500000
11.212790 -11.130903 0.805068 27.000000
11.604792 -10.829226 0.808800 3.666667
11.985847 -10.724116 0.819521 11.000000
11.582292 -10.628099 0.800997 2.000000
11.863036 -10.681527 0.813414 2.000000
8.488337 -10.026828 0.898377 7.000000
9.224414 -9.017544 0.882139 25.500000
9.260145 -8.920582 0.879274 18.333334
9.850863 -8.687756 0.898195 42.333332
9.739174 -8.553064 0.886369 56.000000
8.914598 -8.418468 0.838476 43.500000
9.241306 -8.363359 0.852325 8.500000
8.550220 -8.202233 0.810231 0.000000
8.639494 -8.235909 0.816235 43.000000
8.631767 -8.049208 0.807093 55.500000
9.373000 -7.773202 0.832700 22.000000
9.391286 -7.591352 0.825786 9.000000
9.270738 -7.558317 0.817963 38.666668
-11.349601 -6.597725 0.897740 1.000000
-11.354617 -6.458248 0.893283 1.000000
-11.359209 -6.310565 0.888607 1.000000
-11.364779 -6.175771 0.884505 1.000000
-11.366598 -6.023408 0.879683 1.000000
-11.307850 -5.879113 0.871542 25.000000
-11.323177 -5.729656 0.867812 46.250000
-11.347664 -5.564155 0.864265 59.000000
-11.350572 -5.411551 0.859898 22.333334
-11.357748 -5.262516 0.856010 10.750000
-11.372205 -5.118073 0.852803 14.666667
-11.497883 -5.001809 0.857442 4.000000
-11.383446 -4.994612 0.850074 8.000000
-11.371346 -5.031967 0.850347 14.000000
-11.563277 -4.944129 0.859989 8.000000
-11.590590 -4.827104 0.858602 1.500000
-11.598850 -4.660379 0.854804 1.000000
-11.611597 -4.559903 0.853076 1.000000
-11.609813 -4.454262 0.850347 1.000000
-11.620093 -4.374679 0.849073 1.000000
-11.620366 -4.208839 0.845162 2.000000
8.808083 -4.157921 0.836396 5.000000
-11.622309 -4.053266 0.841723 2.200000
8.688827 -4.046119 0.823049 23.333334
8.798939 -4.035852 0.831263 23.500000
8.894087 -4.028923 0.838449 1.000000
9.062904 -4.002887 0.850769 0.000000
-11.608013 -3.917849 0.837794 3.000000
8.987820 -3.936025 0.842556 13.000000
8.976864 -3.830809 0.838107 18.000000
9.044400 -3.809317 0.842727 20.000000
-11.609159 -3.783308 0.834974 3.833333
-11.599982 -3.653012 0.831654 8.000000
-11.466509 -3.551671 0.820874 10.000000
-11.418533 -3.458356 0.815871 16.333334
-11.428371 -3.324607 0.813915 17.250000
9.150416 -3.333005 0.836259 45.400002
-11.461096 -3.197752 0.813688 12.000000
9.199689 -3.259588 0.838107 20.000000
-11.629671 -3.146645 0.823876 9.000000
8.840439 -3.163594 0.806280 80.000000
9.526511 -3.141373 0.861378 63.000000
9.687441 -3.133775 0.874314 34.799999
-11.631716 -3.029867 0.821966 9.000000
9.070447 -3.022611 0.820996 68.000000
9.627588 -2.941612 0.864458 1.000000
-11.634004 -2.874847 0.819510 9.000000
-11.638126 -2.721146 0.817326 9.000000
9.681323 -2.759624 0.864458 50.000000
-11.644121 -2.568675 0.815416 9.000000
9.157473 -2.501752 0.815178 31.000000
-11.653010 -2.417498 0.813847 9.250000
9.192264 -2.464779 0.817231 54.000000
-11.655048 -2.265537 0.811937 10.000000
8.227937 -2.261734 0.882419 14.666667
8.327844 -2.232997 0.891608 64.000000
-11.654129 -2.113741 0.809958 10.250000
8.425479 -2.117947 0.898396 16.666666
9.231360 -2.090307 0.812782 58.000000
9.274803 -2.023929 0.815178 48.000000
9.335665 -2.006507 0.819969 65.000000
9.727920 -2.058862 0.853849 79.000000
10.084854 -2.084790 0.884307 43.500000
-11.660093 -1.963814 0.808594 11.750000
-11.660191 -1.813461 0.806956 12.750000
9.893711 -1.771247 0.863089 2.000000
9.778075 -1.659569 0.851668 37.250000
9.813643 -1.550823 0.853165 5.000000
9.683308 -1.467955 0.841016 6.500000
9.790685 -1.437033 0.849743 3.000000
9.514392 -0.710423 0.819285 1.333333
9.492597 -0.608808 0.816821 3.000000
9.458467 -0.160153 0.812326 11.333333
9.343592 0.194089 0.802516 0.000000
10.352287 0.182507 0.889098 0.000000
9.491717 0.292604 0.815452 41.599998
9.490058 0.373290 0.815554 48.099998
-11.730196 0.493690 0.802863 15.000000
9.626582 0.492710 0.827726 37.000000
-11.722896 0.585634 0.802658 10.250000
9.387015 0.519885 0.807307 62.000000
9.698508 0.649283 0.834685 46.000000
-11.697525 0.713398 0.801407 10.000000
9.736004 0.738962 0.838449 52.500000
9.799389 0.867755 0.844780 44.250000
9.865727 0.951699 0.851112 51.000000
9.970156 1.009269 0.860523 45.000000
10.169408 1.077821 0.878147 15.000000
10.203813 1.130135 0.881570 39.000000
10.400297 1.201517 0.899023 31.000000
-11.591357 1.645593 0.800611 14.500000
-11.596385 1.795232 0.802454 14.750000
-11.597507 1.944949 0.804159 17.750000
10.199659 1.999244 0.892521 4.000000
10.241110 1.973981 0.895601 9.000000
-11.596695 2.094962 0.805865 20.000000
10.042374 2.034019 0.879858 6.000000
9.444201 2.161276 0.831947 31.000000
-11.599816 2.246410 0.807980 17.000000
9.696599 2.219040 0.854192 4.250000
-11.605844 2.399267 0.810436 16.000000
9.096209 2.430552 0.808505 3.000000
9.414059 2.467976 0.835711 3.000000
-11.609859 2.552621 0.812892 16.000000
9.192236 2.518157 0.818429 13.000000
9.714991 2.514276 0.861721 25.000000
-11.613201 2.687537 0.815143 16.000000
9.858923 2.775929 0.879516 15.000000
-11.615870 2.823100 0.817463 15.750000
9.473109 2.901645 0.850769 58.000000
-11.620065 2.979254 0.820328 16.500000
8.928418 3.044699 0.810045 43.000000
9.054884 3.056256 0.820654 60.750000
9.361604 3.094242 0.846663 16.000000
-11.627946 3.137504 0.823603 16.500000
-11.630794 3.295621 0.826673 15.500000
8.738862 3.289946 0.801831 15.000000
9.096036 3.273169 0.830122 26.666666
9.267229 3.241723 0.843069 38.500000
8.984407 3.350199 0.823391 80.000000
-11.635036 3.435452 0.829607 15.333333
9.379956 3.464168 0.858640 31.000000
-11.639435 3.576367 0.832677 15.250000
9.079026 3.581878 0.838107 43.333332
9.538502 3.651039 0.877035 41.500000
-11.640125 3.737275 0.836020 15.500000
9.372177 3.782800 0.867881 46.500000
-11.642380 3.900052 0.839636 15.750000
9.304275 3.874901 0.865485 4.000000
9.335490 3.830658 0.866512 32.000000
8.547607 4.009450 0.810729 7.000000
8.659522 3.976853 0.818282 22.785713
-11.641240 4.042557 0.842706 15.000000
9.335421 4.096021 0.875409 9.000000
-11.651434 4.190245 0.846731 15.000000
8.613608 4.139896 0.820654 4.000000
9.252471 4.129098 0.870048 19.333334
-11.652893 4.294361 0.849255 15.000000
8.533197 4.222920 0.817574 0.666667
-11.662411 4.360415 0.851439 14.500000
-11.664487 4.486995 0.854645 14.250000
-11.674754 4.638914 0.859080 14.000000
-11.676814 4.746222 0.861945 14.000000
-11.685482 4.835513 0.864810 14.000000
-11.691210 4.945822 0.868085 14.000000
-11.697768 5.079093 0.872088 14.000000
9.072730 5.160313 0.896285 14.000000
-11.698839 5.233237 0.876409 14.000000
-11.710114 5.393528 0.881639 14.000000
-11.714103 5.529761 0.885824 12.666667
-11.628805 5.579082 0.882003 12.000000
-11.611221 5.615584 0.882003 13.000000
-11.717228 5.735161 0.892100 14.500000
-11.724152 5.853170 0.896103 13.000000
10.035738 6.046780 0.801226 7.000000
10.832974 6.282172 0.856351 2.000000
10.774695 6.323991 0.854349 9.000000
9.905942 8.439566 0.889917 9.000000
9.938499 8.413560 0.890463 32.000000
9.933912 8.517401 0.894829 8.000000
9.214478 8.677208 0.865538 20.333334
9.327529 8.628320 0.868904 1.000000
8.431029 8.899993 0.838340 21.000000
8.657212 8.855805 0.846890 42.666668
8.922241 8.900467 0.861809 51.000000
9.136358 8.887822 0.871633 50.000000
8.554779 8.936426 0.845981 45.333332
9.257975 9.005947 0.883231 49.000000
9.049335 9.027250 0.874089 44.000000
9.045824 9.137860 0.879274 9.000000
9.253753 9.115888 0.888280 44.000000
8.891479 9.210613 0.875453 29.000000
8.768788 9.452943 0.881730 5.000000
8.688348 9.545040 0.882640 27.666666
8.218018 9.659553 0.867267 27.000000
8.321953 9.688812 0.873407 39.000000
8.195600 9.735958 0.870268 25.000000
8.649686 9.787012 0.893192 31.000000
8.103346 9.833641 0.871360 2.000000
8.295769 9.876005 0.882003 86.000000
8.223363 9.915647 0.880911 41.000000
-11.895056 10.343910 0.803236 14.000000
-11.901777 10.481813 0.808122 14.000000
-11.904253 10.617546 0.812803 14.000000
-11.909937 10.757736 0.817791 14.000000
-11.916756 10.935139 0.824135 14.000000
-11.927967 11.119179 0.830920 14.500000
-11.934852 11.266569 0.836314 14.000000
-11.937467 11.411722 0.841505 14.000000
-11.943018 11.561529 0.847001 14.000000
-11.947163 11.711847 0.852497 14.000000
-11.954136 11.866896 0.858298 14.000000
-11.961624 11.986697 0.862878 14.000000
-11.966743 12.105453 0.867357 14.000000
-11.969974 12.261875 0.873158 14.000000
-11.975877 12.423117 0.879265 14.000000
-11.977455 12.582033 0.885168 13.500000
-11.979747 12.703712 0.889748 13.000000
-11.988949 12.793751 0.893412 14.000000
-11.992252 12.878132 0.896669 13.000000
9.830351 14.191387 0.879672 34.000000
10.132231 14.147322 0.886695 18.000000
9.980084 14.216030 0.885066 46.500000
10.130157 14.286177 0.892394 34.000000
9.189535 14.396969 0.870308 25.500000
7.719019 14.432178 0.833973 67.000000
9.129080 14.451943 0.871021 13.000000
9.940658 14.496245 0.895651 27.000000
7.358256 14.516472 0.829291 28.000000
9.897317 14.530704 0.895855 55.000000
7.465615 14.614239 0.836212 8.000000
7.797258 14.689240 0.847408 29.000000
7.893189 14.646993 0.847815 26.000000
7.182187 14.797768 0.838146 2.000000
7.292747 14.788150 0.840182 29.000000
7.675028 14.793989 0.849240 2.000000
7.773374 14.812491 0.852395 37.000000
8.264191 14.995289 0.872446 41.000000
8.320956 14.986717 0.873463 31.000000
8.763978 14.997843 0.885134 57.000000
8.875762 14.972289 0.886898 48.000000
8.678945 15.068792 0.886084 59.000000
9.010817 15.091820 0.895651 61.000000
9.062302 15.070284 0.896058 72.000000
7.546947 15.123610 0.861250 28.000000
8.748553 15.300593 0.898094 66.000000
-12.272887 20.506493 0.802400 6.000000
-12.281919 20.668673 0.807232 6.000000
-12.283965 20.820778 0.811662 6.000000
-12.297293 20.993801 0.816897 6.000000
-12.297602 21.146372 0.821326 7.000000
-12.303073 21.309538 0.826158 6.000000
-12.307626 21.472948 0.830990 6.000000
-12.319194 21.650490 0.836359 6.000000
-12.327790 21.824842 0.841594 7.000000
-12.251348 21.849514 0.841057 13.000000
-12.272085 22.048576 0.847232 2.000000
8.151850 22.943785 0.817523 195.333328
8.054211 23.089764 0.821058 255.000000
7.949701 23.259075 0.825286 255.000000
7.867483 23.377750 0.828172 255.000000
7.807897 23.444075 0.829648 50.000000
-6.479928 23.638071 0.822937 2.500000
-6.339549 23.709213 0.824011 4.500000
-6.232846 23.758186 0.824682 4.000000
-6.160174 23.785391 0.824950 5.000000
-6.055886 23.845125 0.826024 4.500000
-5.948289 23.892822 0.826695 4.000000
-5.879878 23.938566 0.827635 4.000000
-5.773058 23.991249 0.828507 3.500000
-5.629952 24.060135 0.829648 2.500000
-11.598431 24.121305 0.898640 4.000000
-11.488708 24.151590 0.897969 4.333333
-11.343410 24.171638 0.896492 2.000000
-5.484864 24.122322 0.830588 2.000000
-5.377232 24.175243 0.831527 2.000000
-5.273011 24.245209 0.833071 1.500000
-5.128831 24.316977 0.834413 1.000000
-4.987116 24.403563 0.836292 1.000000
-4.839120 24.461868 0.837232 0.000000
-10.979645 -27.646801 0.998772 4.000000
-10.867849 -27.617918 0.996490 3.000000
-10.571361 -27.625771 0.993135 9.000000
-10.476017 -27.636419 0.992329 9.000000
-10.706450 -27.588669 0.993605 9.500000
10.819501 -26.914354 0.973940 52.000000
11.836817 -26.736483 0.981726 7.000000
11.312387 -26.676199 0.972867 2.000000
-10.579070 -26.157822 0.947364 2.000000
-10.608328 -25.994907 0.942666 5.000000
-10.613830 -25.776625 0.935955 4.000000
11.725851 -25.611481 0.945753 5.000000
-10.618071 -25.558559 0.929243 4.000000
-10.628776 -25.359161 0.923203 5.000000
-10.636774 -25.156265 0.917029 5.000000
-10.645172 -24.957251 0.910989 5.000000
-10.647680 -24.747417 0.904546 5.000000
8.773981 -17.399698 0.992951 3.000000
10.115397 -16.781723 0.998447 26.000000
9.029709 -16.589209 0.962418 20.000000
9.785672 -16.350666 0.970967 19.000000
-10.957435 -16.196239 0.996412 9.000000
-10.961037 -16.092400 0.992137 9.000000
-10.991500 -15.921275 0.985827 9.000000
-11.330814 -15.873495 0.993766 2.000000
-11.136919 -15.863894 0.987659 7.000000
-11.188464 -15.778664 0.985623 7.000000
-11.254173 -15.455976 0.974224 0.000000
-11.025394 -14.415488 0.924760 5.500000
-11.030120 -14.235401 0.917635 12.500000
-11.400294 -14.018062 0.920689 1.000000
-11.287796 -14.014008 0.916923 5.000000
-11.187054 -14.069050 0.915905 8.500000
-11.058935 -14.088810 0.912648 10.000000
-11.300193 -13.717983 0.905625 0.000000
8.400833 -11.516194 0.974788 5.000000
-2.842714 -11.197231 0.992022 10.500000
-2.572002 -11.194038 0.986290 0.000000
-2.730457 -11.158484 0.986461 0.000000
-2.635827 -11.176455 0.986062 0.000000
-3.087870 -11.029749 0.983552 0.000000
-3.013412 -11.053079 0.983780 0.000000
-2.955835 -11.069991 0.983895 0.000000
9.013803 -10.784215 0.961143 32.000000
9.055346 -10.765005 0.961962 29.000000
9.881797 -10.750141 0.998530 28.000000
9.716097 -10.636753 0.985158 30.000000
9.086946 -10.332537 0.940949 11.000000
9.042662 -10.217274 0.933035 0.000000
9.460258 -10.226887 0.952683 7.000000
9.522250 -10.229245 0.955685 28.000000
9.461579 -10.100258 0.946407 27.000000
8.657984 -10.033986 0.906291 3.000000
8.736693 -9.997435 0.907928 4.000000
8.915462 -10.010014 0.916661 24.000000
9.493264 -10.070482 0.946407 1.000000
8.611136 -9.979620 0.901379 27.000000
9.511924 -9.818963 0.934854 21.000000
9.650681 -9.858394 0.943405 7.000000
9.361052 -9.744578 0.924029 0.000000
9.178835 -9.615178 0.909020 13.000000
10.211215 -9.139505 0.937128 7.000000
10.569105 -9.106923 0.954048 31.000000
-11.229219 -8.944965 0.981747 10.500000
10.440378 -8.910645 0.938629 7.500000
-11.235008 -8.834764 0.977381 11.000000
10.773011 -8.820748 0.952138 9.000000
-11.231978 -8.718729 0.972332 10.500000
10.124373 -8.779289 0.916388 99.000000
11.539944 -8.743431 0.990070 1.000000
11.657455 -8.717740 0.995437 17.333334
11.737924 -8.634980 0.996483 8.500000
-11.238743 -8.583432 0.967056 11.000000
-11.243546 -8.420511 0.960597 10.666667
-11.249495 -8.260637 0.954412 11.000000
10.384407 -8.260163 0.907382 9.000000
-11.256684 -8.103721 0.948499 11.000000
10.406734 -8.180461 0.905199 33.333332
8.340755 -8.043398 0.995017 17.166666
-11.260827 -7.946649 0.942495 11.000000
-11.266294 -7.792500 0.936764 11.000000
-11.268894 -7.664114 0.931943 11.000000
-11.274948 -7.513875 0.926553 11.000000
-11.288090 -7.344639 0.920936 11.333333
8.961349 -7.353131 0.995416 39.000000
9.022276 -7.293067 0.996215 55.000000
-11.295105 -7.198615 0.915933 11.666667
8.943672 -7.276104 0.990055 38.000000
-11.301515 -7.053804 0.911021 12.000000
-11.298247 -6.904675 0.905472 9.666667
-11.314350 -6.744715 0.900765 5.250000
8.947100 -3.393325 0.989532 68.000000
8.415707 -3.343913 0.936455 8.000000
8.562359 -3.329670 0.950033 32.833336
8.779192 -3.313989 0.970400 44.500000
8.554677 -3.193358 0.944273 45.333332
10.964442 -2.903074 0.973970 14.000000
10.996643 -2.874661 0.976023 0.000000
9.177101 -2.414378 0.981303 33.000000
8.748762 -2.111700 0.930695 15.000000
9.056244 -2.125790 0.961965 19.000000
8.966285 -2.084966 0.951953 9.000000
10.427917 -2.036427 0.912370 11.000000
8.775356 -1.943843 0.929461 0.000000
8.882490 -1.938320 0.940158 35.000000
9.147510 -1.936021 0.966903 5.000000
9.471306 -1.942457 0.999818 1.000000
10.580086 -1.928278 0.923492 13.500000
10.695768 -1.949537 0.933588 32.000000
8.565669 -1.841012 0.906008 49.000000
-11.481090 -1.693335 0.996557 8.000000
9.301251 -1.755808 0.978835 17.000000
9.297392 -1.688698 0.977189 19.799999
9.340886 -1.672276 0.981303 0.000000
-11.476624 -1.519395 0.994112 25.142857
9.140469 -1.547635 0.958674 0.000000
8.971755 -1.470764 0.940158 14.333333
9.025542 -1.411748 0.944684 33.000000
-11.480590 -1.381182 0.992963 34.500000
8.984892 -1.382342 0.940076 30.000000
-11.480298 -1.216776 0.991355 40.000000
-8.637297 -1.232349 0.902237 19.500000
8.971721 -1.268872 0.937004 25.000000
9.334278 -1.210665 0.973349 12.000000
9.315974 -1.143864 0.970606 12.500000
-11.485283 -1.053343 0.990397 46.000000
-11.489667 -0.908292 0.989712 50.750000
-11.499180 -0.763777 0.989627 51.750000
9.510657 -0.710119 0.986241 1.333333
-11.500905 -0.618840 0.989028 49.250000
9.494465 -0.608922 0.983854 3.200000
-11.506778 -0.474231 0.988942 50.250000
-11.512824 -0.329632 0.989028 52.500000
-11.517088 -0.166851 0.989096 55.799999
-11.520531 -0.004023 0.989285 55.000000
-11.522660 0.140789 0.989541 45.500000
9.507240 0.197488 0.983361 6.000000
-11.533926 0.285912 0.990739 36.000000
9.497003 0.286842 0.982538 42.000000
9.444984 0.369478 0.977463 36.333332
-11.547377 0.413357 0.992222 26.000000
9.409954 0.610164 0.975132 8.000000
9.176749 0.638482 0.951268 27.500000
9.287060 0.778178 0.963748 55.000000
9.284655 0.836801 0.964022 1.000000
10.531028 1.250157 0.910659 18.000000
8.926280 2.561255 0.960319 3.000000
8.670918 2.987329 0.948387 39.000000
8.790054 3.007693 0.960731 71.666664
8.715788 3.064185 0.955382 73.000000
9.127106 3.016735 0.994058 54.000000
10.070518 3.032799 0.903130 21.500000
8.781107 3.118180 0.963611 56.000000
8.821938 3.273827 0.973074 4.500000
8.990015 3.272088 0.989326 39.500000
10.674650 3.528237 0.965414 2.000000
10.044283 3.781402 0.921610 5.000000
10.337731 3.781027 0.945223 5.000000
8.569981 3.856897 0.971840 56.000000
8.828101 3.823899 0.994881 36.000000
10.650140 3.819595 0.971574 1.000000
8.577032 4.144419 0.985075 23.166668
9.439250 5.002007 0.917332 15.500000
9.348684 5.073761 0.913396 33.666668
9.243959 5.123953 0.907579 31.000000
9.478569 5.118631 0.925032 65.000000
9.232280 5.212666 0.910430 15.333333
9.257124 5.409159 0.920681 61.142857
9.165691 5.463911 0.916305 36.000000
9.099449 5.554340 0.915450 41.166668
9.040384 5.642490 0.915107 47.666668
9.010946 5.722945 0.916647 42.500000
8.958227 5.848719 0.918701 45.666668
-11.730062 5.994884 0.900833 12.333333
8.900677 5.972025 0.920412 36.000000
8.826861 6.105173 0.921610 13.000000
-11.742588 6.141539 0.906200 12.000000
9.071720 6.182209 0.942691 24.000000
-11.748689 6.286460 0.911203 12.000000
9.046390 6.299119 0.946592 38.000000
-11.756597 6.433953 0.916479 11.666667
9.091684 6.437346 0.956602 39.250000
-11.777857 6.590588 0.922938 11.666667
-11.793736 6.746214 0.929123 11.000000
-11.812269 6.880464 0.934809 11.000000
-11.822732 6.961340 0.938220 12.000000
-11.842919 7.048629 0.942450 12.000000
-11.870758 7.192129 0.949136 11.666667
-11.824917 7.343105 0.951865 9.750000
-11.788311 7.501387 0.955503 12.333333
-11.796635 7.637459 0.961007 11.000000
-11.829006 7.737735 0.966601 10.000000
-11.994042 7.953820 0.984157 9.000000
-11.999620 8.093884 0.989797 9.000000
-12.004744 8.235297 0.995528 8.333333
-12.011817 8.351542 1.000440 8.000000
10.441737 8.561745 0.923392 12.333333
10.070260 8.689349 0.909566 30.000000
10.398346 8.691338 0.926758 7.000000
10.048938 8.726175 0.910111 9.000000
10.147096 9.037556 0.929214 8.000000
10.241181 9.063820 0.935218 0.000000
9.583416 9.206232 0.908747 19.000000
9.626723 9.189858 0.910111 7.000000
8.775856 9.950585 0.907291 35.666668
8.847788 10.138837 0.920209 40.000000
8.878639 10.238942 0.926758 39.000000
8.771016 10.508639 0.936037 12.000000
-11.999096 13.007926 0.901758 13.500000
-12.001867 13.176090 0.908170 13.000000
-12.009672 13.352225 0.915091 13.000000
-12.011779 13.481730 0.920078 13.000000
-12.018113 13.617571 0.925472 13.000000
-12.028101 13.802750 0.932902 13.500000
-12.028240 13.934856 0.937991 13.000000
-12.035075 14.076416 0.943691 13.000000
-12.040952 14.218316 0.949390 13.000000
-12.044359 14.359083 0.954988 13.000000
-12.057101 14.559080 0.963232 13.000000
-12.056814 14.699120 0.968728 12.000000
-12.056622 14.841058 0.974326 14.000000
-12.065497 14.995730 0.980738 10.000000
-12.068073 15.144608 0.986743 10.500000
-12.072122 15.296931 0.992951 11.000000
9.213073 15.212591 0.906236 4.000000
-12.080695 15.407088 0.997633 11.000000
9.938256 15.409339 0.934327 1.000000
9.881179 15.427030 0.933513 41.000000
8.748271 15.640365 0.913157 32.000000
8.828740 15.668489 0.916414 61.000000
9.651890 15.658367 0.937279 13.500000
9.606124 15.749717 0.940027 7.000000
8.974549 15.810911 0.926388 83.000000
9.966081 15.942923 0.958041 0.500000
8.560997 16.251123 0.935955 9.000000
8.539513 16.334581 0.939212 1.000000
8.050840 17.780964 0.994580 16.000000
7.957080 17.947704 1.000381 4.000000
-12.788654 24.400183 0.924948 5.000000
-11.829338 24.404919 0.910586 1.000000
-12.710095 24.436691 0.924814 9.000000
-12.657104 24.522680 0.926559 5.000000
-12.174370 24.525097 0.919311 2.000000
-13.103228 24.622854 0.936492 1.000000
-13.018345 24.649755 0.935955 4.000000
-12.495616 24.780098 0.931794 2.000000
-11.544076 24.801554 0.918505 1.000000
-12.268584 24.911110 0.932331 6.000000
-11.380874 25.276377 0.930720 1.000000
-11.289992 25.286457 0.929780 4.000000
-11.343209 25.621552 0.940787 6.000000
-13.980318 25.780796 0.984679 46.500000
-11.213741 26.214165 0.957296 1.000000
-11.648318 26.535599 0.973001 1.000000
-10.634091 -30.953836 1.098904 16.000000
-10.526505 -30.956810 1.097831 46.000000
-10.416448 -30.951841 1.096488 69.000000
-10.254128 -30.951206 1.094743 42.500000
-10.242368 -29.511547 1.048838 35.000000
10.779341 -29.455936 1.053133 20.000000
11.185578 -29.415312 1.056623 4.000000
10.848272 -29.358179 1.050852 37.000000
11.046608 -29.326851 1.052194 12.000000
-10.259642 -29.264185 1.041187 38.000000
10.584594 -29.207766 1.043067 34.000000
11.865767 -29.251144 1.059845 7.000000
11.170485 -29.100111 1.046556 39.000000
-10.270126 -29.001934 1.033000 31.000000
11.231519 -28.986589 1.043738 16.000000
-10.283102 -28.751198 1.025215 32.000000
-10.293242 -28.496914 1.017295 31.000000
-10.308742 -28.261629 1.010047 29.000000
-10.315955 -28.007772 1.002128 35.000000
-10.481889 -27.916206 1.001188 26.000000
-10.391354 -27.941504 1.000920 39.000000
10.029637 -18.705193 1.081499 27.000000
-10.861506 -18.587240 1.096969 7.000000
-10.869187 -18.466957 1.091880 8.000000
-10.878260 -18.350248 1.086995 7.000000
10.516357 -18.214863 1.071728 11.000000
-10.879320 -18.156588 1.078547 8.000000
10.177228 -18.150446 1.060329 23.000000
11.300211 -18.098169 1.087198 42.000000
-10.893443 -17.987215 1.071524 8.000000
-10.893734 -17.860819 1.066028 8.000000
9.858208 -17.843388 1.038752 2.000000
9.925873 -17.833273 1.039973 55.000000
-10.901703 -17.748217 1.061347 8.000000
10.607363 -17.660557 1.049744 8.500000
-10.910339 -17.576180 1.054120 8.000000
10.189951 -17.522150 1.032848 55.000000
10.311803 -17.561964 1.037734 33.333332
11.086455 -17.150171 1.040584 38.000000
9.851220 -17.062811 1.003943 21.000000
11.198345 -17.086796 1.040991 27.333334
-10.929918 -16.946915 1.027556 9.000000
10.737324 -16.958521 1.022772 30.750000
-10.941762 -16.848839 1.023688 8.000000
10.278565 -16.871996 1.006691 24.500000
-10.944265 -16.680204 1.016564 8.500000
-10.949983 -16.518549 1.009847 8.000000
-10.954279 -16.357246 1.003129 8.500000
8.537901 -13.212751 1.075760 24.000000
8.579368 -13.185864 1.075760 4.000000
8.618101 -13.065074 1.070302 29.000000
9.236942 -13.045609 1.093089 23.500000
9.336536 -13.055576 1.097592 22.000000
8.974136 -12.845019 1.071530 14.500000
9.554514 -12.785799 1.091497 25.000000
9.625646 -12.769024 1.093498 10.000000
9.225088 -12.646169 1.070438 3.000000
9.773535 -12.550137 1.087767 6.000000
8.329536 -12.456633 1.024728 9.000000
8.541940 -12.433245 1.031551 17.000000
9.641260 -12.460841 1.077397 26.000000
8.389761 -12.377660 1.022545 32.000000
8.473398 -12.305942 1.021726 22.333334
-11.136332 -11.572418 1.098274 10.500000
-11.141979 -11.433626 1.091724 10.500000
9.722992 -11.376097 1.023364 38.000000
11.367491 -11.359554 1.098956 7.500000
-11.144806 -11.258336 1.083310 10.333333
9.738111 -11.249922 1.017496 24.000000
10.093836 -11.226110 1.032369 45.500000
10.362655 -11.202411 1.043558 47.000000
-11.153242 -11.091183 1.075623 11.000000
10.381482 -11.152272 1.041921 0.000000
-11.158653 -10.957968 1.069483 11.000000
9.948167 -10.959761 1.012175 69.000000
-11.162827 -10.825129 1.063343 11.000000
-11.149893 -10.677523 1.055702 11.500000
-11.071308 -10.502606 1.043558 16.000000
-11.583624 -10.448262 1.066754 2.000000
-11.325765 -10.443750 1.053519 7.000000
-11.169124 -10.462764 1.046560 9.000000
-11.400045 -10.347809 1.052837 3.000000
-11.361586 -10.378189 1.052291 5.000000
-11.443731 -10.224729 1.049425 0.000000
-11.459524 -10.094127 1.044308 0.000000
-11.474170 -9.963800 1.039192 0.000000
-11.474327 -9.775870 1.030823 0.000000
-11.496830 -9.609486 1.024660 0.000000
-11.494150 -9.454884 1.017769 0.000000
-11.499098 -9.338478 1.012994 0.000000
-11.468395 -9.224125 1.006444 0.000000
8.552867 -8.959452 1.063633 2.000000
8.670771 -8.941305 1.069536 26.000000
8.798820 -8.931891 1.076637 1.000000
9.003946 -8.941305 1.089642 28.000000
8.381281 -8.219076 1.008021 86.000000
8.645036 -8.189507 1.022566 42.000000
8.749072 -8.236062 1.031806 3.000000
8.429479 -8.086405 1.003059 50.000000
8.687406 -8.058796 1.017547 18.666668
8.744448 -7.988977 1.017090 6.250000
8.978421 -7.590042 1.009561 17.000000
9.053829 -7.580864 1.014010 12.000000
8.979001 -7.446570 1.001690 4.000000
9.218546 -7.368480 1.013411 34.750000
9.219649 -7.262968 1.007850 18.000000
-11.315118 -5.882834 1.095117 14.333333
-11.327548 -5.731910 1.090155 40.250000
-11.341410 -5.561081 1.084680 61.250000
-11.348551 -5.410596 1.079603 22.000000
-11.354280 -5.260918 1.074584 12.000000
-11.365450 -5.115028 1.070249 15.000000
-11.445427 -5.000280 1.072531 6.000000
-11.363400 -5.028451 1.067055 15.000000
-11.561222 -4.943250 1.079717 9.000000
-11.577808 -4.821814 1.076980 0.750000
-11.589563 -4.677795 1.073215 1.000000
-11.605578 -4.515540 1.069365 1.000000
-11.624393 -4.397135 1.067226 1.000000
-11.617296 -4.207701 1.061009 3.333333
8.873060 -4.129143 1.012059 21.750000
-11.636623 -4.050059 1.058043 1.000000
9.060030 -4.082671 1.027643 30.125000
9.187080 -4.006107 1.036437 14.500000
-11.641941 -3.908969 1.054564 1.000000
-11.646015 -3.768327 1.051107 1.400000
-11.603445 -3.654109 1.044639 8.000000
9.001038 -3.658603 1.004756 8.000000
9.055119 -3.630959 1.008870 6.000000
-11.443533 -3.544554 1.028726 12.000000
-11.415950 -3.457570 1.024277 17.333334
8.033731 -3.408504 1.056844 26.666666
8.122423 -3.406014 1.066623 51.000000
-11.419757 -3.322100 1.021283 18.000000
8.074413 -3.356095 1.058928 59.000000
-11.426641 -3.207586 1.019144 17.000000
9.382937 -3.192386 1.024917 57.000000
9.420636 -3.282477 1.031637 33.333332
9.773978 -3.256989 1.065376 11.000000
-11.605285 -3.159565 1.032833 8.000000
8.247370 -3.133879 1.068450 15.800000
9.244931 -3.177871 1.010928 60.000000
-11.632892 -3.043154 1.032547 6.333333
9.642900 -2.957361 1.043020 29.666666
-11.641702 -2.874032 1.029704 3.000000
9.612143 -2.887449 1.037877 49.000000
9.628189 -2.826428 1.037672 60.500000
-11.642158 -2.710537 1.026467 3.000000
9.678270 -2.775190 1.041169 17.500000
10.113222 -2.592852 1.079639 22.500000
-11.654059 -2.573638 1.024864 3.714286
8.361110 -2.511638 1.057245 4.000000
-11.650893 -2.414331 1.021735 4.000000
8.409043 -2.482892 1.061814 0.000000
8.458817 -2.439913 1.066142 0.000000
-11.664474 -2.278782 1.020581 6.000000
8.109218 -2.278480 1.020072 14.000000
-11.664743 -2.127020 1.018185 6.000000
8.283819 -1.999502 1.031998 10.000000
8.352057 -2.071567 1.042097 18.000000
-11.667070 -1.964985 1.015978 6.500000
-11.642410 -1.802738 1.011664 12.857142
10.248096 -1.812580 1.076211 26.000000
8.853235 -1.757806 1.093072 9.000000
8.933831 -1.638335 1.099965 19.333334
10.507524 -1.643555 1.099800 4.000000
9.825243 -1.331943 1.025328 24.500000
-8.640030 -1.232741 1.056925 17.166666
8.889843 -1.219359 1.086660 11.666667
9.738874 0.248183 1.007430 47.000000
-11.738372 0.494034 1.008877 19.000000
-11.738728 0.583831 1.009268 17.571428
-11.747640 0.734997 1.010759 18.500000
8.933748 0.776848 1.085979 25.000000
9.732890 0.743801 1.009419 14.333333
-11.757545 0.890269 1.012527 14.666667
8.794424 1.001980 1.071913 8.000000
8.862720 0.925229 1.079126 63.000000
-11.764570 1.044598 1.014216 12.000000
-11.781975 1.184322 1.016834 10.000000
-11.780535 1.345162 1.018185 8.400000
8.942764 1.362078 1.095476 0.000000
10.461701 1.375451 1.091160 10.000000
-11.783978 1.481827 1.019877 7.571429
10.504645 1.414683 1.096097 10.000000
-11.788243 1.623212 1.021824 7.000000
-11.784781 1.794602 1.023641 9.142858
-11.762211 1.896607 1.023079 9.000000
-11.593019 1.962912 1.009675 19.666666
10.043125 1.984917 1.058656 8.500000
-11.595867 2.094805 1.011871 20.250000
8.801834 2.209420 1.099003 31.000000
-11.600540 2.227639 1.014352 17.333334
9.578202 2.287150 1.018334 0.000000
-11.803682 2.388645 1.034144 7.333333
8.535374 2.424947 1.074557 19.500000
-11.803310 2.536909 1.036711 2.333333
8.528559 2.568422 1.078645 6.000000
-11.821884 2.677296 1.040875 2.000000
-11.820070 2.843219 1.043955 1.750000
9.304066 2.849866 1.006264 32.000000
-11.814183 3.001332 1.046727 1.200000
8.363981 3.009548 1.076481 16.500000
9.313037 2.932828 1.009693 21.000000
9.287406 3.102116 1.012573 41.000000
-11.821462 3.143298 1.050400 1.000000
8.450960 3.151344 1.092270 79.333336
9.190730 3.296189 1.009693 59.000000
10.010106 3.273741 1.089103 3.000000
-11.838150 3.334245 1.056104 1.000000
-11.834788 3.413733 1.057701 1.333333
-11.841115 3.601705 1.062811 4.200000
9.229907 3.557800 1.022928 19.333334
-11.832414 3.656013 1.063462 10.000000
-11.795981 3.726052 1.062264 4.000000
-11.647141 3.759687 1.050970 13.333333
9.255590 3.803498 1.034791 47.000000
9.361900 3.795764 1.044666 65.000000
-11.638120 3.898619 1.053965 17.000000
9.333057 3.886888 1.045489 54.000000
9.730643 3.891926 1.083754 46.000000
9.841398 3.882583 1.094040 35.000000
9.452853 3.971673 1.060301 65.000000
-11.639448 4.041935 1.058043 15.666667
8.863957 4.056365 1.008047 27.000000
8.949120 4.061384 1.016276 59.000000
-11.646135 4.188344 1.062777 15.750000
8.847059 4.200869 1.012779 19.000000
8.946555 4.162139 1.020391 17.000000
9.739704 4.146298 1.094657 41.500000
9.083604 4.226108 1.036026 12.000000
9.554600 4.228032 1.080462 27.000000
-11.654828 4.336743 1.067854 15.333333
-11.659088 4.484917 1.072702 15.250000
-11.668989 4.636623 1.078234 15.000000
-11.677484 4.789360 1.083824 15.000000
-11.680035 4.897844 1.087588 15.000000
9.296943 4.883096 1.085948 10.666667
-11.684316 4.964523 1.090155 15.000000
-11.688189 5.074934 1.094205 15.000000
9.287943 5.015689 1.091571 0.000000
9.074860 5.454939 1.094931 14.833333
10.581276 5.480036 1.023250 24.000000
10.636744 5.424419 1.025304 7.000000
10.685928 5.598347 1.035913 10.000000
8.702703 5.714430 1.076622 28.333334
8.804388 5.728566 1.086223 23.000000
10.562347 6.095716 1.047206 12.000000
10.532885 6.256456 1.051997 0.000000
10.493366 6.322513 1.051997 2.000000
10.715357 6.502238 1.076295 17.000000
9.535334 7.353858 1.034030 23.500000
9.919902 7.576111 1.071846 2.000000
9.476782 7.646835 1.045666 5.500000
10.073824 7.643677 1.085877 1.000000
9.170280 7.862658 1.037282 0.000000
-12.011678 8.407542 1.002623 7.000000
9.390986 8.488400 1.087018 28.000000
9.471363 8.444548 1.089642 12.166667
-12.018207 8.525208 1.007627 7.000000
-12.022459 8.699706 1.014813 7.333333
8.417475 8.774595 1.044126 39.000000
9.189488 8.790910 1.092037 28.000000
9.220475 8.746846 1.091353 17.000000
-12.025605 8.846655 1.020908 7.500000
8.531744 8.871388 1.056925 58.000000
8.778408 8.839952 1.069793 45.000000
8.907466 8.885727 1.080402 69.000000
-12.029203 8.995821 1.027184 7.666667
9.106359 8.970875 1.097684 34.000000
-12.024967 9.140692 1.032915 8.500000
-11.897768 9.162460 1.026911 7.500000
-11.849426 9.274567 1.029004 11.333333
-11.856963 9.431492 1.036053 11.000000
8.468056 9.461062 1.090326 7.000000
-11.861605 9.588319 1.043012 11.666667
-11.864628 9.745752 1.049971 11.500000
8.247477 9.787263 1.099053 4.500000
8.333192 9.732721 1.100251 16.666666
-11.869110 9.874990 1.055838 11.500000
-11.873416 10.037481 1.063207 11.000000
-11.880551 10.204514 1.070984 12.000000
-11.883945 10.337891 1.077124 11.000000
-11.890619 10.475669 1.083674 11.500000
-11.894542 10.612608 1.090087 11.000000
-11.898688 10.751346 1.096637 11.000000
8.214581 13.462927 1.078489 19.000000
-12.078882 15.504839 1.001501 10.000000
-12.086353 15.615366 1.006183 10.000000
-12.090807 15.722932 1.010661 10.000000
-12.093960 15.881457 1.017175 10.500000
-12.096025 16.040316 1.023688 10.000000
-12.103062 16.154964 1.028574 10.000000
-12.110024 16.324139 1.035698 10.000000
-12.113447 16.490467 1.042619 10.000000
-12.111035 16.596205 1.046894 12.000000
-12.121519 16.776163 1.054629 9.500000
-12.130736 16.956533 1.062364 10.000000
-12.132948 17.072708 1.067250 10.000000
-12.139150 17.195597 1.072542 9.000000
-12.151728 17.386883 1.080888 9.500000
-12.158390 17.572046 1.088827 9.000000
-12.159697 17.692459 1.093916 9.000000
-12.167115 17.822958 1.099615 9.000000
8.173028 17.900946 1.002722 40.000000
8.337812 18.111048 1.015953 42.000000
8.463598 18.158413 1.020839 42.500000
8.683390 18.180595 1.026640 64.000000
8.816666 18.165195 1.028879 53.000000
8.600184 18.226755 1.026945 41.000000
8.971718 18.265116 1.036920 40.000000
9.060960 18.301281 1.040584 7.000000
-9.732191 30.716961 1.081858 1.000000
-10.055943 -34.079311 1.192997 40.000000
-10.072626 -33.744923 1.182393 35.000000
-10.083841 -33.399288 1.171386 43.000000
-10.099991 -33.076862 1.161185 42.000000
-10.110669 -32.743210 1.150581 26.000000
-10.127698 -32.436523 1.140917 35.000000
-10.138087 -32.114811 1.130716 34.000000
-10.151418 -31.808592 1.121052 35.000000
-10.165381 -31.510216 1.111656 32.000000
-10.173844 -31.200668 1.101857 38.000000
8.448190 -21.403154 1.172489 11.000000
8.444427 -21.198368 1.162718 30.000000
8.173544 -21.094488 1.152744 5.000000
8.737587 -21.157045 1.166382 11.000000
9.480260 -21.143841 1.180733 8.000000
8.216495 -21.009180 1.149487 20.000000
