# This PCD file was generated using the MATLAB® pcwrite function
# from Computer Vision Toolbox®.
# .PCD v.7 - Point Cloud Data file format
VERSION .7
FIELDS x y z intensity
SIZE 4 4 4 4
TYPE F F F F
COUNT 1 1 1 1
WIDTH 1233
HEIGHT 1
VIEWPOINT 0 0 0 1 0 0 0
POINTS 1233
DATA ascii
11.954442 8.891109 2.602856 33.000000
12.093706 8.877151 2.620984 3.000000
10.237471 8.997005 2.627261 2.000000
10.637712 9.056604 2.693132 0.000000
11.813313 9.077784 2.602856 25.000000
9.986433 9.144482 2.610226 6.000000
12.298660 9.207271 2.684088 9.000000
9.814136 9.303506 2.606819 21.000000
10.074478 9.312753 2.644675 30.000000
9.640668 9.550234 2.615904 15.000000
10.183528 9.593116 2.696918 9.000000
9.445425 9.670700 2.605872 2.250000
-11.258684 10.502504 2.689939 9.000000
-11.109406 10.494568 2.669975 8.000000
-10.993366 10.516551 2.657928 9.000000
-10.958460 10.649218 2.669631 8.333333
-10.860487 10.687483 2.662059 11.000000
-10.938847 10.832456 2.689595 7.000000
10.645046 10.885557 2.659994 7.000000
10.198991 11.153713 2.640489 14.000000
10.201517 11.286320 2.657928 14.500000
10.152804 11.556695 2.687530 25.000000
10.236039 11.577879 2.699921 24.000000
9.459604 11.811714 2.643816 11.500000
9.088652 12.109322 2.645193 7.000000
9.158704 12.083654 2.648979 2.000000
8.946753 12.197350 2.642783 11.800000
8.868721 12.312572 2.651044 12.000000
-10.796688 12.636887 2.605168 11.000000
-10.780771 12.779992 2.620653 11.000000
-10.768614 12.888262 2.632422 11.000000
-10.765938 12.967635 2.641713 11.000000
-10.756119 13.080805 2.654410 11.000000
-10.735983 13.224831 2.669895 11.000000
-10.721872 13.378370 2.687238 10.500000
12.063889 14.634666 2.633444 14.000000
11.955321 14.784685 2.640045 18.000000
11.211337 15.184484 2.620791 10.000000
-10.494085 15.593324 2.609788 5.000000
-10.481365 15.787684 2.631243 8.000000
-10.473157 15.883377 2.641695 11.000000
10.227179 15.845170 2.618590 13.000000
-10.466621 15.982491 2.652698 11.000000
10.252183 15.993965 2.637845 19.000000
10.923396 16.025114 2.692857 26.000000
-10.455238 16.075079 2.662600 11.000000
10.818071 16.086857 2.691757 3.000000
-10.437222 16.214123 2.677454 10.000000
10.299795 16.217350 2.667551 13.333333
-10.420356 16.356684 2.692857 11.000000
12.265924 18.123507 2.650206 3.000000
12.360812 18.140669 2.658381 2.000000
11.905153 18.579826 2.672328 18.000000
11.645279 18.818560 2.680022 7.000000
-10.176291 18.915401 2.601155 8.000000
-10.157987 19.096357 2.619429 8.000000
9.774668 19.126064 2.601155 26.000000
10.752170 19.074244 2.651649 5.000000
11.331047 19.106438 2.690120 2.000000
-10.144293 19.215963 2.631451 8.000000
10.729036 19.173769 2.660786 1.000000
11.136518 19.188339 2.686754 2.000000
-10.135468 19.346233 2.644917 8.000000
-10.120437 19.466059 2.656939 8.000000
-10.100204 19.653055 2.675934 8.500000
-10.078608 19.840263 2.694929 8.000000
11.937161 22.650423 2.647667 1.000000
12.045583 22.683090 2.655896 6.000000
11.735911 22.786680 2.650548 1.000000
11.162267 22.896179 2.634089 14.000000
10.545052 22.990047 2.615574 10.000000
10.690184 23.019506 2.624626 10.000000
12.052185 23.043907 2.689224 8.000000
10.843431 23.158768 2.644376 4.000000
11.551723 23.138824 2.674412 5.000000
-9.763506 23.237806 2.606523 1.000000
10.020977 23.279631 2.620923 10.000000
-9.751635 23.415285 2.622980 1.000000
9.902412 23.408094 2.628329 19.000000
10.173294 23.430515 2.641496 27.000000
-9.732683 23.578205 2.637793 0.000000
9.736525 24.171715 2.694778 14.500000
13.065353 27.453712 2.610828 3.000000
13.199805 27.513140 2.620410 4.000000
12.811069 27.586473 2.611855 3.000000
12.327529 27.675083 2.601588 8.000000
12.650732 27.695425 2.614593 4.000000
12.729752 28.101685 2.649157 11.000000
11.314281 36.618397 2.620903 9.000000
6.345307 -30.829952 2.702887 7.000000
13.437979 -18.584339 2.777323 21.333334
13.665532 -18.307104 2.766583 15.000000
13.487106 -18.246756 2.747828 13.000000
14.102787 -17.876465 2.757446 11.000000
14.537966 -17.617161 2.766102 8.000000
14.413108 -17.354506 2.731958 51.000000
14.825853 -17.181982 2.748309 56.000000
15.350094 -17.234627 2.794955 5.000000
15.101126 -17.062712 2.759369 25.000000
15.377048 -16.728275 2.751675 36.000000
15.074140 -16.606976 2.716089 4.000000
15.670486 -16.623299 2.766583 11.000000
15.678902 -16.527895 2.758888 9.000000
13.364845 -14.916301 2.780877 9.000000
-15.129695 -8.728091 2.737719 0.000000
-15.115890 -8.656954 2.730286 4.000000
-15.112540 -8.529470 2.719963 15.333333
-15.103648 -8.368675 2.706439 15.000000
-14.848522 -5.667166 2.776678 1.000000
-14.825460 -5.525383 2.764172 15.000000
-14.825413 -5.419460 2.757747 25.000000
-14.809019 -5.360790 2.751551 22.000000
-14.805209 -5.254488 2.744667 15.333333
-14.773342 -5.086953 2.729752 11.666667
-14.730941 -4.917510 2.713230 10.666667
-14.722931 -4.786620 2.704740 3.500000
9.610559 -4.140949 2.796771 1.000000
9.623520 -4.110736 2.796771 1.000000
9.925628 -3.036463 2.774050 34.000000
9.997530 -2.070377 2.728607 11.500000
10.199490 -1.796610 2.767853 5.000000
10.254654 -1.839560 2.784377 5.000000
-14.448137 -1.526207 2.800646 15.000000
-14.441473 -1.456737 2.797996 13.000000
-14.424410 -1.340675 2.792569 11.333333
-14.402482 -1.201846 2.786008 7.000000
-14.394892 -1.064685 2.782474 2.000000
10.182427 -0.994823 2.734287 4.000000
10.195188 -0.904722 2.735492 2.666667
10.275764 -0.792482 2.754427 39.000000
10.299967 6.026051 2.740973 28.000000
10.487306 6.047548 2.780671 16.666666
9.972650 6.439259 2.726646 22.000000
10.031492 6.680071 2.768284 6.500000
10.126350 6.674562 2.785745 4.000000
11.153098 6.810553 2.758169 0.000000
11.303690 6.773218 2.781298 16.666666
11.311652 6.858678 2.792037 6.000000
10.870790 7.067669 2.736691 0.000000
9.803640 8.293521 2.710258 62.000000
9.714201 8.376082 2.707229 5.333333
10.150686 8.478206 2.791417 31.250000
9.639634 8.707045 2.741648 2.000000
11.056798 8.716482 2.714080 6.333333
11.279802 8.777925 2.755217 2.000000
11.344610 8.771275 2.764303 18.000000
9.543622 9.047067 2.775516 9.000000
10.585192 9.185337 2.701650 35.250000
10.548824 9.418490 2.726068 1.500000
10.680841 9.627204 2.771874 1.000000
10.705318 9.730852 2.788784 6.000000
10.017703 9.861567 2.709789 15.000000
10.124531 9.873171 2.726068 6.000000
-12.318242 10.219545 2.796298 13.000000
-12.183889 10.205305 2.776678 12.500000
-12.012852 10.191173 2.752240 10.500000
-11.876835 10.204844 2.735718 8.000000
-11.735220 10.211989 2.717820 8.500000
-11.581767 10.239495 2.700839 6.000000
-11.527884 10.354300 2.707150 4.000000
-11.480448 10.409833 2.707494 5.000000
-11.410926 10.478152 2.706576 8.000000
-10.937274 10.967934 2.706117 7.000000
-10.878437 11.116519 2.717360 7.333333
-10.813164 11.224792 2.722982 3.500000
10.708405 11.158822 2.701986 9.000000
-10.743792 11.293928 2.723327 3.000000
-10.626753 11.383810 2.720745 8.000000
-10.553371 11.557538 2.734341 12.000000
-7.828903 11.637473 2.703732 31.000000
-10.530817 11.716249 2.752240 9.500000
-7.819685 11.649902 2.704742 26.666666
-7.748421 11.702188 2.705499 17.333334
-10.495876 11.863511 2.767385 8.333333
10.370396 11.879434 2.754993 84.000000
-10.458049 12.009479 2.782186 12.000000
-10.448988 12.113820 2.794921 13.000000
9.873170 12.209769 2.743290 4.000000
9.571119 12.303501 2.723327 20.000000
9.670452 12.350934 2.740537 3.000000
9.813976 12.373282 2.759124 3.000000
9.669177 12.490236 2.759640 9.500000
-10.706255 13.532249 2.704581 7.500000
-10.692775 13.691126 2.722853 5.000000
-10.672896 13.844103 2.739886 5.000000
11.277251 13.856878 2.800277 39.000000
-10.641950 13.984783 2.754442 5.500000
10.867912 13.970506 2.774263 1.000000
-10.571223 14.120637 2.764766 6.000000
10.543478 14.093758 2.758778 48.000000
-10.437415 14.195717 2.761720 5.250000
-10.292927 14.255814 2.755991 13.500000
9.991316 14.269077 2.730286 4.000000
10.118470 14.278055 2.742921 34.599998
-10.270784 14.415156 2.774263 10.500000
-10.248202 14.576382 2.792845 8.000000
11.273026 16.207682 2.741268 18.000000
-10.407540 16.507843 2.709636 10.000000
-10.393667 16.659212 2.726414 9.000000
-10.376379 16.807470 2.742643 8.000000
-10.360125 16.959290 2.759422 6.000000
-10.343555 17.113049 2.776476 5.000000
-10.319806 17.256798 2.791879 5.000000
-10.018300 17.492941 2.799031 8.000000
12.700210 18.389393 2.706471 12.000000
12.437847 18.565430 2.706231 14.000000
11.946924 19.037647 2.721859 18.000000
12.080076 19.049870 2.731718 5.500000
-10.068056 19.974667 2.708875 7.000000
-10.053214 20.102087 2.721859 7.000000
-10.042967 20.240284 2.736286 7.000000
-10.030186 20.375057 2.750232 7.000000
-10.013181 20.502806 2.763216 7.000000
-9.997482 20.717861 2.785819 6.000000
12.766578 22.984190 2.718848 4.000000
12.849454 23.655903 2.783857 21.000000
10.785453 24.213148 2.741066 4.000000
10.905885 24.210032 2.745866 31.666666
11.429073 24.211195 2.768633 46.000000
11.525598 24.218285 2.773570 2.000000
9.648276 24.282049 2.701978 2.000000
11.750294 24.295828 2.790851 29.000000
11.387292 39.017326 2.779456 32.000000
15.371304 -17.533794 2.823809 37.000000
15.740765 -17.561861 2.856029 10.000000
12.549021 -16.653111 2.895303 14.000000
12.713661 -16.437693 2.885400 4.000000
12.770107 -16.403921 2.886501 11.000000
13.178326 -15.975223 2.875498 1.000000
13.213264 -15.915451 2.872197 0.000000
12.881020 -15.765606 2.826812 4.500000
12.735579 -15.738365 2.811134 1.000000
13.255179 -15.663193 2.849092 22.000000
13.389270 -15.522572 2.846342 5.000000
13.383428 -15.417600 2.834789 20.000000
13.996234 -15.231460 2.872197 8.000000
14.082678 -15.181272 2.875223 12.000000
13.674936 -15.023266 2.820761 16.000000
9.681228 -4.063651 2.806066 2.000000
11.074648 -3.483322 2.882321 15.000000
10.026542 -3.415266 2.830853 18.000000
-14.514483 -2.228816 2.830742 1.500000
-14.495630 -2.086296 2.823107 15.000000
-14.484805 -1.945578 2.817302 26.000000
10.362316 -1.943004 2.817684 7.000000
-14.472617 -1.805250 2.811498 22.666666
-14.460004 -1.642433 2.805378 16.000000
9.854578 6.210597 2.891960 28.500000
10.563951 6.314884 2.826936 22.000000
10.482356 6.367124 2.817086 14.750000
10.914040 7.903351 2.844078 15.000000
10.963889 7.860919 2.847382 15.000000
10.624737 8.016476 2.809177 18.500000
10.749327 7.939561 2.820535 7.750000
9.302551 8.123715 2.836786 7.000000
9.396659 8.112799 2.851471 26.400000
9.597261 8.067341 2.879768 104.000000
8.792767 8.536866 2.814937 12.800000
8.960230 8.494011 2.835891 45.333336
9.332584 8.465239 2.894095 0.000000
9.263425 8.563010 2.897577 33.111111
12.121489 8.576176 2.862352 1.500000
12.188025 8.709690 2.887716 4.000000
12.144642 8.788713 2.889836 21.799999
8.990285 8.850163 2.897676 3.000000
9.862867 9.261873 2.855642 22.500000
11.284710 9.305705 2.819574 0.000000
11.702638 9.345438 2.886959 0.000000
9.422754 9.511983 2.825905 1.000000
11.642150 9.490397 2.895439 13.400000
9.401119 9.610168 2.837469 50.000000
10.980942 9.650389 2.818060 2.000000
10.731370 9.857635 2.808974 1.000000
-11.010452 10.082105 2.877873 15.500000
-10.856180 10.066948 2.854024 17.500000
-10.666571 10.079735 2.829038 15.500000
-12.494999 10.234325 2.821769 12.000000
-12.408059 10.228414 2.809377 13.000000
-10.609279 10.216715 2.839260 14.000000
-12.975275 10.291455 2.893363 12.000000
-12.878214 10.280541 2.878906 13.000000
-12.775200 10.264189 2.863073 12.000000
-12.636442 10.250984 2.842765 13.000000
-10.597905 10.367493 2.857936 14.333333
-10.586792 10.520526 2.877116 15.000000
-10.571042 10.671262 2.895540 15.333333
-10.441654 12.182487 2.803182 13.000000
11.253602 12.163060 2.895015 17.000000
-10.431263 12.287137 2.815917 13.500000
-10.414792 12.464959 2.837831 14.000000
-10.395894 12.642733 2.859631 14.000000
-10.383300 12.790405 2.878218 14.000000
-10.369274 12.938399 2.896805 14.000000
11.541666 13.823277 2.822576 4.000000
11.348273 13.855010 2.807091 16.000000
11.497820 13.903353 2.827840 14.500000
11.214086 14.092824 2.822885 20.000000
10.780251 14.316270 2.808949 8.000000
10.839496 14.301229 2.812665 0.000000
11.063212 14.314124 2.835583 29.000000
11.469652 14.275572 2.870269 7.000000
10.736389 14.541220 2.833105 10.000000
-10.203725 14.708664 2.805852 8.500000
10.541280 14.658943 2.830008 5.000000
10.726266 14.720174 2.854784 16.000000
10.712410 14.798614 2.863456 28.000000
-10.172468 14.862177 2.822885 13.000000
-10.156430 15.023639 2.842396 12.333333
9.922722 15.008757 2.820098 20.500000
10.050391 14.979119 2.827324 14.666667
10.120435 14.947820 2.829389 0.000000
9.582945 15.211601 2.817930 1.500000
9.964458 15.227289 2.852306 19.000000
-10.125647 15.321486 2.878527 13.666667
-10.108855 15.489315 2.899071 13.500000
9.867672 15.447481 2.873056 8.500000
9.982166 15.465567 2.885134 23.000000
11.350566 16.764717 2.811134 5.000000
11.636433 16.842800 2.842491 5.000000
11.864743 16.944611 2.872197 14.000000
11.858960 17.050104 2.883750 13.000000
-10.265387 17.413439 2.806733 6.333333
10.734152 17.420824 2.841207 38.666668
-10.134404 17.503777 2.808383 5.500000
-9.961087 17.584774 2.806182 14.500000
11.066442 17.689411 2.897228 28.500000
-9.940136 17.742125 2.823786 13.000000
10.266951 17.811584 2.854593 25.000000
10.627690 17.828176 2.881916 35.666668
-9.924789 17.845976 2.835339 7.000000
10.197582 17.885574 2.858719 29.500000
-9.895899 17.993223 2.851293 7.000000
10.528669 18.003229 2.895853 0.000000
10.186205 18.062853 2.879349 35.000000
-9.844913 18.170013 2.869447 11.000000
9.976314 18.290237 2.892827 20.000000
-9.824742 18.338427 2.888701 14.000000
9.913526 18.380663 2.899704 2.000000
-9.975020 20.922451 2.806978 5.000000
-9.958467 21.057791 2.820924 3.000000
-9.946231 21.204016 2.836312 2.000000
-9.929813 21.343172 2.850739 3.000000
-9.907639 21.471615 2.863723 3.000000
-9.868230 21.564016 2.871898 4.000000
-9.791012 21.664536 2.879112 3.500000
-9.637753 21.687529 2.874063 2.500000
-9.558614 21.785450 2.881035 3.000000
-9.539226 21.928257 2.895943 3.000000
13.212993 23.964943 2.829939 3.000000
12.997287 24.475246 2.865735 2.000000
12.302807 25.035686 2.884661 6.000000
10.475286 25.656103 2.865735 1.000000
10.642222 25.832762 2.889187 30.000000
10.758448 25.883701 2.898651 30.000000
11.868631 31.293741 2.873999 8.000000
12.313492 31.275623 2.886319 2.000000
12.033857 31.431227 2.890083 4.000000
11.611758 31.508917 2.883581 2.000000
11.735706 31.539513 2.889741 11.000000
11.216217 31.814566 2.896757 7.000000
11.376050 31.789558 2.899323 8.000000
10.183619 31.890280 2.874683 21.000000
11.354245 39.363487 2.801560 7.000000
13.808518 -32.016872 2.994119 4.000000
7.438437 -28.014727 2.997398 1.000000
7.769423 -27.511530 2.956253 1.000000
12.337160 -17.143707 2.932711 10.000000
12.788694 -17.082565 2.962968 23.000000
12.325877 -17.015024 2.917308 10.000000
12.716202 -16.765121 2.921709 48.000000
13.157771 -16.364964 2.915657 4.000000
14.030385 -16.009884 2.955816 10.500000
14.232125 -15.985021 2.971770 28.000000
14.393730 -15.370715 2.923909 16.000000
15.085708 -15.415781 2.994875 0.000000
-15.160618 -7.341990 2.942928 35.000000
10.310956 -3.877679 2.944114 13.000000
10.330105 -3.774141 2.939294 9.666667
11.163272 -3.453475 2.901116 29.000000
10.008523 6.140406 2.915252 8.000000
10.196814 6.292746 2.974849 10.500000
9.832237 6.414439 2.914609 22.000000
11.154432 6.339175 2.946926 15.000000
10.160501 6.492900 2.993643 17.500000
11.086607 6.580128 2.961254 5.000000
8.962360 7.951419 2.974608 28.000000
8.899532 8.072433 2.983041 32.000000
9.431479 8.420794 2.904169 18.000000
10.917768 8.662628 2.941551 40.000000
11.060036 8.690839 2.968811 8.000000
9.075990 8.990851 2.934390 16.000000
10.574599 9.060327 2.939073 7.000000
10.510138 9.295314 2.961376 6.000000
10.633187 9.285730 2.979549 6.000000
10.140432 9.403273 2.918835 5.500000
10.163654 9.695645 2.964680 17.000000
10.276435 9.741752 2.988636 0.000000
9.905741 9.936909 2.961376 24.000000
10.011496 9.917604 2.974318 30.666666
10.125090 9.873724 2.984919 12.500000
-11.532644 10.135241 2.959644 13.000000
-11.447786 10.124588 2.946016 13.000000
-11.328186 10.114283 2.927466 13.000000
-11.168277 10.098326 2.902480 14.000000
-11.738159 10.153505 2.991822 13.000000
-11.614719 10.142881 2.972515 13.000000
-13.225023 10.321285 2.930881 3.000000
-13.075631 10.304294 2.908508 9.000000
-10.560080 10.828938 2.915730 15.500000
-10.543606 10.948818 2.930116 16.000000
-10.538019 11.046687 2.942987 16.000000
-10.531664 11.144767 2.955858 15.500000
-10.519039 11.272464 2.972137 15.500000
-10.510559 11.406204 2.989929 16.000000
10.059731 11.350401 2.923680 10.333333
-7.966303 11.526279 2.957246 1.000000
-7.826140 11.476865 2.931914 23.666666
-7.676414 11.527767 2.923172 31.250000
-7.609823 11.624597 2.932465 26.000000
9.963005 11.591249 2.946394 19.000000
10.132546 11.602887 2.969487 47.000000
-7.596729 11.684542 2.941551 20.000000
10.103767 11.643561 2.971758 4.000000
-7.587585 11.751092 2.952290 0.000000
11.388494 12.170010 2.911950 10.000000
11.144414 12.446850 2.918833 11.000000
-10.351341 13.083641 2.914703 14.000000
-10.339258 13.238483 2.934667 14.000000
-10.319630 13.385882 2.952909 14.000000
-10.305708 13.542963 2.973217 14.000000
-10.287858 13.697237 2.992837 14.000000
10.591062 15.329710 2.920440 1.000000
10.697837 15.380710 2.936544 28.000000
-10.096917 15.631374 2.916723 13.000000
-10.082684 15.772018 2.934066 14.000000
-10.067467 15.912853 2.951409 15.000000
-10.054165 16.058939 2.969681 15.500000
-10.037761 16.201866 2.987334 16.000000
-10.028219 16.300640 2.999722 15.000000
11.773191 17.507154 2.929410 18.000000
11.828134 17.470081 2.929410 2.000000
10.629416 18.045166 2.907955 43.000000
10.178878 18.272831 2.904288 21.333334
10.984921 18.253101 2.958017 21.000000
10.672985 18.382277 2.951415 6.000000
-9.813579 18.456659 2.902454 14.000000
-9.796228 18.564486 2.914557 14.000000
10.264277 18.609056 2.950865 39.000000
-9.783683 18.754482 2.937112 14.500000
-9.762475 18.930651 2.957467 15.000000
-9.751680 19.056458 2.972320 15.000000
-9.738406 19.178846 2.986623 15.000000
9.707811 19.209862 2.988549 11.000000
9.800942 19.169218 2.989374 11.000000
9.618073 19.257193 2.988824 6.000000
-9.515899 22.063858 2.909889 2.000000
-9.487119 22.188578 2.922392 1.000000
-9.457662 22.313332 2.934896 1.000000
-9.442894 22.474728 2.952208 2.000000
-9.416508 22.610592 2.966154 1.000000
-9.412099 22.801565 2.987313 1.000000
13.316966 24.701298 2.901942 4.000000
12.985985 25.020432 2.915108 1.000000
12.686647 25.213627 2.918812 10.000000
12.731777 25.502544 2.947613 11.000000
12.621626 25.889635 2.978472 13.000000
11.005883 26.246054 2.943087 7.000000
12.238820 26.246254 2.994724 4.000000
10.006428 26.383713 2.917989 25.000000
9.969666 26.537931 2.931566 1.000000
12.261841 31.727829 2.920883 3.000000
12.602996 31.718264 2.930808 1.000000
12.790093 31.896759 2.950999 9.000000
11.588293 32.064751 2.927728 14.000000
11.109121 32.318192 2.934572 6.000000
10.947814 32.511997 2.945866 1.000000
11.911681 32.638428 2.983510 38.000000
2.671708 -35.952194 3.095760 12.000000
4.475224 -35.776501 3.096102 17.000000
4.586078 -35.750404 3.095076 2.000000
3.550241 -35.631790 3.074884 22.000000
3.663795 -35.636318 3.076253 26.000000
3.994158 -35.552677 3.072146 7.000000
4.330977 -35.529282 3.073515 11.000000
4.726565 -35.096836 3.041004 4.000000
4.842791 -35.125240 3.044769 2.000000
3.818869 -34.982670 3.021840 17.000000
5.046322 -34.975784 3.034502 10.000000
3.254846 -34.887550 3.008835 12.000000
3.365965 -34.893021 3.010204 12.000000
5.155588 -34.955814 3.034160 21.000000
5.252910 -34.856689 3.026973 5.000000
4.122087 -34.723503 3.002675 8.000000
12.994979 -33.555149 3.089942 10.000000
13.103168 -33.213333 3.065986 2.000000
13.428958 -32.824738 3.045453 2.000000
13.498554 -32.701344 3.037924 2.000000
15.064594 -32.647644 3.087547 16.000000
15.193985 -32.657970 3.093022 17.000000
15.144178 -32.285351 3.062222 6.000000
13.948780 -32.064693 3.002675 7.000000
14.216096 -32.125843 3.016706 5.000000
6.396314 -28.780573 3.048829 20.000000
6.600093 -28.840660 3.059527 11.000000
6.695167 -28.839161 3.061584 18.000000
6.786647 -28.821857 3.061995 2.000000
7.325736 -28.677254 3.060761 1.000000
7.221017 -28.642256 3.054589 8.000000
7.878696 -28.583946 3.066110 9.000000
8.667188 -28.616827 3.092031 13.000000
8.779189 -28.661739 3.099849 11.000000
6.987798 -28.470673 3.031548 14.000000
8.942465 -28.396425 3.078659 7.000000
9.304249 -28.449577 3.095323 9.000000
7.382676 -28.161116 3.010564 24.000000
7.628946 -28.021181 3.003158 1.000000
8.106832 -28.031672 3.017559 5.000000
8.399191 -28.049311 3.027845 8.000000
13.149647 -17.796701 3.072443 1.000000
13.342733 -17.363476 3.040535 74.000000
13.220798 -17.317131 3.025132 20.000000
13.802279 -17.056568 3.046587 56.000000
13.501954 -16.901503 3.003677 54.000000
14.131997 -16.488081 3.015230 61.000000
14.352484 -16.222528 3.007528 7.000000
15.259828 -16.193331 3.089496 4.000000
15.096603 -15.589450 3.013212 20.333334
15.617810 -15.563392 3.061440 2.000000
15.635662 -15.483585 3.055389 6.000000
-15.640171 -7.711189 3.046533 40.500000
-15.690873 -7.507691 3.038960 63.500000
-15.716331 -7.398917 3.034830 51.000000
-15.720680 -7.310640 3.028978 55.000000
-15.707698 -7.184992 3.017734 59.333332
-15.717876 -7.070485 3.011080 3.000000
9.794645 6.151319 3.091113 55.000000
10.565072 6.181152 3.038943 26.000000
10.600956 6.269426 3.057738 15.500000
9.399923 7.718405 3.019667 13.333333
10.868809 7.715498 3.061544 17.000000
9.344438 7.755148 3.014848 8.000000
10.496091 7.786579 3.001847 19.333334
10.849740 7.779117 3.066469 36.500000
9.183148 7.868130 3.002318 0.000000
9.111510 7.956882 3.003282 92.000000
9.329017 7.942423 3.041835 17.000000
9.518406 8.001056 3.087135 43.000000
9.309458 8.078336 3.060147 95.000000
9.028753 8.293644 3.043762 19.000000
9.172841 8.267964 3.065930 44.000000
9.090612 8.429800 3.077978 20.500000
8.764433 8.466671 3.025450 0.000000
8.696222 8.560656 3.029626 15.333333
8.790679 8.545577 3.043762 8.000000
10.092728 8.538078 3.036471 55.000000
10.256882 8.566963 3.069603 68.000000
10.226149 8.706212 3.084826 32.000000
8.708889 8.902545 3.091954 2.000000
9.200231 9.345895 3.012294 39.000000
9.381777 9.352350 3.042739 1.000000
9.256124 9.442041 3.037068 20.666666
9.314592 9.672529 3.084378 20.500000
10.627957 9.824383 3.054719 1.000000
10.745936 9.788405 3.067936 2.333333
10.709088 9.878729 3.075095 22.000000
-10.640907 10.087273 3.094645 14.333333
-12.350505 10.217147 3.089871 14.000000
-12.174675 10.201208 3.061857 14.000000
-12.042480 10.187501 3.040658 13.000000
-11.913727 10.175203 3.020215 13.000000
-10.494201 11.533020 3.005829 16.000000
-10.482721 11.703845 3.028796 15.000000
-10.468896 11.874680 3.051636 15.000000
-10.458549 12.014285 3.070565 14.500000
-10.443016 12.149761 3.088357 15.000000
11.394346 13.560017 3.094377 31.000000
11.329050 13.655602 3.099884 3.000000
-10.278505 13.819856 3.009015 14.000000
-10.265786 13.939538 3.024504 15.000000
10.316801 13.972936 3.034486 4.000000
10.442157 13.958320 3.045500 25.000000
-10.248665 14.100973 3.045500 14.500000
10.464067 14.079606 3.064775 1.000000
10.618690 14.101717 3.084051 7.000000
-10.233349 14.267553 3.067529 15.000000
-10.215207 14.432879 3.089214 15.500000
9.802520 14.676052 3.083362 14.000000
9.513096 14.738827 3.064775 7.000000
9.299972 15.022726 3.086804 13.000000
9.363797 15.020185 3.092311 49.000000
11.264685 15.769207 3.037505 1.000000
11.480293 15.754962 3.055467 1.000000
-10.016105 16.396135 3.011490 16.000000
-10.007579 16.498478 3.024498 15.000000
-9.992704 16.650499 3.043699 15.500000
-9.976731 16.802734 3.062900 15.000000
-9.961412 16.958614 3.082721 15.000000
12.090288 18.475899 3.065841 16.000000
12.071672 18.617239 3.080878 9.666667
12.224566 18.553619 3.085095 18.000000
11.496057 18.967300 3.079594 26.000000
10.768060 19.235628 3.060890 31.000000
11.202712 19.155792 3.081244 17.000000
11.369347 19.163395 3.093897 6.000000
-9.724450 19.301346 3.000926 14.000000
-9.715143 19.434570 3.016880 12.000000
-9.698054 19.553730 3.030633 12.000000
-9.687299 19.687195 3.046587 11.000000
-9.677547 19.824343 3.063090 12.000000
-9.665293 19.958057 3.079044 11.000000
-9.654019 20.095461 3.095548 11.000000
11.782325 22.356625 3.060409 3.000000
10.963097 22.577642 3.039490 9.500000
10.806794 22.707891 3.045501 1.000000
11.188598 22.708267 3.065699 26.666666
11.426668 22.709526 3.078683 22.000000
10.750658 22.774048 3.049829 24.000000
11.720192 22.756159 3.099842 2.000000
-9.394543 22.963335 3.004625 1.000000
10.425259 23.208084 3.081087 3.000000
10.569809 23.236401 3.091426 17.500000
12.892415 26.235516 3.022908 6.000000
12.951816 26.148533 3.017559 7.000000
12.800076 26.466440 3.040189 8.000000
12.759893 26.596205 3.050475 1.000000
11.804056 26.725470 3.021262 43.000000
11.227447 26.774424 3.002335 5.000000
11.442304 26.813137 3.014679 38.000000
11.723229 26.769711 3.022085 12.000000
12.400486 26.923449 3.065287 14.000000
11.199780 26.945503 3.017559 8.000000
11.424668 27.006519 3.032371 10.000000
12.876320 27.056505 3.098614 11.000000
12.321374 27.200165 3.087917 9.000000
12.493462 33.255939 3.050586 4.000000
12.009843 33.560646 3.060853 1.000000
12.177527 33.695164 3.076595 4.000000
3.018085 -36.016758 3.103631 10.000000
5.745254 -35.828751 3.115951 5.000000
13.249777 -33.896481 3.125191 15.000000
14.186949 -33.765911 3.145040 19.000000
14.311623 -33.765209 3.149147 29.000000
14.444264 -33.782372 3.154965 9.000000
12.950882 -33.755810 3.104658 9.000000
14.638710 -33.363731 3.128613 12.000000
14.720877 -33.266556 3.123822 32.000000
14.830187 -33.231060 3.124849 53.000000
14.838007 -32.969891 3.104658 21.000000
16.095015 -32.694984 3.129298 16.000000
16.247250 -32.744217 3.138880 14.000000
16.373734 -32.484901 3.123822 11.000000
6.742310 -29.893675 3.168972 13.000000
6.409949 -29.722528 3.144285 10.000000
5.988559 -29.566753 3.119598 5.000000
6.096658 -29.621840 3.127416 1.000000
6.250555 -29.660870 3.134616 36.500000
6.473510 -29.566208 3.129884 13.000000
7.647063 -29.547735 3.156217 11.000000
7.944833 -29.547354 3.164034 48.000000
8.245407 -29.551647 3.172675 21.000000
7.015418 -29.176369 3.103140 3.500000
7.246261 -29.128132 3.103963 13.000000
8.976311 -28.979879 3.137290 10.000000
8.276760 -28.959845 3.114661 40.000000
8.519962 -28.781359 3.103963 2.000000
9.579981 -28.832043 3.141816 4.000000
9.727022 -28.671452 3.130913 11.000000
9.155642 -28.602209 3.105609 28.000000
13.585001 -18.568283 3.194570 5.000000
13.927638 -18.242979 3.186868 13.000000
13.826258 -17.876186 3.137907 6.000000
14.388711 -17.667473 3.163763 4.000000
14.721360 -17.619047 3.187968 1.000000
14.426320 -17.488085 3.147810 21.000000
14.496377 -17.460968 3.151110 2.000000
14.825108 -17.407127 3.174766 21.000000
14.200521 -17.324955 3.110401 35.000000
14.595598 -17.357410 3.148910 18.000000
14.923834 -17.301636 3.172565 27.000000
15.055708 -17.234379 3.177516 34.000000
14.830121 -16.815559 3.113152 10.500000
15.685169 -16.384903 3.149460 12.500000
15.979099 -16.431671 3.182467 2.000000
16.112610 -16.362001 3.188519 6.000000
15.370600 -16.208563 3.101599 44.000000
-15.557684 -8.909971 3.132239 2.000000
-15.248726 -6.009712 3.159528 6.000000
9.905734 6.177775 3.120031 29.000000
9.938575 6.285335 3.142752 49.000000
10.098055 6.430692 3.199555 19.000000
9.839767 6.463559 3.146367 3.000000
9.781037 6.624750 3.157211 44.000000
9.833135 6.570315 3.160654 1.666667
9.881500 6.738175 3.196457 11.000000
10.435934 7.557133 3.198938 11.000000
9.023726 7.731537 3.175801 16.000000
8.956513 7.811602 3.176214 12.800000
9.034512 7.790131 3.188195 0.000000
8.910294 7.930413 3.187936 18.250000
11.010322 7.973073 3.122435 30.000000
10.949274 8.194085 3.141239 12.000000
12.201120 8.404413 3.126998 11.000000
11.016603 8.517670 3.198548 45.000000
9.373030 8.555753 3.150747 23.000000
12.261368 8.588692 3.159627 0.000000
9.180868 8.730656 3.145446 5.000000
10.493874 8.681292 3.128255 22.000000
12.254048 8.687332 3.170366 22.600000
8.729587 8.979966 3.109303 1.000000
10.421325 9.100715 3.177953 7.000000
11.436321 9.310629 3.112543 0.000000
11.400960 9.341551 3.110891 18.000000
11.312263 9.630895 3.135672 7.000000
9.715655 9.746225 3.160939 24.000000
11.318541 9.821729 3.162931 6.000000
11.417514 9.844907 3.181931 0.000000
-11.159195 10.090119 3.175322 14.500000
-11.007534 10.079428 3.150128 13.000000
-10.857894 10.068554 3.125346 16.000000
-10.743168 10.056795 3.105934 20.000000
-12.486594 10.231083 3.111828 14.000000
-10.611166 10.218533 3.109239 14.500000
-12.956517 10.280261 3.188299 13.000000
-12.815992 10.267469 3.165585 13.000000
-12.626187 10.246315 3.134542 13.500000
-10.595811 10.365426 3.128513 14.333333
-10.582605 10.516365 3.148889 15.000000
-10.570316 10.670541 3.170091 15.000000
-10.559567 10.828400 3.192256 15.000000
11.384083 12.084722 3.200413 13.000000
-10.431278 12.291500 3.107664 15.000000
10.623758 12.242798 3.124700 6.000000
10.840483 12.335121 3.165585 6.000000
-10.410303 12.463999 3.130504 15.000000
-10.394056 12.644980 3.155364 15.000000
-10.382454 12.793914 3.176185 15.000000
-10.363258 12.935528 3.195113 15.500000
11.279438 13.859565 3.121913 3.000000
11.082350 13.972425 3.115717 52.000000
11.342378 14.026682 3.151514 27.000000
11.364890 14.145181 3.170101 1.000000
-10.202536 14.559905 3.106080 16.000000
-10.191029 14.690390 3.123634 15.500000
-10.174189 14.864690 3.147039 15.000000
10.211334 14.913278 3.157710 9.666667
10.278205 14.876874 3.159087 19.000000
10.441143 14.861774 3.173199 38.000000
10.555549 14.875083 3.186623 2.000000
-10.154987 15.021515 3.167806 14.333333
9.768633 14.979298 3.124322 21.500000
9.300190 15.129074 3.102638 33.000000
-9.946983 17.118105 3.103161 14.000000
11.075153 17.099991 3.193283 4.500000
-9.929153 17.274437 3.122981 13.500000
10.791675 17.310600 3.197309 4.000000
-9.912164 17.434387 3.143421 15.000000
10.733078 17.337698 3.196070 9.000000
10.084517 17.495090 3.165100 19.000000
10.137444 17.459906 3.164481 0.000000
-9.902013 17.544598 3.157667 15.000000
-9.887527 17.713573 3.179656 14.500000
9.902483 17.689398 3.177488 1.000000
-9.868000 17.875854 3.200405 14.000000
9.747341 17.937435 3.199786 28.000000
9.897244 17.855137 3.199786 40.666668
9.537066 17.951727 3.186159 6.000000
-9.638568 20.225834 3.110951 10.000000
-9.622383 20.356314 3.126355 9.000000
-9.610528 20.497648 3.143409 9.000000
-9.594484 20.717087 3.170089 8.000000
-9.576780 20.936796 3.196770 7.000000
12.354315 22.915699 3.152740 15.000000
12.426246 22.876774 3.152740 2.000000
11.497165 23.029539 3.117154 26.000000
12.692445 23.020803 3.183518 0.000000
11.978212 23.078730 3.148893 13.000000
12.629592 23.077982 3.185922 10.000000
12.359194 23.185635 3.181835 25.500000
10.460197 24.160458 3.188327 21.000000
11.409263 27.943602 3.121244 5.000000
14.313051 -35.622795 3.296646 15.000000
14.156840 -35.556507 3.286379 12.000000
15.719835 -34.350937 3.243943 11.000000
15.549254 -34.262245 3.230938 4.000000
16.281469 -34.150143 3.248734 6.000000
16.008833 -33.851658 3.215539 21.000000
16.205677 -33.718071 3.212458 4.000000
5.865522 -30.430601 3.204768 10.000000
14.379848 -18.273396 3.228678 18.333334
15.838468 -17.455145 3.272688 7.000000
16.278778 -17.274616 3.295793 1.000000
16.099854 -17.192644 3.270487 19.000000
16.232931 -16.588106 3.222626 2.000000
13.063008 -15.734468 3.205361 3.000000
10.312765 6.386712 3.241899 22.000000
10.428240 6.412987 3.271850 3.000000
10.803779 7.391986 3.250021 20.500000
10.981959 7.412974 3.289538 13.000000
10.810366 7.471504 3.262551 20.000000
9.332046 7.597479 3.216080 2.000000
10.451838 7.644112 3.214841 38.500000
10.313637 7.819968 3.213396 7.000000
8.994773 8.184612 3.250161 10.500000
8.847148 8.281912 3.238801 31.000000
11.263729 8.254139 3.207502 23.600000
8.578864 8.471722 3.222276 8.000000
10.127486 8.458888 3.276044 43.000000
8.648325 8.621199 3.263588 8.000000
10.115632 8.557455 3.289538 46.000000
8.602144 8.656364 3.261522 11.500000
11.315371 8.692005 3.277347 32.000000
9.145330 9.290126 3.236527 1.000000
9.925689 9.894555 3.219143 24.000000
10.046865 9.890339 3.238246 9.666667
-11.530010 10.132926 3.239754 13.000000
-11.445347 10.122431 3.224885 13.000000
-11.326016 10.112337 3.204647 12.500000
-11.735060 10.150826 3.274861 13.000000
-11.608953 10.137846 3.252970 13.000000
-13.400788 10.327369 3.261363 13.000000
-13.248109 10.309662 3.235999 13.000000
-13.105213 10.297894 3.212906 13.500000
-13.550761 10.341609 3.285970 13.000000
-10.545621 10.950914 3.208777 15.500000
-10.532378 11.110575 3.231218 15.666667
-10.521840 11.275446 3.255036 15.500000
-10.509129 11.404657 3.273209 15.500000
-10.491487 11.566572 3.295925 15.666667
11.157732 12.398495 3.215367 20.250000
11.108396 12.480941 3.220856 56.000000
-10.348776 13.085106 3.215935 15.500000
-10.331620 13.233458 3.236377 15.000000
-10.315397 13.385222 3.257577 14.500000
-10.301233 13.541996 3.279912 14.500000
-10.291714 13.662527 3.297327 15.000000
-10.127480 15.324268 3.209111 15.666667
-10.108671 15.489039 3.231369 15.500000
-10.097631 15.632479 3.251333 16.000000
-10.081091 15.769538 3.269920 16.500000
-10.065720 15.910091 3.289195 17.000000
11.823759 16.999472 3.245621 6.500000
11.428859 17.110960 3.225181 16.000000
11.873971 17.360973 3.296721 8.000000
10.581046 17.707684 3.233233 65.000000
11.085532 17.658157 3.267919 9.000000
11.242310 17.783577 3.297650 33.000000
10.589888 17.849592 3.253054 1.000000
-9.861168 17.996870 3.216510 14.000000
9.687087 18.005928 3.204741 9.333333
9.837805 17.969118 3.210935 58.000000
-9.842060 18.164764 3.238189 14.000000
9.607793 18.222799 3.228898 6.000000
10.625153 18.168209 3.298889 17.000000
-9.823617 18.336327 3.260487 14.000000
9.587137 18.322922 3.241285 3.000000
-9.814195 18.457821 3.276591 14.000000
-9.804114 18.579430 3.292695 14.000000
-9.560053 21.075027 3.213274 7.000000
-9.547439 21.224192 3.231428 6.000000
-9.532356 21.369869 3.249032 6.000000
-9.514859 21.512035 3.266086 5.000000
-9.502928 21.668812 3.285341 4.000000
12.527308 23.952349 3.273445 4.000000
11.430414 24.214035 3.242668 12.000000
11.533731 24.235376 3.250362 44.000000
11.374494 24.292980 3.248438 13.000000
12.276081 24.302460 3.297249 5.500000
10.664840 24.352901 3.219585 8.000000
11.704015 35.872074 3.240179 16.000000
12.156040 36.100098 3.270979 47.000000
11.340268 36.297813 3.265503 5.000000
10.995364 36.395447 3.264819 12.000000
11.116638 36.383595 3.266872 6.000000
11.508262 36.433014 3.280903 2.000000
10.933436 36.605469 3.280561 7.000000
15.876117 -17.831493 3.315047 5.000000
15.963964 -17.704906 3.310096 10.000000
12.454370 -17.022934 3.306012 9.000000
12.628951 -16.980120 3.316851 11.000000
12.634868 -16.877090 3.304464 7.000000
12.934848 -16.942583 3.341008 45.000000
13.299704 -16.864542 3.366403 2.000000
12.951895 -16.854860 3.331717 2.000000
13.352621 -16.822676 3.366403 33.000000
13.907633 -16.434174 3.374455 1.000000
13.418376 -16.266220 3.305083 25.000000
13.715358 -16.052975 3.309419 9.000000
14.163526 -16.008951 3.350299 23.000000
14.140167 -15.881737 3.332956 11.000000
14.675786 -15.870620 3.388082 10.000000
14.434553 -15.807850 3.355254 7.000000
14.542966 -15.826443 3.368881 2.000000
-15.648957 -7.757998 3.366983 86.000000
-15.692627 -7.657214 3.365974 95.000000
-15.734543 -7.494910 3.359664 92.666664
-15.749062 -7.350620 3.350326 88.500000
-15.745529 -7.198969 3.337455 76.666664
-15.745743 -7.020337 3.323322 41.333332
11.118275 7.998122 3.400378 22.000000
10.743065 8.066148 3.335320 32.000000
10.841733 8.060593 3.354114 64.000000
9.140529 8.556499 3.346210 10.500000
10.321302 8.565868 3.330019 4.000000
10.417050 8.590207 3.352187 5.000000
11.487807 8.710243 3.311374 0.000000
9.401237 9.490263 3.316525 65.000000
9.263353 9.619484 3.315561 26.500000
9.343850 9.611849 3.328091 1.000000
9.236261 9.712576 3.327609 2.500000
9.178411 9.743300 3.323272 20.000000
10.586426 9.785992 3.311374 1.000000
-10.821090 10.066143 3.394651 13.000000
-10.668710 10.081767 3.371593 13.750000
-12.342939 10.210896 3.381008 13.000000
-12.166050 10.193977 3.350031 13.000000
-12.026714 10.174164 3.324836 13.000000
-11.907233 10.169666 3.305011 13.000000
-10.613228 10.220514 3.384354 14.000000
-10.608306 10.312530 3.398233 14.000000
-14.130722 10.402765 3.382504 13.500000
-13.969625 10.386114 3.355626 14.000000
-13.864602 10.375819 3.338212 13.000000
-13.705904 10.358091 3.311712 13.500000
-10.479884 11.737645 3.321119 14.500000
-10.464168 11.869311 3.339705 14.000000
-10.456191 12.011581 3.361183 14.000000
-10.439188 12.145308 3.380182 15.000000
-10.427552 12.247995 3.395051 15.000000
-10.280006 13.781721 3.314362 15.500000
-10.263062 13.940935 3.337076 15.500000
-10.243380 14.098875 3.359412 15.000000
-10.228965 14.266704 3.384019 16.000000
9.401007 14.593081 3.346288 16.000000
10.940920 15.418157 3.302963 6.000000
11.064887 15.489514 3.325680 19.000000
11.138800 15.489866 3.333253 2.000000
10.813124 15.546463 3.308470 38.000000
10.686333 15.890956 3.345644 3.000000
10.603703 15.984055 3.351151 3.000000
10.881398 15.963501 3.375246 21.000000
-10.050167 16.052542 3.308815 16.000000
-10.033615 16.195175 3.328434 16.000000
-10.023975 16.293741 3.342202 16.000000
-10.015877 16.395763 3.356659 16.000000
-10.005184 16.494530 3.370427 17.000000
-9.991154 16.647932 3.392111 16.500000
11.855176 17.510023 3.314374 22.000000
11.395741 17.901516 3.326142 5.000000
11.496707 17.935492 3.339149 3.000000
11.652374 17.867752 3.343485 9.000000
10.714269 18.189219 3.308799 15.000000
11.055637 18.305359 3.351847 3.000000
11.192188 18.335747 3.367022 20.000000
11.351072 18.400494 3.388701 8.500000
10.489878 18.601347 3.347202 18.000000
-9.784914 18.756821 3.315922 13.500000
-9.764419 18.934420 3.339149 14.000000
-9.751686 19.056471 3.355254 14.000000
-9.738293 19.178623 3.371358 14.000000
-9.725995 19.304413 3.388082 13.000000
-9.486936 21.818466 3.303494 4.000000
-9.473243 21.975498 3.322749 3.000000
-9.463317 22.143599 3.343654 3.000000
-9.446257 22.297255 3.362358 3.000000
-9.431391 22.458324 3.382162 2.000000
12.936092 24.176346 3.320572 4.000000
13.249418 24.576004 3.381165 1.000000
12.137140 25.298162 3.397996 2.000000
12.221744 25.270634 3.399439 11.000000
11.894807 25.404236 3.397035 12.000000
12.769328 -17.685574 3.419051 4.500000
12.930149 -17.499634 3.410380 24.000000
13.161074 -17.408405 3.420600 8.500000
13.343260 -17.251711 3.418432 6.000000
13.718651 -17.172758 3.445066 1.000000
13.727962 -17.074139 3.433917 64.000000
13.874226 -17.090565 3.450331 26.000000
14.021040 -17.105984 3.466745 18.000000
14.783978 -16.604841 3.484707 23.000000
14.963718 -16.491108 3.490282 18.000000
14.444530 -16.430290 3.428962 31.000000
10.439687 7.410875 3.421603 20.000000
10.419497 7.445882 3.422636 30.000000
10.283924 7.587561 3.415578 18.333332
10.483139 7.641634 3.467046 55.000000
11.155981 7.972181 3.404233 0.000000
11.313549 8.356317 3.491941 0.000000
11.185942 8.564718 3.497724 34.000000
12.403474 8.630274 3.470765 23.000000
10.957076 8.637862 3.463990 20.000000
12.433775 8.709457 3.486883 12.000000
10.428141 8.972690 3.415478 22.000000
9.736861 9.736784 3.418691 15.500000
11.368123 9.740219 3.438529 20.000000
-11.160408 10.123189 3.460915 10.000000
-11.007652 10.079528 3.428231 12.500000
-10.892741 10.069143 3.407188 13.000000
-12.520527 10.225979 3.411984 12.500000
-11.293554 10.147297 3.487330 10.000000
-12.954244 10.311589 3.494589 4.000000
-12.815496 10.300246 3.470221 10.000000
-12.673532 10.251842 3.440483 11.000000
-14.394885 10.423986 3.426040 12.000000
-14.285889 10.413635 3.407869 14.000000
-10.595732 10.397907 3.409874 14.000000
-14.741865 10.499664 3.488882 5.500000
-14.555098 10.470461 3.456325 7.000000
-10.586881 10.520609 3.428231 14.500000
-10.578272 10.644997 3.447035 14.000000
-10.601274 10.803085 3.476585 13.500000
10.665394 12.174427 3.416115 30.500000
10.749896 12.154820 3.424788 1.000000
-10.421880 12.319541 3.405789 15.000000
-10.410224 12.463904 3.427542 15.000000
-10.392021 12.642524 3.454113 15.000000
-10.383034 12.753561 3.471047 15.000000
-10.403819 12.902918 3.498306 13.000000
11.327271 13.736194 3.432097 6.000000
11.423045 13.764011 3.447997 3.000000
11.278826 13.943111 3.457082 0.000000
-10.213987 14.436499 3.409004 16.000000
10.624532 14.384465 3.447240 1.000000
-10.198854 14.560058 3.426797 16.000000
-10.184904 14.687044 3.445347 16.000000
10.070065 14.668485 3.429826 31.000000
10.140663 14.672318 3.438154 1.000000
-10.176766 14.823915 3.466168 15.000000
10.478838 14.761519 3.489639 2.000000
-10.161127 14.901241 3.476768 15.000000
9.890546 14.903391 3.447997 49.000000
10.440951 14.839573 3.497715 43.333332
-10.158318 14.998128 3.491911 7.000000
9.233788 15.121437 3.415440 1.000000
9.485743 15.103996 3.438154 1.000000
9.161386 15.163091 3.415061 11.500000
9.425592 15.273275 3.459733 3.000000
-9.974013 16.798155 3.413108 16.000000
-9.959541 16.955397 3.435481 16.500000
-9.945914 17.116264 3.458542 16.000000
-9.929878 17.275686 3.481260 16.000000
10.644289 19.298014 3.454357 2.000000
-9.716546 19.437378 3.406044 11.000000
-9.699334 19.556309 3.421529 10.000000
-9.690185 19.693060 3.440111 11.000000
-9.678547 19.826389 3.458073 10.000000
-9.664434 19.956285 3.475416 9.000000
-9.653032 20.093407 3.493998 9.000000
-9.423209 22.637814 3.404717 2.000000
-9.409469 22.806479 3.425622 1.000000
-9.387253 22.956949 3.443776 1.000000
-9.371634 23.125858 3.464681 0.000000
12.630334 25.499491 3.446086 1.000000
11.875152 25.571135 3.414347 9.000000
11.987461 26.026705 3.470130 4.000000
12.159932 31.464138 3.488256 2.000000
12.300652 31.533276 3.500187 1.000000
11.981751 31.592003 3.494016 3.000000
11.011863 39.097351 3.487949 26.000000
11.128081 39.039570 3.485895 22.000000
10.895390 39.154789 3.490002 14.000000
7.075387 -28.827541 3.594682 21.000000
6.202338 -28.759850 3.562943 36.000000
8.071491 -28.581158 3.596606 10.000000
6.328646 -28.476097 3.532647 11.000000
6.817574 -28.550848 3.554768 45.000000
7.465890 -28.478539 3.565347 4.000000
7.953912 -28.506926 3.584102 4.000000
7.542075 -28.405046 3.559096 14.000000
8.132872 -28.456385 3.584102 14.000000
8.312617 -28.408537 3.584583 4.000000
8.786012 -28.365501 3.596125 7.000000
6.485290 -28.338999 3.520624 16.000000
6.667773 -28.317017 3.523029 3.000000
7.228825 -28.297884 3.536975 3.000000
6.831542 -28.216673 3.515815 2.000000
7.089408 -28.120228 3.511968 16.000000
13.359688 -18.260408 3.546337 5.500000
13.924162 -17.886370 3.552840 1.000000
14.278544 -17.873625 3.585668 17.000000
14.753493 -17.323040 3.566467 35.000000
15.030083 -17.314531 3.593720 12.000000
15.156841 -17.240528 3.598056 7.000000
14.550674 -16.976561 3.504528 12.000000
14.671041 -17.008566 3.520632 32.000000
15.436398 -17.012033 3.600533 5.000000
15.364526 -16.826300 3.571422 32.000000
14.954418 -16.620199 3.504321 39.000000
15.495504 -16.651819 3.565228 10.000000
15.545731 -16.086832 3.506386 1.000000
-15.451331 -6.428605 3.532174 1.000000
10.706618 7.701990 3.524881 42.000000
10.939796 7.714318 3.577553 23.000000
10.701148 7.749187 3.531078 0.000000
10.166341 8.356659 3.517135 36.500000
10.184382 8.615616 3.565160 31.000000
10.154324 8.645063 3.564127 34.000000
10.297185 8.655688 3.595110 0.000000
11.467502 8.694847 3.572903 10.000000
9.975101 8.822120 3.558963 6.000000
9.781432 8.985040 3.549668 55.000000
9.633486 9.132255 3.547602 33.000000
9.855313 9.110158 3.586848 11.000000
9.677447 9.231827 3.574455 0.000000
9.715302 9.326410 3.599241 3.000000
9.243233 9.719929 3.584782 16.000000
-11.412574 10.157517 3.509269 1.000000
-14.909922 10.513900 3.516896 1.000000
-10.597777 10.970585 3.503598 7.333333
-10.596894 11.108405 3.526283 0.000000
11.090932 12.343625 3.502437 11.000000
11.167924 12.547825 3.545391 17.000000
10.854719 12.709247 3.527631 6.500000
10.813681 12.782681 3.533826 9.000000
11.135055 12.832014 3.585867 0.000000
-10.399343 13.064474 3.524327 8.500000
-10.384841 13.201555 3.545115 3.000000
10.379630 14.917656 3.503268 40.000000
10.892552 14.942897 3.564596 2.000000
9.925201 15.265964 3.510082 0.000000
10.030896 15.253139 3.519168 30.666666
-10.156549 15.461958 3.566110 4.500000
10.946721 17.077484 3.543905 10.000000
10.772716 17.159872 3.539774 9.000000
10.924757 17.161650 3.554231 35.000000
-9.912692 17.435316 3.503977 17.000000
-9.902409 17.545298 3.519810 17.000000
9.680976 17.551537 3.501912 5.000000
-9.897317 17.665697 3.537709 15.000000
9.587439 17.643175 3.508107 2.000000
9.669311 17.661358 3.517745 32.000000
-9.889650 17.782791 3.554919 15.000000
10.417368 17.748949 3.595535 19.500000
9.481738 17.847582 3.530825 23.000000
10.098805 17.864258 3.585209 44.666668
-9.899647 18.000120 3.588995 7.500000
-9.639164 20.227085 3.511960 9.000000
-9.626230 20.364452 3.530542 8.000000
-9.609182 20.494778 3.547885 7.000000
-9.596398 20.635946 3.567086 7.000000
-9.587798 20.787998 3.588146 6.000000
11.240750 22.804132 3.530146 9.666667
11.820440 22.823389 3.568838 21.000000
11.460962 22.947002 3.561503 28.000000
11.980830 26.671005 3.540822 29.000000
11.438589 26.804432 3.529280 39.000000
11.813017 26.745758 3.540822 9.000000
11.394549 26.935322 3.541784 16.000000
12.195644 26.922609 3.579293 6.000000
10.940271 27.037357 3.532166 7.000000
12.021398 26.987822 3.577851 9.000000
10.352046 27.038502 3.506197 7.000000
10.449821 27.039181 3.510525 16.000000
12.105125 31.617371 3.501010 26.000000
11.409073 32.200363 3.532692 8.000000
11.523582 32.201824 3.536806 13.000000
11.000978 32.333656 3.531869 4.000000
11.892102 32.584778 3.587003 20.000000
11.797790 32.644428 3.589472 57.000000
11.324676 39.260975 3.508825 5.000000
14.624201 -32.494816 3.684927 15.000000
5.772109 -29.945967 3.693265 9.000000
5.987139 -29.800404 3.681003 12.500000
6.947190 -29.503658 3.670663 7.000000
7.826393 -29.475851 3.693265 1.000000
6.035882 -29.326546 3.625940 31.000000
7.889055 -29.339911 3.679319 22.000000
6.202697 -29.206470 3.615841 36.000000
6.590185 -29.219191 3.627383 10.000000
6.782626 -29.215887 3.632192 14.000000
8.936438 -29.175114 3.695189 12.000000
7.051130 -29.123650 3.628825 38.000000
8.719913 -29.120369 3.681243 10.000000
8.357925 -28.899900 3.643252 10.000000
8.553991 -28.896315 3.649504 46.000000
9.557122 -28.915001 3.687975 1.000000
7.925516 -28.753809 3.611994 29.000000
8.634092 -28.507553 3.607185 6.000000
9.227341 -28.517323 3.629787 14.000000
9.088069 -28.391111 3.610070 6.000000
14.974989 -17.808590 3.646988 7.000000
15.531580 -17.779114 3.700256 16.000000
16.069921 -16.734156 3.636458 1.000000
13.615497 -16.191853 3.696042 11.000000
13.810167 -16.010530 3.693977 0.000000
-15.676255 -7.588326 3.675906 6.000000
-15.700004 -7.478467 3.670399 73.666664
-15.719875 -7.336994 3.661450 85.000000
-15.728320 -7.220927 3.652777 49.000000
10.232081 8.992268 3.640553 1.000000
10.174751 9.151719 3.657421 36.000000
10.630239 15.589190 3.637281 30.000000
10.913176 15.579843 3.666809 18.000000
10.509029 15.727873 3.646366 20.000000
10.569349 15.711075 3.650152 16.000000
10.868666 15.725651 3.684980 1.000000
11.554163 17.239902 3.625825 4.000000
11.258873 17.443594 3.627201 20.000000
11.542007 17.517675 3.665064 18.000000
10.663262 17.781744 3.622383 15.000000
-9.887275 18.179823 3.615499 2.000000
9.790663 18.290159 3.624448 4.000000
10.570372 18.293655 3.691223 22.333334
-9.589843 20.965355 3.613541 5.000000
-9.594121 21.150129 3.640175 3.000000
-9.589238 21.317114 3.663712 1.000000
11.339362 24.010296 3.686931 48.000000
12.538404 27.335838 3.642050 3.500000
11.438460 27.519743 3.609109 2.000000
11.629711 27.491217 3.614880 12.000000
11.289342 27.649891 3.616803 7.000000
12.200784 33.107258 3.648720 8.000000
12.431000 33.408100 3.686162 18.000000
12.569475 33.458279 3.696037 3.000000
13.493342 -33.890060 3.772155 4.000000
13.578979 -33.795815 3.766394 12.000000
14.071421 -33.787800 3.784909 15.000000
13.683591 -33.749298 3.765983 6.000000
14.166713 -33.717747 3.782029 18.000000
13.757915 -33.628811 3.757342 5.000000
15.183328 -33.455940 3.799310 29.000000
14.678969 -33.171852 3.751171 22.000000
14.154606 -33.104916 3.723192 16.000000
14.528322 -33.112141 3.739239 15.000000
15.132728 -33.067989 3.760634 14.000000
15.398945 -33.098511 3.775035 1.000000
14.739329 -33.027470 3.740062 11.000000
15.184864 -32.908291 3.747879 10.000000
15.252770 -32.516853 3.714140 10.000000
7.654397 -29.963825 3.745202 11.000000
7.740527 -29.908876 3.741355 12.000000
8.935205 -29.839344 3.772132 3.000000
8.053169 -29.579353 3.712501 30.000000
9.310497 -29.403814 3.735103 1.000000
