# This PCD file was generated using the MATLAB® pcwrite function
# from Computer Vision Toolbox®.
# .PCD v.7 - Point Cloud Data file format
VERSION .7
FIELDS x y z intensity
SIZE 4 4 4 4
TYPE F F F F
COUNT 1 1 1 1
WIDTH 1236
HEIGHT 1
VIEWPOINT 0 0 0 1 0 0 0
POINTS 1236
DATA ascii
-5.347469 -1.474271 -0.716826 31.833334
-5.208124 -1.509551 -0.716835 36.833332
4.232152 -1.512364 -0.782532 69.307693
4.355116 -1.463133 -0.730139 0.000000
-6.276851 -1.346659 -0.735355 26.333334
-6.128172 -1.375316 -0.719402 24.500000
-5.993321 -1.394680 -0.715496 19.200001
-5.831203 -1.395540 -0.739602 19.000000
-5.663090 -1.421254 -0.720218 21.500000
-5.465305 -1.409328 -0.796341 32.000000
-5.387420 -1.425405 -0.786282 34.000000
4.266266 -1.359079 -0.792205 84.727272
6.691394 -1.368679 -0.722074 5.000000
6.820449 -1.372766 -0.735531 2.000000
-6.993658 -1.249488 -0.751091 19.500000
-6.862463 -1.270589 -0.737844 20.500000
-6.735188 -1.290848 -0.725018 22.000000
-6.584416 -1.315577 -0.709878 23.000000
4.297266 -1.265565 -0.792564 84.666664
6.133558 -1.254577 -0.772248 1.000000
-7.407083 -1.207678 -0.749345 13.333333
-7.320810 -1.201453 -0.758074 6.800000
-7.161408 -1.221422 -0.768053 21.000000
4.376048 -1.209756 -0.761971 42.750000
5.546793 -1.170915 -0.699284 1.000000
5.744787 -1.193871 -0.723769 0.000000
6.592190 -1.214117 -0.708669 4.750000
4.367514 -1.116494 -0.797558 82.750000
4.533650 -1.078742 -0.732186 30.600000
4.665153 -1.062914 -0.711618 19.571428
4.828174 -1.053170 -0.732443 8.200000
4.996550 -1.086684 -0.721457 5.000000
5.096763 -1.091721 -0.735427 5.000000
5.242445 -1.111634 -0.724617 3.000000
5.440554 -1.111839 -0.783487 3.000000
19.475880 -0.874175 -0.698513 0.000000
19.533939 -0.794753 -0.700471 0.000000
10.525936 -0.454148 -0.744307 13.000000
10.772790 -0.515570 -0.761925 2.000000
10.390421 -0.399160 -0.734582 31.000000
10.332350 -0.315749 -0.730284 0.250000
-5.812169 -0.142141 -0.717158 0.500000
8.377939 -0.163791 -0.738273 2.000000
8.596478 -0.195081 -0.757581 0.000000
10.334506 -0.185752 -0.730213 0.000000
7.980675 -0.080791 -0.703167 3.000000
8.137568 -0.120823 -0.717034 2.000000
7.062450 0.050473 -0.746676 3.000000
7.223730 0.006242 -0.763708 3.000000
7.408139 -0.012898 -0.739575 2.333333
6.142587 0.101823 -0.757802 7.500000
6.689196 0.142455 -0.707355 1.000000
6.800971 0.123461 -0.719130 1.000000
6.928749 0.093065 -0.732587 1.500000
-5.720087 0.210748 -0.706078 2.000000
6.033922 0.208984 -0.744764 8.700000
-5.748898 0.293237 -0.710057 1.000000
5.856746 0.327296 -0.723573 4.800000
5.603066 0.437861 -0.792988 7.777778
5.845370 0.446731 -0.723157 0.375000
5.792440 0.543436 -0.717648 0.000000
7.085118 0.485479 -0.750811 0.000000
8.001474 0.497802 -0.706327 0.000000
-5.650859 0.609810 -0.701103 1.571429
5.537681 0.590733 -0.785785 6.222222
5.816491 0.576480 -0.720994 0.000000
7.052966 0.607137 -0.748428 2.222222
8.003885 0.568688 -0.706959 1.000000
5.488019 0.749541 -0.781531 5.750000
5.505647 0.692597 -0.782929 6.000000
7.050538 0.706235 -0.749129 4.000000
8.027902 0.740564 -0.710305 0.000000
-5.634669 0.932813 -0.704507 1.333333
5.455882 0.887578 -0.779925 5.125000
8.055929 0.907173 -0.714255 2.916667
-5.653495 0.972465 -0.707609 0.000000
5.433387 1.033544 -0.780383 5.000000
7.201846 0.992144 -0.768586 3.000000
8.027837 1.034092 -0.713137 0.000000
5.802900 1.083887 -0.728176 0.000000
5.422480 1.182349 -0.783068 5.000000
5.781580 1.250022 -0.729645 0.000000
7.256728 1.214389 -0.777866 0.000000
8.079422 1.183095 -0.719433 2.833333
5.423430 1.335253 -0.788082 5.000000
7.267013 1.333739 -0.781130 4.428571
8.107889 1.304505 -0.723529 4.000000
5.440059 1.476068 -0.795316 5.000000
5.777849 1.488975 -0.736011 0.625000
7.253129 1.478881 -0.733631 2.750000
5.794778 1.600527 -0.741561 1.000000
7.156788 1.570904 -0.774642 0.000000
5.853639 1.724053 -0.752739 4.553572
-6.089317 2.153949 -0.796733 2.000000
-5.967370 2.153093 -0.782532 3.000000
-5.818375 2.140626 -0.764740 0.333333
-5.646590 2.127979 -0.744336 0.000000
-5.501540 2.112902 -0.726952 0.000000
-5.380947 2.105470 -0.712751 0.000000
-5.205392 2.072249 -0.730780 0.000000
-6.861565 2.258621 -0.763708 1.000000
-6.718819 2.246716 -0.748989 1.000000
-6.532746 2.234044 -0.729924 1.000000
-6.426852 2.228009 -0.719130 1.000000
-6.298098 2.216613 -0.705883 0.500000
-6.125768 2.195728 -0.726002 5.000000
-7.140263 2.276003 -0.792305 0.000000
-6.997016 2.266673 -0.777586 2.000000
-4.206156 2.384609 -0.729511 33.500000
-4.160576 2.534775 -0.730783 18.650000
-4.129215 2.687855 -0.739072 14.388889
7.696018 2.737402 -0.719667 2.000000
7.791022 2.743652 -0.727741 1.000000
10.405643 2.688889 -0.759267 12.428572
-4.109488 2.838548 -0.746584 10.235294
7.744393 2.823423 -0.726249 2.000000
10.401657 2.837820 -0.761699 8.800000
7.797164 2.939994 -0.734177 0.333333
8.288725 2.889684 -0.773379 1.000000
8.424737 2.892592 -0.784788 1.000000
-4.101871 2.993570 -0.716497 6.125000
6.227259 3.057416 -0.733428 1.000000
6.347278 3.042330 -0.744152 1.000000
6.496332 3.026433 -0.757680 1.333333
6.613893 3.005673 -0.768053 1.666667
6.789149 3.004243 -0.740990 0.833333
6.931391 3.004101 -0.718530 0.400000
7.669381 2.974763 -0.724757 0.000000
-9.868941 3.145786 -0.731764 40.000000
-4.111441 3.161779 -0.731795 3.250000
-4.093690 3.087069 -0.723413 4.500000
5.600976 3.156990 -0.759012 18.299999
5.698154 3.127342 -0.715655 1.375000
5.873732 3.104535 -0.702392 1.000000
6.022596 3.075166 -0.714925 1.000000
6.147415 3.066293 -0.726279 1.000000
-10.449639 3.186798 -0.771791 93.000000
-10.318266 3.199929 -0.763193 61.500000
-10.228870 3.225152 -0.757697 53.000000
-9.745289 3.173827 -0.724059 4.333333
-9.612825 3.197763 -0.715696 0.000000
-9.582429 3.254692 -0.714945 8.333333
5.545969 3.251155 -0.717523 9.555555
-4.155910 3.301762 -0.701908 10.166667
5.467166 3.305088 -0.754065 15.700000
-4.182306 3.426453 -0.721585 5.000000
5.432723 3.442436 -0.736485 7.625000
-4.229147 3.524844 -0.776781 2.000000
5.395592 3.580945 -0.736297 6.000000
5.410789 3.886780 -0.704341 2.166667
5.422513 4.039007 -0.714840 2.000000
5.442850 4.188744 -0.726111 1.600000
5.477546 4.311996 -0.737003 2.000000
5.508573 4.378578 -0.743942 3.000000
5.560396 4.477197 -0.754736 5.666667
5.613412 4.578187 -0.765810 0.000000
6.784509 5.550946 -0.772326 8.000000
6.930832 5.526737 -0.781014 8.500000
7.021807 5.509759 -0.786368 4.000000
6.030463 5.637204 -0.727302 10.000000
6.144776 5.618756 -0.733592 9.333333
6.225229 5.603238 -0.737922 7.000000
6.329301 5.589730 -0.743978 7.250000
6.474524 5.574757 -0.752754 7.000000
6.628007 5.563389 -0.762408 7.000000
5.771644 5.727443 -0.716390 7.333333
5.888809 5.680678 -0.720896 8.833333
5.693263 5.830130 -0.717962 7.142857
5.622407 5.979024 -0.723107 11.200000
5.590039 6.134949 -0.731252 10.800000
5.580051 6.300627 -0.741520 8.500000
5.588964 6.452197 -0.752081 7.000000
5.607037 6.597694 -0.762847 6.666667
5.629226 6.730149 -0.773028 7.000000
5.650866 6.821023 -0.780400 6.000000
5.674992 6.894115 -0.786719 4.000000
6.176553 8.055117 -0.717106 5.800000
5.625803 8.155066 -0.699911 27.000000
5.770119 8.143380 -0.705079 7.000000
5.885488 8.115461 -0.708226 5.750000
6.020949 8.086475 -0.712243 6.250000
5.658038 8.215826 -0.704750 16.500000
5.550353 8.379331 -0.710059 4.600000
5.512075 8.523703 -0.717106 1.000000
5.519788 8.684620 -0.726972 1.000000
5.531804 8.856282 -0.737683 2.500000
5.545102 9.002977 -0.746985 2.500000
5.557806 9.151890 -0.756428 2.000000
5.583518 9.292534 -0.765871 2.000000
5.613581 9.409401 -0.774046 0.000000
5.649065 9.536845 -0.783066 1.000000
6.262691 11.544049 -0.699096 2.000000
6.307821 11.714895 -0.708239 2.000000
-2.917411 12.903578 -0.704199 7.000000
6.626074 13.032488 -0.778244 25.000000
6.784574 12.988670 -0.780034 13.666667
6.903895 12.967926 -0.782018 9.000000
6.528448 13.094041 -0.778829 11.000000
6.461801 13.167063 -0.780742 2.333333
6.410161 13.325413 -0.787121 1.500000
6.378433 13.475538 -0.793606 1.500000
7.828729 18.047823 -0.704863 6.333333
7.363242 18.133478 -0.701235 5.500000
7.515142 18.098427 -0.702142 2.333333
7.672164 18.074453 -0.703526 4.000000
7.034446 18.220724 -0.699802 17.000000
7.122410 18.192932 -0.700017 15.000000
7.246212 18.171953 -0.700948 11.500000
6.919329 18.263256 -0.699755 35.000000
6.813528 18.419579 -0.703669 11.000000
6.767807 18.564146 -0.707966 5.000000
6.769176 18.750753 -0.714268 2.000000
6.790969 18.997778 -0.722862 2.000000
6.836615 19.316719 -0.734177 2.000000
6.855209 19.564455 -0.742770 0.000000
4.076201 -17.044107 -0.627903 6.000000
4.415789 -17.037771 -0.630624 6.000000
4.226112 -16.962154 -0.626327 19.500000
3.779294 -16.852324 -0.618808 42.000000
3.869835 -16.883051 -0.620598 39.000000
3.956250 -16.934155 -0.623081 37.000000
3.516512 -16.788666 -0.614583 42.000000
3.629005 -16.798733 -0.615776 41.333332
4.081686 -16.833088 -0.620598 36.000000
3.331577 -16.687712 -0.609713 57.666668
3.444378 -16.705669 -0.611145 43.000000
2.669741 -16.612041 -0.602838 34.000000
2.742149 -16.563757 -0.601549 44.000000
2.855625 -16.601360 -0.603554 42.500000
2.929646 -16.564121 -0.602695 54.000000
3.045430 -16.609552 -0.605034 58.000000
3.181188 -16.613293 -0.606061 54.000000
2.576344 -16.527649 -0.599329 57.500000
-7.353618 -15.157552 -0.603626 0.500000
14.273809 -13.051991 -0.692999 46.000000
14.443062 -13.041077 -0.697224 57.500000
11.586210 -12.958485 -0.622818 4.000000
13.868059 -12.963884 -0.680180 54.000000
13.955576 -12.963785 -0.682472 67.000000
14.113727 -13.028334 -0.688201 49.000000
11.667256 -12.926007 -0.623892 10.000000
12.612555 -12.915587 -0.646809 48.500000
12.844215 -12.866651 -0.651392 48.000000
13.235518 -12.929508 -0.662945 51.666668
13.388103 -12.874561 -0.665500 60.000000
13.536868 -12.895493 -0.669868 62.000000
13.686193 -12.915167 -0.674236 66.000000
11.656543 -12.752126 -0.619023 19.000000
11.890646 -12.764551 -0.625038 49.000000
12.027348 -12.789881 -0.629049 49.000000
12.177091 -12.747040 -0.631627 46.000000
12.370932 -12.788122 -0.637499 46.000000
12.650865 -12.833229 -0.645663 47.000000
12.722086 -12.824638 -0.647238 44.000000
12.907570 -12.808737 -0.651535 52.500000
11.705679 -12.685261 -0.618450 53.500000
3.947373 -12.443725 -0.694915 37.666668
4.035785 -12.318694 -0.690024 45.000000
4.112916 -12.165327 -0.683575 41.666668
4.198606 -12.104343 -0.681980 43.500000
4.259237 -12.034426 -0.679535 46.000000
4.352279 -11.996813 -0.679322 45.333332
4.426202 -11.907994 -0.676239 42.500000
4.529289 -11.898350 -0.677692 51.000000
4.659680 -11.847495 -0.677675 37.000000
5.571823 -11.861948 -0.697608 37.500000
4.738828 -11.776327 -0.675708 45.000000
4.820816 -11.765983 -0.676842 47.000000
4.971199 -11.814546 -0.682299 39.666668
5.072578 -11.795321 -0.683468 45.500000
5.150567 -11.772376 -0.684000 43.000000
5.412034 -11.809884 -0.691513 42.666668
5.514009 -11.739133 -0.690379 39.000000
5.240733 -11.726652 -0.683717 42.000000
-6.964882 -10.233137 -0.658911 0.000000
-6.827700 -10.168326 -0.651965 0.000000
-6.658396 -10.121034 -0.644878 0.000000
-6.568580 -10.122462 -0.642326 0.000000
7.261223 -9.497288 -0.636373 0.000000
7.333987 -9.499290 -0.638818 0.500000
7.340542 -9.355013 -0.632971 0.000000
6.769041 -9.058101 -0.601929 0.500000
6.883435 -9.062019 -0.605756 1.000000
-6.832344 -8.980400 -0.600653 16.799999
8.526110 -8.645996 -0.646366 0.000000
8.351790 -8.576345 -0.637224 2.000000
8.417830 -8.590008 -0.640200 3.000000
7.421814 -8.483845 -0.600015 0.000000
7.509292 -8.502659 -0.603842 0.000000
7.549047 -8.413738 -0.601716 0.000000
7.662861 -8.353683 -0.603417 0.500000
7.759106 -8.379073 -0.607882 0.000000
-6.224489 -7.513618 -0.689293 0.000000
-6.196456 -7.337709 -0.678488 0.000000
-6.186196 -7.372423 -0.679897 1.000000
-6.168021 -7.211726 -0.670407 1.666667
-6.151795 -7.057045 -0.661387 2.000000
-6.217875 -6.954353 -0.659038 0.000000
-6.158253 -6.975342 -0.657347 1.000000
-6.228970 -6.750270 -0.648890 12.000000
-6.176983 -6.778931 -0.647904 0.500000
-7.180041 -6.648628 -0.691314 0.000000
-6.564283 -6.646327 -0.659940 0.000000
-6.304155 -6.661767 -0.647951 19.666666
-6.243018 -6.701862 -0.647058 16.500000
-6.668242 -6.555138 -0.660589 0.500000
-6.390676 -6.626936 -0.650394 8.666667
-6.729351 -6.532553 -0.662562 0.000000
-6.503979 -5.476861 -0.600689 0.000000
-6.451226 -5.502081 -0.598998 0.000000
-5.797627 -5.268137 -0.690178 0.000000
-5.765745 -5.140764 -0.680583 0.000000
-5.736172 -5.050004 -0.673327 4.000000
-5.753006 -4.602434 -0.649104 0.000000
-5.817870 -4.508811 -0.601473 2.454545
-5.861492 -4.408903 -0.646208 3.000000
-6.046145 -4.299948 -0.653668 1.000000
-5.990993 -4.317620 -0.650626 1.333333
-6.518043 -4.144440 -0.680524 1.000000
-6.426061 -4.171435 -0.674995 1.000000
-6.276207 -4.215679 -0.666131 1.166667
-6.734462 -4.091239 -0.694250 1.000000
-6.602767 -4.125817 -0.685965 1.333333
-5.138114 -2.841074 -0.620723 0.000000
-5.117330 -2.746187 -0.613994 0.000000
-12.779376 -2.700027 -0.695269 0.000000
-12.756890 -2.618628 -0.693214 0.000000
5.324026 -2.540536 -0.623667 0.000000
-12.514108 -2.391736 -0.678188 46.333332
-12.507381 -2.315863 -0.677090 54.000000
4.373368 -2.266021 -0.694968 0.000000
4.445853 -2.263338 -0.615383 0.000000
-12.490229 -2.231607 -0.675389 54.000000
-12.468299 -2.106673 -0.673103 59.250000
-12.425970 -1.959247 -0.669613 58.000000
8.896261 -1.958383 -0.643535 30.750000
8.957636 -1.920350 -0.647199 38.000000
9.011486 -1.887519 -0.650441 8.000000
-12.406893 -1.816543 -0.667469 50.750000
-5.001673 -1.752547 -0.653742 58.000000
-4.932843 -1.821095 -0.697702 70.882355
11.244101 -1.752738 -0.605756 2.000000
11.936606 -1.822293 -0.642752 2.000000
12.080540 -1.805449 -0.650193 0.000000
-12.390120 -1.655468 -0.665396 53.750000
-5.058141 -1.645585 -0.681275 32.599998
-5.921832 -1.446844 -0.644483 9.500000
-5.804232 -1.466446 -0.632918 8.333333
-6.418589 -1.345489 -0.693337 25.666666
4.406264 -1.353763 -0.691187 0.857143
-7.081621 -1.322730 -0.634711 0.000000
4.464108 -1.322320 -0.656911 2.000000
6.044365 -1.275951 -0.653105 1.000000
6.433911 -1.337084 -0.694738 2.000000
-7.225021 -1.209120 -0.645418 5.500000
4.488873 -1.215574 -0.687059 1.875000
5.364528 -1.150055 -0.676758 1.000000
-7.190112 -1.092610 -0.640757 0.444444
4.731693 -1.131584 -0.600121 26.500000
4.817982 -1.120248 -0.610160 12.500000
4.970143 -1.122732 -0.628523 6.500000
5.093600 -1.125494 -0.643459 2.000000
11.682072 -0.559087 -0.622553 2.000000
12.434209 -0.634241 -0.662738 1.000000
11.396465 -0.509538 -0.607244 0.000000
-4.908263 -0.383703 -0.694633 2.000000
7.865340 -0.054911 -0.692987 2.000000
8.530301 -0.086355 -0.602662 1.000000
7.562682 0.018480 -0.666306 1.000000
7.728034 -0.017550 -0.680875 2.500000
6.915852 0.136376 -0.609435 1.000000
7.039933 0.105676 -0.620318 0.000000
-5.741804 0.243208 -0.607581 0.500000
6.205976 0.258951 -0.656679 0.000000
6.329224 0.209387 -0.669506 0.000000
6.439913 0.167463 -0.681071 0.000000
6.015610 0.317225 -0.636872 4.000000
5.999455 0.404697 -0.635722 0.666667
6.386453 0.528441 -0.677496 0.000000
7.150498 0.557734 -0.631903 1.000000
-4.256952 0.741932 -0.686742 1.375000
-4.386081 0.910709 -0.632043 0.000000
6.438373 0.936479 -0.687841 1.400000
6.271149 0.988765 -0.671188 1.000000
7.557235 1.264647 -0.675083 0.000000
6.171010 1.652318 -0.675393 2.500000
6.267212 1.646510 -0.685066 1.000000
7.164465 1.584404 -0.646472 0.500000
6.097419 1.709933 -0.669506 2.666667
6.264895 1.840259 -0.690323 13.333333
-6.634119 2.129993 -0.613882 2.666667
-5.358641 2.155200 -0.610630 1.000000
-6.660594 2.224509 -0.618694 2.875000
-5.991474 2.193668 -0.674552 1.000000
-5.847131 2.182603 -0.659833 1.000000
-5.508690 2.165369 -0.625769 1.000000
-4.348726 2.262812 -0.604712 4.250000
-4.250944 2.322504 -0.683456 13.000000
-6.595203 2.387443 -0.617977 0.833333
-4.262080 2.404015 -0.603630 5.625000
-6.592267 2.472618 -0.620318 0.000000
-4.221642 2.536749 -0.607548 9.000000
-4.192810 2.683633 -0.614077 7.888889
7.951347 2.955467 -0.599279 1.000000
-4.160399 3.126503 -0.608396 1.909091
6.030856 3.151404 -0.599518 1.750000
6.165475 3.135972 -0.609435 1.000000
6.602425 3.075956 -0.641732 0.000000
-11.069550 3.281091 -0.614579 62.750000
-10.745680 3.351021 -0.599164 69.000000
-4.264658 3.533048 -0.683124 2.000000
5.412707 3.735518 -0.695299 2.833333
5.513370 4.061901 -0.603350 0.000000
5.493036 4.118295 -0.604871 0.000000
5.537869 4.206577 -0.612712 0.000000
-4.279103 4.352905 -0.645324 56.000000
-4.176870 4.356872 -0.638105 56.166668
5.589272 4.329417 -0.622892 0.666667
-11.799477 4.482210 -0.671881 0.000000
-11.864746 4.664118 -0.678614 0.666667
6.997866 5.598331 -0.633105 4.000000
7.039830 5.613804 -0.636112 0.000000
7.169249 5.571055 -0.641421 0.000000
6.337077 5.685762 -0.601478 7.000000
6.483717 5.671952 -0.608581 1.000000
6.654787 5.693653 -0.618729 0.000000
6.754381 5.699728 -0.624367 0.000000
6.880106 5.701859 -0.631273 0.000000
6.727597 5.774400 -0.626340 0.000000
5.668702 6.441417 -0.606185 1.250000
5.690873 6.611695 -0.616286 1.000000
5.710166 6.740406 -0.624085 2.500000
5.750874 6.875642 -0.633246 2.500000
5.819269 7.039315 -0.645226 2.333333
6.234034 10.832566 -0.665289 4.000000
6.312795 10.772881 -0.664652 9.750000
6.220421 10.927783 -0.669329 3.500000
6.211215 11.072916 -0.675814 2.000000
6.221709 11.256803 -0.684638 6.000000
6.241455 11.419169 -0.692717 2.000000
-3.517815 11.815298 -0.656218 28.333334
-3.422585 11.811327 -0.654588 33.666668
-3.270522 11.841542 -0.653935 47.200001
-3.128129 11.983850 -0.659283 42.250000
-3.061699 12.117494 -0.665289 21.000000
-3.036175 12.177438 -0.668054 17.000000
-3.029392 12.314913 -0.675070 35.000000
-2.998399 12.441664 -0.681236 32.500000
-2.973753 12.599494 -0.689103 21.000000
-2.948455 12.761253 -0.697183 19.500000
-11.845161 -29.303072 -0.583701 2.000000
-12.879225 -29.187309 -0.589166 21.000000
-12.713595 -29.183464 -0.587874 255.000000
-12.554588 -29.193501 -0.586877 255.000000
-12.447133 -29.196007 -0.586138 255.000000
-12.288488 -29.204525 -0.585141 255.000000
-12.131538 -29.215990 -0.584218 255.000000
-11.993362 -29.228279 -0.583455 255.000000
-13.316108 -28.818825 -0.586286 2.000000
-13.640828 -28.688738 -0.586655 1.000000
-13.540395 -28.709749 -0.586212 91.000000
-14.482191 -28.583044 -0.591751 18.000000
-14.390524 -28.624825 -0.591677 51.000000
1.239651 -16.603104 -0.596536 55.000000
2.179712 -16.534241 -0.597539 12.000000
2.275891 -16.464783 -0.595534 53.000000
2.434501 -16.466269 -0.596393 55.000000
1.278779 -16.431740 -0.590521 57.000000
1.660099 -16.343342 -0.588587 43.500000
1.975804 -16.374622 -0.590950 50.000000
2.086910 -16.427324 -0.593314 42.500000
2.324247 -16.433802 -0.594674 47.000000
1.371477 -16.298515 -0.586033 55.000000
1.528113 -16.318035 -0.587227 49.333332
1.730966 -16.277719 -0.586511 59.000000
1.838007 -16.308836 -0.588038 55.333332
2.008867 -15.238293 -0.550704 5.000000
2.055122 -15.220022 -0.550274 36.000000
9.520703 -12.871192 -0.573620 13.000000
9.565693 -12.805348 -0.572689 10.000000
-7.388589 -12.558368 -0.522059 2.000000
-7.405590 -12.497264 -0.520483 2.000000
8.490616 -12.266577 -0.534519 45.000000
8.580412 -12.272260 -0.536525 28.500000
8.744488 -12.300013 -0.540726 30.666666
8.864597 -12.263952 -0.542182 27.500000
-7.290751 -12.172477 -0.508381 0.000000
8.263584 -12.141175 -0.526212 53.500000
8.402212 -12.220723 -0.531368 54.000000
7.817253 -12.046667 -0.514539 57.500000
7.941134 -12.070775 -0.517690 57.500000
8.038840 -12.094846 -0.520340 56.000000
8.135868 -12.116538 -0.522918 60.000000
-7.245637 -11.968685 -0.501291 0.000000
7.114590 -11.968056 -0.498856 54.000000
7.224786 -11.981230 -0.501291 51.333332
7.374053 -12.014448 -0.505087 47.500000
7.498151 -12.004181 -0.507116 56.000000
7.666906 -12.020567 -0.510839 50.333332
-7.258232 -11.904906 -0.499572 0.000000
-6.563035 -9.079798 -0.596365 6.833333
6.244476 -9.038453 -0.584777 0.666667
-6.712636 -9.015461 -0.598314 22.000000
6.296827 -8.972767 -0.583501 1.000000
6.374434 -8.874355 -0.581623 2.500000
6.445212 -8.825643 -0.581730 0.000000
7.331810 -8.487989 -0.597038 0.000000
6.523875 -8.194302 -0.557544 0.000000
6.948312 -8.146836 -0.569965 4.333333
6.630950 -8.130245 -0.558469 1.600000
6.789215 -8.113915 -0.563161 6.666667
-6.924718 -7.876698 -0.558270 0.000000
-6.958800 -7.832377 -0.557703 0.000000
-6.444498 -7.778995 -0.537717 0.000000
-6.413103 -7.667389 -0.532083 0.000000
-6.361213 -7.496941 -0.523365 0.000000
-6.300245 -7.284880 -0.512681 0.000000
-6.554551 -7.148028 -0.516243 0.000000
-6.283835 -7.117587 -0.505399 0.000000
-6.476749 -7.018786 -0.508376 0.000000
-6.324910 -6.941243 -0.499871 0.000000
-7.318381 -6.755714 -0.530169 1.000000
-7.367040 -6.672979 -0.529106 0.500000
-6.717553 -6.582897 -0.500650 0.333333
-6.065875 -5.546674 -0.580675 3.000000
-6.459346 -5.474049 -0.598152 0.000000
8.474969 -5.477506 -0.537150 34.666668
-6.150859 -5.397975 -0.578138 0.000000
-5.958806 -5.397543 -0.567991 0.500000
8.528736 -5.420858 -0.537930 4.000000
-5.924840 -5.316054 -0.562353 0.000000
8.591547 -5.217580 -0.535059 127.500000
8.623882 -5.108367 -0.533550 255.000000
8.650581 -4.996442 -0.531764 255.000000
8.662716 -4.931116 -0.530594 255.000000
8.714762 -4.864456 -0.531268 108.333336
-5.828554 -4.753654 -0.531346 0.000000
-5.835485 -4.698588 -0.529279 0.000000
-7.127624 -4.469443 -0.594346 2.500000
-5.932583 -4.462359 -0.524440 7.000000
-7.110723 -4.366061 -0.589484 2.500000
-5.967219 -4.376858 -0.565612 2.333333
-6.333662 -4.268765 -0.539591 1.000000
-6.261784 -4.296996 -0.536514 1.000000
-6.113615 -4.318910 -0.528809 1.400000
-7.033772 -4.182993 -0.578138 1.000000
-7.020661 -4.071142 -0.573346 0.833333
8.661636 -3.893587 -0.505505 12.500000
8.880659 -3.817268 -0.514542 0.000000
8.980799 -3.826930 -0.519644 0.000000
-5.204602 -2.813930 -0.583543 5.000000
-5.179049 -2.751426 -0.551108 9.333333
-5.042624 -2.545097 -0.597172 0.000000
4.537148 -2.375750 -0.583275 9.200000
9.972555 -2.434736 -0.546435 3.000000
4.519012 -2.260821 -0.573599 0.111111
4.613643 -2.246238 -0.542502 1.000000
10.030880 -2.078055 -0.545286 9.200000
10.098022 -1.966574 -0.547625 0.600000
-5.078218 -1.770402 -0.568575 28.200001
10.100161 -1.802697 -0.546137 14.200000
10.922960 -1.737844 -0.588746 2.000000
-5.211757 -1.643999 -0.577775 59.625000
-5.121469 -1.713624 -0.570958 70.333336
10.228650 -1.726374 -0.552175 7.000000
10.328601 -1.709889 -0.557278 8.000000
10.582314 -1.717752 -0.570673 1.000000
-5.525046 -1.572869 -0.546432 15.900000
-5.344129 -1.580281 -0.589182 47.125000
-5.643018 -1.528439 -0.574091 17.857143
-6.416077 -1.397713 -0.578542 0.000000
-6.294778 -1.423136 -0.568595 0.000000
4.638088 -1.414466 -0.512643 0.000000
6.555346 -1.394507 -0.590478 5.500000
-7.418021 -1.289317 -0.531910 2.000000
-7.341161 -1.311582 -0.526836 1.500000
-7.168801 -1.325602 -0.587521 0.000000
5.737828 -1.258101 -0.569822 1.000000
5.929451 -1.310186 -0.535011 1.000000
6.139888 -1.336467 -0.553617 1.000000
4.602006 -1.215902 -0.587144 0.000000
4.688039 -1.226192 -0.546251 0.200000
4.834191 -1.172062 -0.525890 14.500000
4.974820 -1.156729 -0.539978 3.000000
5.112090 -1.163315 -0.554277 1.000000
5.270976 -1.182067 -0.571099 0.000000
5.387303 -1.190391 -0.583294 1.000000
5.539536 -1.233114 -0.550080 1.000000
10.955020 -0.455321 -0.583643 1.000000
10.720903 -0.411855 -0.571099 8.000000
-4.760965 -0.296227 -0.532405 1.000000
-4.549531 -0.268697 -0.562169 0.000000
10.508143 -0.321207 -0.559617 10.000000
10.428527 -0.171175 -0.555195 0.000000
8.438762 -0.058914 -0.596179 5.000000
10.403107 -0.056284 -0.553770 0.000000
-4.797300 -0.012526 -0.554072 1.444444
7.672757 0.042853 -0.542058 1.000000
7.772605 0.018992 -0.549105 1.000000
7.968139 -0.005563 -0.562917 1.000000
8.167583 -0.031362 -0.577011 1.000000
-5.729385 0.161520 -0.568025 1.125000
-4.790502 0.082909 -0.554721 1.285714
7.056808 0.150283 -0.498648 0.000000
7.227993 0.093253 -0.594940 0.333333
7.370955 0.098961 -0.520775 0.500000
7.528948 0.065704 -0.531910 1.000000
-5.783160 0.167600 -0.509735 0.000000
6.475779 0.239598 -0.570936 0.000000
6.647101 0.204249 -0.585914 0.000000
6.747564 0.175463 -0.594691 0.000000
6.190848 0.316794 -0.546157 3.250000
6.325543 0.273967 -0.557830 0.000000
6.175211 0.397039 -0.545192 0.666667
-5.689929 0.650297 -0.554818 0.500000
-4.744514 0.613766 -0.551742 1.363636
-5.637861 0.693099 -0.529038 1.000000
-4.734704 0.707566 -0.548313 1.285714
-4.449455 0.910104 -0.560211 0.000000
-4.720278 0.980960 -0.509699 1.000000
7.175202 1.488467 -0.539068 0.833333
8.172996 1.553169 -0.587722 0.000000
6.315395 1.637811 -0.574831 2.571429
6.415160 1.578089 -0.582053 0.000000
8.175910 1.580352 -0.588286 1.000000
6.281219 1.713634 -0.573627 0.000000
-5.219398 2.151688 -0.596857 1.000000
-5.094642 2.151971 -0.584696 1.000000
-4.919022 2.141767 -0.567208 1.000000
-4.777479 2.117399 -0.591818 1.285714
-5.823146 2.236399 -0.549580 0.000000
-5.672647 2.199157 -0.589434 0.800000
-5.420596 2.229781 -0.516405 0.000000
-4.606904 2.180450 -0.538857 2.166667
-4.449317 2.227718 -0.552844 3.461539
-6.825034 2.351672 -0.560206 1.600000
-6.749280 2.351727 -0.567011 2.000000
10.605135 2.432796 -0.579178 0.000000
10.561437 2.527754 -0.578073 1.400000
-4.616499 2.656471 -0.563108 0.333333
-4.542683 2.633300 -0.555118 0.000000
-4.738624 2.663026 -0.574673 1.000000
10.541324 2.698688 -0.579221 1.200000
-4.165791 2.825899 -0.576562 3.888889
10.498482 2.846510 -0.579019 3.250000
-4.158762 2.982402 -0.589047 3.133333
7.718162 2.979702 -0.584481 0.000000
7.844949 2.972115 -0.592655 0.500000
10.495497 2.987783 -0.580879 2.250000
-9.894774 3.154020 -0.552813 60.000000
-5.481672 3.120347 -0.555723 0.000000
-4.736168 3.137121 -0.500529 1.222222
6.792825 3.087082 -0.527118 1.000000
6.881301 3.075273 -0.532474 0.000000
10.503044 3.133172 -0.583431 1.000000
-10.569124 3.259567 -0.588746 92.000000
-10.434130 3.182068 -0.580666 85.000000
-9.755202 3.228111 -0.546966 73.500000
-4.700162 3.231551 -0.502538 1.000000
-4.209371 3.244466 -0.580410 2.200000
5.720509 3.257436 -0.579996 4.571429
5.853077 3.200273 -0.587740 2.500000
-10.460816 3.298285 -0.583856 55.000000
-10.314427 3.323517 -0.576839 40.000000
-9.972741 3.352324 -0.560042 70.000000
-4.259727 3.341285 -0.572360 2.000000
5.627743 3.334861 -0.576348 5.000000
-10.316608 3.431693 -0.578753 48.000000
-9.723038 3.439192 -0.548986 49.666668
-5.468980 3.368474 -0.565904 0.000000
-4.291998 3.415916 -0.579930 1.250000
5.556645 3.434176 -0.575533 0.000000
-10.325567 3.561483 -0.581411 59.000000
-9.746325 3.516582 -0.551538 8.000000
5.529035 3.552329 -0.579010 0.000000
5.457594 3.779048 -0.584861 0.333333
5.457900 3.868850 -0.589425 1.000000
5.676190 4.255611 -0.501185 0.000000
5.713833 4.340374 -0.506916 2.666667
-4.916719 4.437794 -0.583545 34.500000
-4.775106 4.434010 -0.574119 32.599998
-4.620295 4.427411 -0.563798 26.799999
-4.470276 4.420440 -0.553898 41.599998
-4.316775 4.418673 -0.544255 52.000000
-4.158533 4.420430 -0.534718 54.333332
-4.012032 4.429147 -0.526527 62.166668
5.752241 4.455229 -0.556004 0.000000
6.073445 5.749390 -0.590823 11.000000
6.178469 5.721175 -0.594882 9.600000
5.855561 5.847353 -0.584622 16.857143
5.993136 5.781391 -0.588286 12.250000
5.773353 5.912044 -0.583776 17.000000
5.724850 5.992932 -0.585514 6.666667
5.681071 6.137341 -0.590823 0.000000
5.670340 6.282290 -0.597870 1.000000
6.406321 6.942464 -0.502847 0.000000
6.386787 7.009151 -0.504761 0.000000
6.408775 6.989051 -0.504761 0.000000
5.914078 8.154976 -0.536229 3.000000
6.033864 8.130398 -0.538950 2.600000
6.196592 8.107643 -0.543192 2.000000
6.338057 8.080196 -0.546647 3.000000
5.602306 8.258982 -0.531232 3.000000
5.737951 8.206740 -0.533040 11.800000
5.846456 8.169233 -0.534740 3.500000
5.557031 8.389544 -0.535662 0.000000
5.538253 8.505440 -0.540269 0.000000
5.563083 8.692236 -0.549340 0.000000
5.560267 8.839904 -0.555896 0.000000
5.577245 8.991777 -0.563232 0.000000
5.585011 9.099644 -0.568335 0.000000
5.616650 9.281502 -0.577477 0.000000
5.657949 9.450105 -0.586301 4.000000
-3.218562 10.647062 -0.592077 1.333333
6.929212 13.059353 -0.529698 2.666667
7.065657 13.038205 -0.531340 2.400000
6.788021 13.089783 -0.528313 2.000000
6.629181 13.186639 -0.528819 1.800000
6.527462 13.347872 -0.532371 1.000000
6.491124 13.487683 -0.536310 1.500000
6.478187 13.624614 -0.540535 1.000000
6.475005 13.785265 -0.545691 1.000000
6.499228 14.007791 -0.553282 0.000000
6.562136 14.260550 -0.562449 1.000000
-2.803832 14.277917 -0.521343 3.000000
9.477568 27.744864 -0.541454 93.500000
9.617381 27.726379 -0.541971 91.000000
9.760560 27.716545 -0.542673 85.500000
9.950740 27.699837 -0.543559 74.500000
9.021472 27.831345 -0.540309 178.500000
9.199314 27.783600 -0.540494 95.500000
9.339069 27.766512 -0.541011 88.000000
8.911502 27.940258 -0.541602 10.000000
8.850153 28.052027 -0.543227 5.000000
8.814399 28.247673 -0.546476 5.000000
8.804626 28.531265 -0.551425 3.000000
8.952174 30.358183 -0.584513 51.000000
9.046360 30.326077 -0.584439 47.000000
9.171370 30.281504 -0.584316 40.000000
8.712904 30.425598 -0.584476 53.000000
8.853400 30.374640 -0.584292 56.000000
8.488144 30.545147 -0.585473 23.000000
8.569985 30.468281 -0.584513 44.000000
8.433431 30.722071 -0.588354 15.000000
8.427924 31.084229 -0.594780 12.000000
3.180104 -13.205690 -0.486682 6.500000
3.277028 -13.153223 -0.485679 32.000000
3.336874 -13.043253 -0.482385 29.250000
3.446730 -13.045684 -0.483459 31.000000
3.778575 -12.972198 -0.484104 20.500000
3.946875 -12.965847 -0.485608 31.833332
4.017558 -12.954622 -0.485966 28.000000
3.492073 -12.888720 -0.478446 32.500000
3.575679 -12.876148 -0.478805 30.000000
3.634666 -12.776522 -0.475940 34.000000
3.795381 -12.804788 -0.478518 23.000000
3.958964 -12.625349 -0.474078 32.000000
3.984999 -12.501808 -0.470139 31.500000
6.018604 -12.361870 -0.492626 49.500000
4.033011 -12.317534 -0.464386 42.333332
4.152476 -12.194313 -0.461558 40.583336
5.832808 -12.174152 -0.483674 67.500000
6.018103 -12.166190 -0.486324 51.500000
4.267124 -12.063311 -0.458466 42.500000
4.539771 -12.045970 -0.461235 52.666668
5.569542 -12.042512 -0.475391 31.833334
5.722420 -12.089486 -0.479234 26.000000
4.375131 -12.007476 -0.457894 42.750000
4.891660 -11.944907 -0.462477 38.000000
4.945951 -11.970121 -0.464052 35.000000
5.399951 -11.987449 -0.471070 34.000000
6.002981 -11.992902 -0.480523 48.000000
6.961277 -11.965471 -0.495992 47.000000
7.004893 -11.953891 -0.496421 53.000000
4.569039 -11.840890 -0.454743 39.000000
4.675686 -11.839279 -0.456079 40.666668
4.803106 -11.888129 -0.459397 39.000000
4.996793 -11.881031 -0.461808 39.333332
5.146016 -11.869061 -0.463515 40.500000
5.282580 -11.875735 -0.465699 35.000000
5.414439 -11.919473 -0.469065 31.000000
6.031669 -11.863464 -0.476847 51.000000
6.176446 -11.869908 -0.479425 55.333332
6.317511 -11.866429 -0.481669 54.666668
6.460270 -11.863715 -0.484008 51.333332
6.608125 -11.867479 -0.486682 52.333332
6.765852 -11.885715 -0.490024 61.666668
6.883665 -11.918053 -0.493127 52.000000
7.044446 -11.935268 -0.496565 58.000000
-7.316539 -11.749978 -0.495944 0.000000
-7.262132 -11.827540 -0.497281 0.000000
-7.273589 -11.519031 -0.488114 0.000000
-7.463042 -11.339818 -0.486396 1.000000
-7.310283 -11.378259 -0.484569 4.750000
-7.560765 -11.332606 -0.488114 0.000000
-7.452070 -11.323031 -0.485679 3.000000
-6.773958 -10.050518 -0.434261 6.000000
-6.742579 -9.902802 -0.429248 9.000000
-6.729086 -9.783657 -0.425453 8.500000
-6.693259 -9.601824 -0.419366 11.500000
-6.670433 -9.442037 -0.414210 10.500000
-6.657498 -9.299172 -0.409770 10.500000
-6.730026 -9.185319 -0.407994 11.000000
6.698494 -9.175833 -0.407048 0.000000
6.749495 -9.164858 -0.407812 3.333333
-7.014928 -9.056548 -0.410450 17.750000
-6.924802 -9.086814 -0.409340 18.000000
-6.855542 -9.114134 -0.408624 17.000000
-7.535269 -8.948415 -0.419151 1.000000
-7.323672 -9.008458 -0.415976 0.000000
-7.174827 -9.026349 -0.413135 4.500000
6.689184 -8.984043 -0.401319 1.000000
-7.600087 -8.920582 -0.419891 2.000000
6.692990 -8.901297 -0.399028 1.000000
7.696474 -8.553724 -0.412276 2.000000
7.773840 -8.540318 -0.413780 0.666667
7.251167 -8.451012 -0.398980 1.000000
7.360028 -8.469729 -0.402035 1.000000
7.431336 -8.497721 -0.404470 1.000000
7.529081 -8.511794 -0.407163 1.000000
-6.284306 -6.940353 -0.498382 0.000000
-6.330862 -6.753524 -0.492748 0.000000
-6.447296 -6.664708 -0.493598 10.500000
-6.385095 -6.705004 -0.492854 10.000000
-6.515731 -6.630498 -0.494839 6.000000
-6.121891 -5.423972 -0.435376 2.000000
-6.058502 -5.283352 -0.427899 2.000000
-6.018372 -5.198586 -0.423327 1.000000
-5.971828 -5.093321 -0.417799 6.666667
-5.940769 -4.955095 -0.411793 15.250000
-5.936522 -4.810843 -0.406743 2.000000
-5.905022 -4.648667 -0.400045 2.500000
-5.892619 -4.638712 -0.399195 2.500000
-7.010706 -4.473161 -0.442676 1.666667
-6.050461 -4.447757 -0.399726 1.000000
-7.048806 -4.358518 -0.441152 3.333333
-6.265758 -4.338430 -0.405680 1.200000
-6.122748 -4.397923 -0.401286 1.000000
-6.380896 -4.315286 -0.410039 0.000000
-6.958580 -4.160445 -0.431566 1.000000
-7.013819 -4.121405 -0.433037 0.333333
-12.595538 -2.835111 -0.462584 27.000000
-5.333913 -2.771452 -0.424654 4.250000
-12.572353 -2.715973 -0.460854 34.666668
-5.292105 -2.660505 -0.418453 2.000000
-12.542995 -2.565645 -0.458717 42.750000
-5.249659 -2.557192 -0.412533 1.000000
-12.520444 -2.417901 -0.456891 59.333332
-5.217186 -2.410842 -0.406030 1.714286
4.654153 -2.363240 -0.459885 26.333334
-12.504670 -2.292811 -0.455506 50.000000
-5.188993 -2.260688 -0.399869 2.714286
4.679533 -2.271284 -0.419109 25.571428
-12.493946 -2.209764 -0.454599 38.000000
4.595300 -2.166304 -0.447598 0.000000
8.954958 -2.156508 -0.490303 16.000000
-12.472398 -2.105130 -0.453203 44.500000
4.672914 -2.121272 -0.399669 17.333334
8.889207 -2.081736 -0.485980 47.333332
-12.450407 -1.960844 -0.451592 45.333332
8.891415 -1.979267 -0.484881 54.000000
8.990105 -1.917438 -0.489311 24.000000
-12.426680 -1.817330 -0.449980 47.000000
-12.399006 -1.654423 -0.448190 46.500000
-5.360660 -1.644893 -0.445015 41.333332
-5.234247 -1.698617 -0.463310 44.000000
-5.625908 -1.601501 -0.413238 0.500000
-5.521599 -1.628062 -0.406684 9.000000
-12.375816 -1.512994 -0.446722 46.333332
-6.385746 -1.460667 -0.439865 0.000000
-6.254795 -1.476176 -0.454017 0.333333
-12.357747 -1.392713 -0.445576 38.000000
5.924993 -1.367892 -0.429587 1.000000
6.201602 -1.411246 -0.449319 4.000000
6.295814 -1.401485 -0.455661 2.000000
-12.342446 -1.312489 -0.444717 34.000000
4.826499 -1.250830 -0.439289 65.666664
5.126516 -1.251668 -0.418795 4.000000
5.404358 -1.247694 -0.488671 1.000000
5.551366 -1.318427 -0.403090 1.000000
5.703109 -1.335552 -0.413802 1.000000
-12.331409 -1.213491 -0.443965 37.250000
4.971495 -1.213660 -0.450874 8.333333
5.280144 -1.236502 -0.477789 0.000000
-12.305856 -1.055026 -0.442533 34.500000
-12.280268 -0.897536 -0.441172 36.250000
-12.256516 -0.760393 -0.439990 41.000000
-12.238150 -0.624260 -0.439059 41.000000
-12.209078 -0.469050 -0.437770 33.750000
11.727738 -0.452584 -0.420512 0.000000
11.375497 -0.343586 -0.407764 1.666667
11.469434 -0.406535 -0.411202 1.000000
-12.185036 -0.314853 -0.436732 31.750000
-4.835300 -0.239869 -0.426534 0.000000
-4.609467 -0.250494 -0.488041 0.000000
11.255400 -0.275123 -0.403396 2.000000
-12.163049 -0.161372 -0.435837 36.750000
-4.712642 -0.218946 -0.415652 1.000000
-4.658036 -0.189912 -0.426984 0.600000
11.119297 -0.184482 -0.398455 2.000000
-12.134135 -0.008497 -0.434763 46.500000
8.024514 0.044818 -0.427155 1.000000
8.224332 0.020096 -0.437786 2.000000
8.392118 -0.005859 -0.446716 3.000000
-12.110301 0.143727 -0.433939 38.250000
7.488163 0.135936 -0.398663 0.000000
7.666444 0.102995 -0.408125 1.000000
7.868560 0.068668 -0.418862 1.000000
6.748160 0.249883 -0.418034 1.500000
6.807811 0.209187 -0.481171 0.000000
6.926381 0.180117 -0.489487 0.500000
-12.342831 0.359860 -0.442425 37.000000
-12.103693 0.276809 -0.433784 43.666668
6.379690 0.326508 -0.451292 3.250000
6.481753 0.280732 -0.458339 1.000000
-12.369583 0.438427 -0.443475 66.000000
6.426142 0.389697 -0.454815 1.500000
-12.352921 0.554462 -0.443046 67.666664
6.969997 0.521690 -0.493785 0.000000
7.010871 0.524689 -0.496675 0.000000
-12.335926 0.631384 -0.442568 70.000000
-12.322532 0.727746 -0.442282 68.250000
-5.602800 0.729665 -0.497799 1.000000
-4.513568 0.856802 -0.445109 0.000000
6.396429 0.844378 -0.455802 0.000000
-12.295118 0.884086 -0.441668 46.571430
-4.598011 0.895530 -0.440106 0.333333
6.409561 0.866606 -0.456929 0.000000
-12.271211 1.030872 -0.441222 68.599998
-12.247787 1.191837 -0.440907 82.000000
-12.220732 1.340530 -0.440492 103.500000
-12.203944 1.435795 -0.440277 124.000000
-12.191998 1.512112 -0.440181 143.000000
6.519673 1.549563 -0.473419 3.000000
6.649565 1.481251 -0.421697 1.166667
-12.170311 1.645470 -0.440026 102.500000
6.469587 1.597615 -0.470782 2.428571
-12.105162 1.791927 -0.438451 19.250000
-12.119192 1.949861 -0.439811 157.000000
-12.098954 2.094521 -0.439949 113.285713
-6.622843 2.122550 -0.491319 0.500000
-12.081389 2.236978 -0.440229 64.000000
-6.645662 2.202083 -0.494596 1.000000
-5.699253 2.261008 -0.433157 0.666667
-5.027874 2.209986 -0.445473 1.000000
-4.919424 2.214218 -0.418545 2.200000
-4.764633 2.209508 -0.416770 1.200000
-4.608443 2.243598 -0.406690 4.357143
-4.516263 2.260579 -0.444965 7.000000
12.012801 2.241626 -0.437842 0.000000
11.096399 2.360636 -0.406475 0.000000
11.269815 2.342038 -0.412419 1.000000
11.466821 2.326700 -0.419223 0.000000
11.587756 2.313359 -0.423376 0.000000
11.783247 2.313916 -0.430251 0.000000
11.868726 2.279084 -0.433020 0.666667
-6.587195 2.363276 -0.442331 1.000000
10.960163 2.385618 -0.401892 0.500000
7.541632 3.048517 -0.433002 1.500000
7.646028 3.034961 -0.437892 1.000000
7.446615 3.064659 -0.428643 0.000000
10.690151 3.086556 -0.398670 0.000000
-11.333794 3.168776 -0.421657 26.000000
-11.207270 3.190360 -0.417504 28.000000
-4.437102 3.196436 -0.433813 0.000000
-4.391840 3.174491 -0.477438 0.000000
6.053175 3.225346 -0.447233 1.500000
6.150877 3.189657 -0.489487 1.500000
10.762001 3.189893 -0.402179 0.000000
12.079462 3.191522 -0.447653 0.000000
-11.169312 3.274669 -0.417038 17.750000
-11.094543 3.347527 -0.415212 12.000000
-4.414632 3.293600 -0.408190 2.400000
-4.328449 3.326192 -0.480948 1.000000
5.749328 3.309935 -0.468674 5.000000
5.880952 3.284812 -0.411626 1.454545
10.844396 3.313442 -0.406284 0.000000
10.990397 3.332853 -0.411488 0.000000
12.048847 3.274769 -0.447366 0.000000
-11.301905 3.448867 -0.423376 14.000000
-10.728914 3.459140 -0.403897 0.000000
10.756121 3.410052 -0.404291 0.000000
-10.861598 3.464289 -0.408481 4.000000
-5.565845 3.549885 -0.466372 0.000000
5.621602 3.475984 -0.466936 0.000000
-11.760835 3.629344 -0.440993 9.000000
5.625226 3.594790 -0.406855 3.333333
-11.856222 3.699612 -0.445003 6.000000
-11.391613 3.751754 -0.429726 16.333334
-11.238520 3.701558 -0.423949 20.000000
-11.021463 3.745571 -0.417074 14.000000
-11.964376 3.795345 -0.449730 7.500000
-11.893116 3.834493 -0.447725 12.000000
-11.556812 3.846683 -0.436410 14.000000
-11.189335 3.868079 -0.424188 13.333333
5.624166 4.161750 -0.494279 0.000000
-12.008033 4.207509 -0.455888 4.000000
-4.317099 4.446948 -0.437855 31.666666
-4.161690 4.451726 -0.430527 55.000000
-5.222742 4.531239 -0.428238 0.000000
-5.113270 4.531507 -0.435024 1.400000
-4.542145 4.477614 -0.450587 1.000000
-4.018341 4.478375 -0.425077 19.142857
-3.928306 4.518988 -0.423010 0.000000
-5.073190 4.629141 -0.432069 0.666667
6.975794 5.634773 -0.477333 1.000000
7.073470 5.613401 -0.480682 0.250000
6.320316 5.754915 -0.455008 1.000000
6.415814 5.756581 -0.458835 0.000000
6.019181 5.824759 -0.445865 12.600000
6.168100 5.792994 -0.450436 7.750000
6.288238 5.804638 -0.455539 4.500000
5.940560 5.895092 -0.445493 4.250000
5.853006 5.974902 -0.445227 0.000000
5.812011 6.122674 -0.449373 0.000000
5.808924 6.216245 -0.452882 0.000000
6.254951 6.589016 -0.483605 0.500000
5.851441 6.776611 -0.476589 0.000000
6.027600 6.784278 -0.483074 0.000000
-3.783454 6.945117 -0.420989 0.000000
5.911638 6.911861 -0.484137 1.000000
6.252132 6.904823 -0.495831 0.000000
-3.716138 7.009257 -0.422307 0.000000
-3.672668 7.164775 -0.428572 0.000000
6.005656 9.445171 -0.401033 0.000000
6.099963 9.527252 -0.405330 0.000000
6.169329 9.525360 -0.406619 0.000000
6.324441 9.544389 -0.410235 0.500000
6.450867 10.786659 -0.450323 0.571429
6.390604 10.940824 -0.453979 0.000000
6.376374 11.075429 -0.457894 0.000000
6.422874 11.237700 -0.463766 0.000000
6.418534 11.522408 -0.472574 0.000000
6.422946 11.688239 -0.477850 0.666667
6.778740 11.816996 -0.488114 0.000000
-3.668529 11.895147 -0.446006 23.000000
-3.565432 11.891655 -0.444812 27.000000
-3.424331 11.894888 -0.443499 28.000000
-3.306174 11.905517 -0.442712 26.500000
-3.234944 11.939564 -0.443213 21.500000
6.950326 11.941762 -0.495061 0.000000
7.009531 11.914083 -0.495276 0.000000
-3.171087 12.002169 -0.444788 20.500000
-3.101577 12.124162 -0.448393 22.000000
-3.052825 12.253327 -0.452451 17.000000
-3.029584 12.324967 -0.454743 15.000000
-2.999951 12.457640 -0.459111 10.000000
-2.973852 12.609758 -0.464196 9.000000
-2.957758 12.720273 -0.467919 7.000000
-2.945471 12.850289 -0.472359 5.000000
-2.948244 13.050540 -0.479377 1.000000
-7.726016 -15.013859 -0.311829 1.000000
-7.734484 -14.914957 -0.310278 3.000000
-8.982165 -13.647970 -0.301735 2.000000
-8.814117 -13.671523 -0.300406 2.000000
-8.670443 -13.683496 -0.299162 3.000000
-9.283223 -13.634119 -0.304616 1.333333
-9.125036 -13.630779 -0.302929 2.000000
6.657433 -8.710856 -0.392821 1.000000
6.778301 -8.669591 -0.394301 1.000000
6.833790 -8.600492 -0.393585 1.000000
6.920536 -8.543056 -0.393929 1.200000
7.051745 -8.430908 -0.393814 1.400000
-6.670848 -7.763844 -0.366754 0.666667
-6.651857 -7.676407 -0.363937 0.000000
-6.591727 -7.511342 -0.358065 0.333333
-6.556159 -7.353374 -0.352980 1.000000
-6.541307 -7.267407 -0.350331 2.000000
-6.525706 -7.181792 -0.347681 1.500000
-6.502789 -7.044655 -0.343504 0.000000
-6.487650 -6.896667 -0.339255 3.333333
-6.567011 -6.764797 -0.337809 5.571429
-6.736380 -6.661476 -0.339446 8.000000
-6.664115 -6.694424 -0.338443 8.000000
-6.872808 -6.627614 -0.342095 1.500000
-7.427638 -6.474944 -0.353052 0.000000
-7.350841 -6.489747 -0.351333 0.500000
8.474420 -5.479233 -0.361574 36.166668
8.537760 -5.428686 -0.362505 2.000000
8.610839 -5.225182 -0.360882 170.666672
8.635858 -5.117482 -0.359669 255.000000
8.663725 -4.978909 -0.358029 255.000000
8.729398 -4.851913 -0.357836 113.599998
-5.962974 -4.514603 -0.398132 0.750000
-7.321918 -4.122192 -0.301061 0.250000
8.665431 -3.899823 -0.340472 16.000000
-5.528461 -2.707948 -0.327691 9.400000
-5.407744 -2.560902 -0.318505 13.200000
-5.320719 -2.408158 -0.310887 5.833333
5.297306 -2.366261 -0.308831 1.000000
-5.298847 -2.318321 -0.307874 7.500000
4.771428 -2.286085 -0.373774 9.000000
5.256430 -2.273433 -0.304855 4.900000
-5.293303 -2.202967 -0.305199 10.000000
8.965393 -2.160677 -0.330422 22.000000
-5.310031 -2.098134 -0.303926 10.857142
-5.186964 -2.115801 -0.395761 4.000000
8.885345 -2.082446 -0.326985 50.333332
-5.359399 -1.963428 -0.303835 16.111111
-5.196517 -1.968889 -0.392590 7.625000
4.651854 -1.965170 -0.356768 35.444443
8.898919 -1.982582 -0.326663 54.500000
-5.414604 -1.859056 -0.304738 21.500000
8.996419 -1.915524 -0.329563 15.500000
-5.480748 -1.786049 -0.306847 19.166666
-5.197494 -1.798706 -0.397215 40.272728
4.662198 -1.815923 -0.353479 51.222221
-5.681109 -1.646050 -0.314848 31.600000
-5.552959 -1.703979 -0.309193 26.799999
4.691740 -1.667894 -0.351788 51.099998
-5.946124 -1.587011 -0.327595 0.000000
-5.831753 -1.610636 -0.322049 6.333333
4.731196 -1.546374 -0.351647 28.833334
-6.264591 -1.530461 -0.343276 0.250000
4.801226 -1.475103 -0.354841 24.833334
-7.125827 -1.377377 -0.386331 3.000000
-7.052107 -1.404464 -0.382759 3.200000
4.840043 -1.362211 -0.381288 27.200001
5.457398 -1.423580 -0.300220 4.000000
5.564313 -1.414086 -0.305606 4.666667
5.719131 -1.415341 -0.313615 3.000000
5.881022 -1.425945 -0.322120 1.000000
4.957880 -1.309765 -0.362274 15.400000
5.069786 -1.288504 -0.369546 9.000000
5.275441 -1.296642 -0.383781 6.000000
5.388152 -1.297560 -0.391533 1.000000
-5.035991 -0.186422 -0.356016 1.000000
-4.940845 -0.167357 -0.349251 0.000000
-4.856654 -0.107348 -0.343190 1.500000
11.036332 -0.113650 -0.395447 3.000000
-4.759078 -0.011832 -0.336222 0.888889
10.900845 0.058980 -0.390577 3.000000
10.963863 -0.026879 -0.392833 2.750000
-4.727424 0.084956 -0.334029 1.000000
7.371890 0.156993 -0.392497 0.000000
8.386045 0.098068 -0.300488 0.000000
10.896493 0.104602 -0.390434 3.000000
-4.657894 0.169053 -0.329284 0.000000
6.915854 0.245066 -0.368365 1.500000
7.038708 0.216282 -0.374850 1.000000
7.203355 0.187299 -0.383567 0.000000
10.963758 0.162663 -0.392869 1.000000
-4.621233 0.288524 -0.327123 0.125000
6.646748 0.298327 -0.392655 2.500000
-4.602159 0.430935 -0.326559 0.000000
6.590233 0.441095 -0.351595 5.125000
-4.625339 0.543378 -0.329012 0.000000
6.562035 0.553324 -0.350540 7.333333
6.552882 0.625209 -0.350399 11.250000
-4.666940 0.720068 -0.333606 0.500000
6.547247 0.739054 -0.350733 19.142857
-4.708027 0.779410 -0.337130 0.000000
-4.916140 0.909378 -0.353197 0.000000
-4.800582 0.864699 -0.344600 0.000000
6.570119 0.888400 -0.352920 9.142858
6.586767 1.038568 -0.354955 1.142857
6.591518 1.188528 -0.356534 0.428571
6.642828 1.338358 -0.360711 0.833333
6.709855 1.512639 -0.366132 4.200000
-5.747671 2.301232 -0.329562 0.000000
-5.650506 2.303538 -0.324813 0.333333
-5.533839 2.296719 -0.318931 0.000000
-5.189623 2.288898 -0.301921 0.000000
-4.570173 2.341685 -0.362781 0.250000
-6.473944 2.381949 -0.367196 0.000000
-6.200985 2.370406 -0.353375 0.000000
-4.527409 2.401230 -0.362048 0.000000
10.824030 2.427367 -0.397452 0.500000
-4.664567 2.530546 -0.374902 1.000000
-4.460349 2.524482 -0.362089 0.000000
10.771560 2.486794 -0.396092 0.000000
10.734178 2.567135 -0.395447 0.000000
10.699449 2.683568 -0.395232 0.000000
10.699345 2.823300 -0.396478 0.000000
10.670265 2.988455 -0.397023 0.000000
6.766590 3.139397 -0.397069 1.000000
6.187276 3.233111 -0.371607 0.750000
6.296597 3.215201 -0.376338 0.000000
-9.723497 3.429905 -0.369428 29.666666
-4.415011 3.363336 -0.392097 4.000000
5.714560 3.447127 -0.376295 1.181818
5.822290 3.376399 -0.358265 1.000000
-10.457453 3.553952 -0.395733 1.000000
-9.839547 3.517255 -0.374393 34.000000
-9.734449 3.514217 -0.370812 24.000000
5.656953 3.534856 -0.355076 6.000000
-10.185307 3.713188 -0.388429 85.000000
-10.064305 3.740927 -0.384705 47.666668
5.666862 3.742455 -0.361497 16.600000
-10.115412 3.832388 -0.387570 45.000000
-10.028650 3.835586 -0.384705 14.000000
5.685883 3.884618 -0.366558 30.600000
5.706340 4.018109 -0.371501 4.000000
5.765169 4.182693 -0.379145 3.200000
5.784063 4.294093 -0.383461 2.500000
5.819715 4.363216 -0.387182 0.000000
-4.027196 4.530949 -0.322687 0.000000
-5.168262 4.562851 -0.366983 0.000000
-4.691942 4.639825 -0.351249 0.000000
-3.919004 4.677836 -0.324842 0.000000
7.423372 5.655066 -0.334361 0.000000
7.529940 5.643297 -0.337154 0.333333
7.625502 5.621982 -0.339446 5.000000
7.705932 5.606880 -0.341451 4.500000
6.784605 5.747465 -0.318592 0.000000
6.949563 5.720542 -0.322509 0.250000
7.090700 5.707077 -0.326126 0.000000
6.334782 5.827031 -0.308394 7.600000
6.477777 5.791681 -0.311338 6.750000
6.623114 5.773523 -0.314811 1.250000
6.132117 5.932055 -0.305692 6.000000
6.211978 5.878425 -0.306432 6.500000
6.036725 6.007265 -0.305143 3.333333
5.935551 6.104835 -0.305083 3.000000
5.857073 6.285494 -0.307829 6.250000
5.874929 6.445292 -0.312471 8.000000
5.898300 6.594737 -0.317007 6.333333
5.932663 6.738849 -0.321686 4.500000
5.963946 6.839008 -0.325123 0.000000
-3.607083 8.007426 -0.314668 0.000000
-3.613116 8.122964 -0.318535 0.000000
5.870145 8.253887 -0.362899 3.000000
5.992493 8.232784 -0.364844 3.000000
6.255245 8.194705 -0.369380 0.000000
5.689271 8.327654 -0.361359 0.000000
5.753740 8.281595 -0.361311 2.666667
5.636061 8.379160 -0.361818 0.000000
5.614862 8.531576 -0.365942 0.000000
5.646839 8.758821 -0.373390 0.000000
5.668910 8.915566 -0.378546 0.000000
5.790272 9.169931 -0.388572 0.000000
-3.590177 9.347850 -0.358781 0.000000
5.785582 9.356694 -0.394158 0.000000
-3.577436 9.425339 -0.361216 0.000000
5.730071 9.385138 -0.393986 1.000000
5.855028 9.369991 -0.395877 0.000000
