# This PCD file was generated using the MATLAB® pcwrite function
# from Computer Vision Toolbox®.
# .PCD v.7 - Point Cloud Data file format
VERSION .7
FIELDS x y z intensity
SIZE 4 4 4 4
TYPE F F F F
COUNT 1 1 1 1
WIDTH 1233
HEIGHT 1
VIEWPOINT 0 0 0 1 0 0 0
POINTS 1233
DATA ascii
-6.254599 15.496227 1.728081 0.000000
-7.069684 15.841560 1.793913 10.000000
-18.952171 18.180836 1.795935 9.000000
-18.811703 18.159904 1.788021 6.000000
-3.257438 -35.247875 1.803719 24.000000
-3.479967 -27.278700 1.880533 30.000000
-3.500970 -26.773008 1.846421 30.000000
-3.522004 -26.291193 1.813946 29.000000
4.414429 -25.961868 1.800847 7.000000
-8.554029 -19.203640 1.805233 5.000000
-11.208175 -18.565197 1.862213 16.000000
-19.008472 -18.375509 1.807943 46.000000
-18.875965 -18.420246 1.803576 34.500000
-19.309397 -18.259949 1.817357 54.000000
-19.178396 -18.308071 1.813128 46.000000
-19.097761 -18.346115 1.810944 45.000000
-19.520857 -18.171675 1.823771 59.000000
-19.437466 -18.208355 1.821314 58.000000
-19.791435 -18.078396 1.833049 61.000000
-19.654680 -18.124073 1.828273 62.500000
-11.041197 -18.095488 1.820290 22.000000
-19.923754 -18.027721 1.837415 60.500000
-13.145265 -17.125055 1.853828 9.000000
-8.498857 -16.249903 1.896363 18.000000
-7.842844 -16.347303 1.874968 19.000000
-7.954446 -16.186960 1.865093 2.000000
-8.509052 -16.145685 1.887312 20.000000
-8.097710 -16.093500 1.863036 7.000000
-7.860448 -15.869529 1.831355 14.000000
-8.789192 -15.365445 1.830532 4.000000
-9.527658 -15.182504 1.853573 2.000000
-9.458874 -15.178591 1.849458 27.000000
-8.831639 -15.217005 1.819423 2.000000
-9.494307 -14.817328 1.819834 18.000000
-11.405911 -14.339136 1.894718 21.000000
-4.606375 -12.865103 1.897378 6.000000
-16.755934 -12.755316 1.808313 0.500000
-4.526220 -12.767484 1.880874 3.000000
-17.557375 -12.472763 1.849379 39.000000
-4.382431 -12.486305 1.837414 30.000000
-18.167913 -12.397961 1.888735 21.000000
-18.190281 -12.329637 1.887024 18.000000
-17.508125 -12.272984 1.836033 25.000000
-17.311111 -12.053955 1.811393 4.000000
-4.761353 -12.087394 1.803857 29.000000
-18.524567 -11.887993 1.890104 18.000000
-18.494604 -11.786902 1.883260 54.000000
-18.551752 -11.741526 1.885313 26.000000
-17.748285 -11.707285 1.825766 69.000000
-17.668303 -11.575026 1.813788 58.000000
-6.483516 -11.413054 1.822561 13.000000
-2.991358 -11.434899 1.852605 2.000000
-3.603522 -11.277733 1.855703 12.000000
-2.980710 -11.249728 1.824113 9.000000
-6.481891 -11.245087 1.802206 15.000000
-6.805504 -11.070847 1.804407 12.000000
-6.760369 -11.075264 1.801656 4.000000
-3.654955 -10.961643 1.811106 26.000000
-18.543968 -10.857939 1.845273 42.000000
-19.060099 -10.656684 1.875160 8.666667
-4.825724 -10.737727 1.845173 28.000000
-19.390480 -10.550092 1.895580 11.000000
-19.159840 -10.581165 1.879495 11.000000
-4.778450 -10.587681 1.820707 35.000000
7.890193 -10.608673 1.835764 68.000000
-19.465605 -10.511849 1.899686 10.000000
-5.370108 -10.476069 1.845173 51.333332
-4.843932 -10.468814 1.808009 22.000000
7.785765 -10.399876 1.803857 25.000000
7.833466 -10.361491 1.803581 19.000000
7.964121 -10.363982 1.814859 4.200000
8.085057 -10.385712 1.827512 29.000000
8.154296 -10.407042 1.835764 53.000000
8.209031 -10.409371 1.840715 4.000000
-3.318367 -10.273859 1.886227 17.000000
-3.855527 -10.160357 1.898619 57.000000
-6.619170 -10.115152 1.894724 6.000000
-4.023205 -10.074025 1.895177 24.000000
-3.813602 -10.049947 1.877967 30.000000
-3.749008 -10.070017 1.877278 58.000000
11.969581 -10.118662 1.898088 4.000000
14.301713 -10.144924 1.813251 8.000000
-19.472107 -9.968671 1.878469 1.000000
-6.559598 -9.955713 1.868710 0.000000
8.497913 -9.977955 1.819810 5.000000
-18.951536 -9.890820 1.835690 19.000000
-6.026403 -9.872836 1.812964 12.000000
15.380140 -9.854930 1.888957 12.000000
15.494943 -9.859967 1.899244 8.000000
-19.520123 -9.838950 1.877100 2.000000
-18.944849 -9.773975 1.830557 6.000000
-6.609031 -9.827865 1.856322 22.000000
-19.853502 -9.696066 1.897291 8.000000
-4.633239 -9.678990 1.874754 30.000000
4.139644 -9.665520 1.837006 29.000000
12.216166 -9.685886 1.887990 11.000000
15.364396 -9.709215 1.879494 17.000000
15.421782 -9.677817 1.882786 7.000000
4.193527 -9.644452 1.837351 3.000000
12.249151 -9.618409 1.886066 28.500000
15.441981 -9.623007 1.881551 7.000000
-4.651083 -9.498155 1.847677 30.500000
7.229726 -9.485193 1.869329 1.750000
9.223301 -9.544337 1.842915 29.000000
7.303857 -9.443272 1.871187 0.000000
9.212814 -9.414473 1.828979 47.666668
9.311831 -9.396727 1.836864 25.000000
14.683328 -9.408442 1.803376 18.000000
18.850441 -9.373824 1.807799 26.000000
-19.190067 -9.260309 1.829702 8.500000
-5.653805 -9.262421 1.895865 20.000000
7.390873 -9.331656 1.865819 36.000000
9.486362 -9.291351 1.843740 22.500000
9.679385 -9.288686 1.862720 49.000000
9.722856 -9.271902 1.865470 43.000000
18.924820 -9.299862 1.810708 4.000000
-18.861544 -9.211613 1.802495 0.000000
-5.493176 -9.225819 1.875901 10.500000
-19.282040 -9.118697 1.831584 9.000000
7.358366 -9.112991 1.835882 10.000000
7.913978 -9.116838 1.892247 20.000000
19.176809 -9.089439 1.822344 8.500000
7.223028 -8.983634 1.806770 18.000000
7.387537 -9.012961 1.826591 1.000000
12.693126 -9.003873 1.884623 2.000000
14.991669 -8.986506 1.807491 11.500000
15.905609 -8.966006 1.888134 11.000000
7.522882 -8.832857 1.818539 6.500000
12.608768 -8.795927 1.861781 13.000000
12.790417 -8.774184 1.878372 15.000000
15.648982 -8.756675 1.854396 34.000000
15.784239 -8.767365 1.867151 12.000000
16.031166 -8.816812 1.891975 31.333334
7.697655 -8.673102 1.817610 28.500000
7.816231 -8.723577 1.835882 50.000000
8.138636 -8.663717 1.863135 42.000000
8.252791 -8.702710 1.879859 41.000000
12.833975 -8.705602 1.878051 6.666667
7.786227 -8.500126 1.806770 3.500000
8.525837 -8.311295 1.866232 8.000000
12.446790 -8.253978 1.808642 29.000000
16.322191 -7.830793 1.872088 31.000000
-13.330146 0.228023 1.851167 4.000000
-13.240565 0.309629 1.838973 28.833334
-13.219170 0.475526 1.836681 32.000000
-13.292497 0.561767 1.847316 13.000000
9.468344 2.320392 1.879211 13.000000
9.362326 2.388168 1.862554 31.000000
9.499126 2.359596 1.886783 36.000000
9.552608 2.404767 1.898897 65.000000
11.330080 2.366978 1.814203 12.000000
9.179552 2.495839 1.833783 14.333333
11.383615 2.603014 1.830307 10.000000
8.925157 2.946531 1.811826 41.000000
11.277929 2.935495 1.826591 30.500000
8.939964 3.013843 1.818640 0.000000
9.010939 2.974706 1.829240 43.500000
11.211231 3.012431 1.819571 9.333333
8.098912 3.741370 1.882973 16.750000
8.027164 3.839054 1.878016 7.000000
5.458151 4.429379 1.878628 10.000000
7.510464 4.529694 1.851170 5.000000
5.733000 4.563498 1.819221 14.500000
7.261755 4.560591 1.809868 8.000000
5.555627 4.684706 1.804282 17.000000
5.696731 4.697692 1.833197 20.000000
7.559075 4.697755 1.878429 12.000000
7.511484 4.800130 1.881458 33.833332
5.466328 4.865189 1.816812 6.000000
6.162819 4.889857 1.807018 3.166667
6.270210 4.879468 1.824927 1.000000
5.375676 5.007150 1.823944 33.200001
5.624077 4.974013 1.864039 43.000000
5.350255 5.071881 1.830305 34.000000
5.420006 5.246700 1.872874 36.666668
5.232058 5.270506 1.843799 17.333334
5.250309 5.367058 1.864039 31.000000
-12.212412 5.465466 1.857769 8.000000
10.040763 5.583975 1.800783 42.000000
-10.513851 5.713308 1.875523 13.000000
5.554866 5.702289 1.828509 27.000000
5.948477 5.706801 1.893429 40.299999
-10.582508 5.793752 1.891008 8.000000
5.494884 5.760123 1.828509 0.000000
3.728011 5.854082 1.854874 37.599998
5.800018 5.854942 1.892982 47.000000
6.340183 5.935114 1.832997 27.000000
5.408412 6.045879 1.863253 6.800000
10.359699 6.019811 1.878001 91.000000
5.508167 6.072532 1.883132 15.000000
6.169859 6.111983 1.832997 11.000000
-12.069060 6.314918 1.891326 40.000000
9.643314 6.272017 1.803054 2.000000
-11.187570 6.653275 1.807341 56.000000
-11.462375 6.947332 1.861069 47.000000
-11.192842 7.108669 1.841082 45.333332
-10.917126 7.143965 1.811558 135.000000
-10.828457 7.134633 1.800556 13.000000
-11.177431 7.164768 1.843465 1.000000
-10.858816 7.203657 1.809358 69.000000
-11.451109 7.442123 1.896277 54.000000
8.808511 7.383383 1.801506 16.000000
8.899047 7.554914 1.829688 16.000000
-10.953908 7.652918 1.855385 44.666668
-11.080535 7.836769 1.884450 76.000000
8.467664 7.879663 1.812964 10.000000
8.515588 7.874485 1.817919 6.000000
8.507723 8.067885 1.837740 14.000000
8.491013 8.154028 1.845173 4.000000
10.686851 8.265697 1.875923 1.000000
8.143864 8.459703 1.840527 1.500000
8.583692 8.506140 1.894105 47.000000
8.181798 8.633880 1.864374 46.000000
8.339218 8.581398 1.875523 19.000000
9.184238 9.391590 1.823936 17.000000
9.224373 9.432785 1.831913 7.000000
9.885864 9.433942 1.897378 25.000000
9.776631 9.507358 1.893527 13.000000
9.552282 9.615793 1.881974 3.500000
-7.518655 13.316284 1.851922 12.000000
-6.678460 13.354037 1.808161 3.000000
-7.645698 13.641204 1.893760 20.000000
-6.092938 13.652895 1.810566 14.000000
-6.636458 13.808039 1.855289 25.000000
-5.632515 13.767711 1.801429 1.000000
-6.719625 13.869317 1.866349 0.000000
-6.482520 13.933549 1.861059 12.000000
-6.096388 13.894543 1.837496 12.000000
-9.052864 15.350326 1.842875 6.000000
-9.008612 15.385560 1.843698 18.000000
-8.761458 15.404166 1.832589 17.000000
-8.486667 15.598026 1.836292 17.000000
-7.737297 15.717342 1.811605 0.000000
-7.672170 15.709394 1.807902 43.000000
-8.715540 16.139244 1.896775 0.000000
-8.179861 16.060810 1.863859 32.666668
-8.636570 16.174850 1.896158 1.500000
-8.488038 16.201675 1.891426 20.000000
-8.142551 16.217890 1.876614 22.000000
-7.588631 16.355780 1.864545 5.000000
-7.568022 16.537611 1.880728 1.000000
6.663857 19.997330 1.810024 15.000000
6.727920 19.980072 1.810366 16.000000
7.019353 20.010532 1.820975 20.000000
6.972142 20.077663 1.825082 15.000000
7.379859 20.122509 1.840482 11.500000
7.545108 20.180307 1.850064 10.500000
6.548549 20.286804 1.830557 3.000000
6.647835 20.267040 1.831584 15.500000
6.932177 20.270557 1.839626 17.500000
7.211822 20.253159 1.846128 2.000000
6.038066 20.371101 1.824511 23.000000
6.184042 20.392517 1.829873 19.333334
-18.160717 20.650085 1.880533 9.000000
-17.621851 20.552504 1.851333 11.000000
5.670314 20.628124 1.837059 23.000000
-18.524994 20.668200 1.897998 26.000000
-18.111504 20.725071 1.882170 31.000000
5.580309 20.681522 1.839455 10.000000
6.040522 20.697195 1.851433 54.000000
-18.405346 20.796143 1.899090 34.000000
6.000874 20.804142 1.859304 34.000000
-18.064503 20.869040 1.887492 5.500000
5.545013 20.942625 1.860331 7.000000
5.500359 21.040913 1.867517 11.000000
5.340674 21.246420 1.881206 7.000000
5.433569 21.239285 1.882575 32.666668
3.367661 21.530016 1.871282 37.000000
3.302419 21.556246 1.872651 5.000000
15.758654 21.562939 1.826363 17.500000
17.254852 21.622520 1.891722 27.000000
17.194277 21.686003 1.892541 2.000000
15.542360 21.983807 1.841100 8.500000
16.453705 22.292816 1.894724 2.000000
15.709794 22.444246 1.873438 9.000000
15.531429 22.640673 1.877531 8.000000
15.448715 22.981447 1.893632 5.000000
15.183145 23.052704 1.887628 10.000000
15.411895 23.082968 1.897998 12.000000
-8.141479 -17.176834 1.965692 15.500000
-10.251213 -16.222084 1.984413 25.000000
-10.026686 -16.202944 1.970424 18.000000
-9.803433 -16.181023 1.956435 18.000000
-10.946959 -15.639686 1.974127 56.000000
-11.535690 -15.175638 1.971247 19.500000
-10.386617 -15.243350 1.907472 12.000000
-11.036482 -15.051860 1.930102 20.000000
-11.535312 -14.930335 1.951086 26.000000
-11.176896 -14.848411 1.921873 5.000000
-11.077769 -14.813351 1.912821 8.000000
-11.490559 -14.649167 1.925302 33.666668
-18.745907 -13.228687 1.970185 38.000000
-4.811909 -12.925021 1.914982 8.000000
-5.443565 -12.805493 1.932035 1.000000
-19.102440 -12.686822 1.969158 1.000000
-6.849931 -11.970342 1.914982 2.000000
-18.851673 -11.766117 1.908242 22.000000
-18.982927 -11.682945 1.914060 29.000000
-18.878386 -11.700531 1.907215 27.000000
-5.056227 -11.689850 1.996305 22.500000
-4.942105 -11.677043 1.987427 33.333332
-19.756336 -11.484623 1.962313 13.000000
-5.499190 -11.503453 1.998473 39.000000
-4.707394 -11.523615 1.951089 14.000000
-5.495689 -11.358256 1.977723 49.000000
-19.748573 -11.314694 1.954442 3.000000
-19.888685 -11.229576 1.961287 28.000000
-19.319433 -11.149582 1.915429 28.000000
-5.472444 -11.220175 1.956664 1.000000
-19.427214 -11.049647 1.919193 36.000000
8.212349 -11.114573 1.918832 7.000000
-5.502039 -11.016005 1.930030 24.000000
-5.535369 -10.910810 1.917642 52.000000
-3.122198 -10.859511 1.974114 5.333333
-3.288281 -10.815889 1.975031 14.750000
-3.142059 -10.822289 1.968836 6.000000
-4.089002 -10.674485 1.997060 31.000000
-3.857600 -10.668139 1.981915 49.000000
-6.008940 -10.616467 1.912067 34.000000
-19.738863 -10.499761 1.919878 7.000000
-3.611137 -10.446011 1.930974 18.000000
-4.816750 -10.338922 1.992700 56.000000
-3.774864 -10.337658 1.922713 21.000000
11.947999 -10.229825 1.904821 1.000000
15.414674 -10.014232 1.900889 14.000000
-5.514893 -9.851725 1.972507 12.333333
-16.634914 -9.670097 1.989762 1.000000
13.084930 -9.594267 1.964933 55.000000
13.207102 -9.588481 1.976474 59.000000
13.316644 -9.572504 1.986092 28.000000
10.372172 -9.464456 1.949639 14.000000
10.475584 -9.438883 1.957891 12.000000
12.655062 -9.443091 1.912194 18.666666
16.103867 -9.380200 1.927222 41.000000
16.380829 -9.370004 1.951497 62.000000
16.434402 -9.332247 1.954378 23.000000
-5.757526 -9.235474 1.901372 0.000000
-4.713036 -9.214046 1.995053 0.000000
-4.627972 -9.243764 1.992782 9.250000
15.992773 -9.214835 1.908707 47.000000
13.200632 -9.116710 1.942811 49.000000
16.701782 -9.072102 1.965487 25.000000
17.078205 -9.069177 1.999637 19.000000
16.728537 -8.984844 1.963635 50.000000
8.466828 -8.835330 1.918055 12.000000
7.438350 -8.696877 1.999355 26.333334
8.452528 -8.746736 1.906493 73.000000
14.009973 -8.669764 1.995229 10.800000
16.552242 -8.679070 1.932708 25.000000
7.493294 -8.632214 1.997060 17.000000
14.065852 -8.552168 1.993546 12.500000
8.142826 -7.937939 1.986734 16.500000
16.652002 -7.903321 1.906101 33.000000
8.219090 -7.813267 1.981227 2.000000
16.723175 -7.830149 1.909530 24.000000
16.812647 -7.807736 1.916936 17.000000
16.966805 -7.782248 1.930308 10.000000
9.173243 2.166758 1.989395 1.666667
9.709648 2.186383 1.918582 15.000000
9.195378 2.263890 1.998757 6.000000
9.637040 2.273568 1.908740 16.000000
8.997276 2.522260 1.972186 9.500000
9.033605 2.486573 1.977555 37.000000
9.066018 2.732028 1.998482 16.000000
11.848874 2.748601 1.906493 1.000000
9.629749 2.797693 1.933094 2.833333
9.709092 2.804222 1.948111 84.000000
9.433088 3.048622 1.911011 4.000000
12.120440 2.972580 1.956044 0.000000
8.684308 3.111142 1.946991 1.000000
8.817526 3.104317 1.973012 44.000000
8.357638 3.539002 1.915601 3.000000
8.379903 3.648960 1.929094 20.888889
8.275927 3.741918 1.916978 30.666666
8.350216 3.722996 1.929644 3.000000
8.277546 3.863388 1.927992 19.000000
6.182534 4.010408 1.969513 8.166666
5.506673 4.540965 1.907546 0.000000
5.389283 4.686438 1.908751 21.000000
8.160770 4.705956 1.988294 21.500000
5.702692 4.839622 1.998947 26.500000
8.163187 4.810604 1.999858 10.500000
5.442664 4.856433 1.949477 32.400002
6.330392 4.969026 1.998011 29.333334
5.823388 5.117773 1.924760 48.000000
5.666558 5.205194 1.910303 63.000000
5.513608 5.427879 1.920905 37.000000
5.943802 5.425535 1.998011 34.000000
5.285017 5.547087 1.989123 29.799999
5.613107 5.630768 1.973916 30.000000
9.964363 5.582568 1.995454 49.333332
6.003698 5.691326 1.900145 21.000000
-12.783669 5.817772 1.950190 9.500000
6.109517 5.755304 1.927904 51.000000
6.330221 5.790504 1.970587 37.500000
9.567904 5.803662 1.955068 28.000000
9.605255 5.764613 1.957133 24.500000
5.847709 5.915561 1.910592 37.333332
-12.822992 6.006726 1.966143 0.000000
-12.685980 6.040049 1.950923 22.666666
6.815989 5.990076 1.915188 11.250000
9.378339 6.030136 1.947954 45.000000
9.484065 6.027994 1.963329 33.000000
-12.600274 6.096638 1.943588 15.000000
6.730271 6.124108 1.920558 31.000000
9.368265 6.135092 1.956445 13.000000
5.919272 6.343206 1.992824 5.000000
6.812904 6.317634 1.961034 11.000000
6.937078 6.292133 1.976729 18.000000
7.051819 6.289539 1.994351 34.666668
10.706127 6.300174 1.947063 48.750000
-12.849335 6.405007 1.993512 11.000000
-10.448011 6.400017 1.920429 10.500000
10.730924 6.417239 1.959761 4.000000
-12.759488 6.523742 1.989798 34.000000
-12.647360 6.516610 1.975495 30.000000
-10.919790 6.478545 1.990111 34.000000
-12.633856 6.559967 1.976596 36.000000
-12.245110 6.629186 1.933411 34.500000
-10.642088 6.727647 1.973387 123.000000
-10.381184 6.677403 1.934675 8.000000
-10.605178 6.963647 1.988562 4.500000
8.957725 6.973399 1.983292 16.000000
-11.745535 7.068590 1.903429 40.000000
8.933467 7.068017 1.990176 24.250000
8.794891 7.208794 1.986734 42.000000
8.857785 7.167686 1.990727 17.000000
-10.269080 7.433572 1.987014 14.000000
9.896582 7.530972 1.949231 14.000000
-11.990401 7.739136 1.981547 19.000000
-11.564253 7.724064 1.930935 39.000000
-11.641848 7.828897 1.947989 8.000000
-11.979787 7.893219 1.991999 18.000000
-11.325789 8.144429 1.936987 22.000000
-11.247152 8.222599 1.934511 11.500000
7.567299 8.398440 1.975031 6.000000
8.638075 8.613986 1.912067 18.000000
8.801839 8.667681 1.936224 0.000000
8.380696 8.788303 1.903396 31.000000
8.382205 8.901203 1.916403 40.000000
8.953605 9.041546 1.994447 23.000000
8.262666 9.055120 1.921358 16.000000
8.475705 9.057336 1.944276 17.000000
8.274226 9.154033 1.934056 4.500000
10.630454 9.227891 1.954591 6.000000
10.893766 9.218990 1.981547 26.000000
10.038437 9.341359 1.903979 10.000000
10.451516 9.305419 1.943038 7.000000
10.873800 9.260875 1.983197 4.000000
10.342812 9.384870 1.939187 35.000000
10.472289 9.442538 1.957891 3.000000
9.944766 9.550025 1.914431 18.000000
10.362717 9.492388 1.951290 2.500000
10.020130 9.683089 1.934786 12.000000
10.202941 9.675464 1.952390 4.000000
10.321371 9.665328 1.963392 3.000000
10.360158 9.762918 1.976596 0.000000
-13.704317 12.659269 1.929279 6.000000
-13.589208 12.672134 1.921462 24.000000
-13.552533 12.757865 1.924753 16.000000
-13.573042 12.857845 1.933394 0.000000
-7.766597 13.655026 1.902416 6.000000
-7.555283 13.886193 1.914439 5.000000
-8.090563 13.951293 1.953071 3.333333
-7.709574 13.960113 1.931270 21.000000
-7.659955 13.973816 1.929827 38.000000
-7.869235 14.144027 1.960124 3.000000
-7.073219 14.368352 1.939445 20.000000
-7.301397 14.637812 1.980962 35.333332
-7.116921 14.572478 1.963971 64.000000
-7.342754 14.682338 1.988015 4.000000
-6.099170 14.975443 1.958200 0.500000
-8.223457 16.573301 1.913233 2.000000
-8.343558 16.948887 1.953555 4.000000
-7.633320 17.249945 1.950675 4.000000
-7.497801 17.235542 1.943680 1.000000
-7.353271 17.198082 1.934217 12.000000
-7.148839 17.318634 1.937508 3.000000
-19.665073 20.214977 1.928563 53.000000
-19.395262 20.835299 1.946574 38.000000
6.804419 21.079466 1.902082 20.000000
-18.929760 21.253773 1.946301 39.000000
6.113562 21.447617 1.915087 30.000000
6.795481 21.513227 1.937331 52.000000
6.733804 21.553490 1.939042 60.000000
6.883642 21.556313 1.943149 24.000000
7.347772 21.596291 1.958891 13.000000
18.276604 21.619787 1.935931 8.000000
6.121783 21.735243 1.939042 13.000000
18.216295 21.686266 1.936750 4.000000
-18.485077 21.835461 1.956398 15.000000
5.189557 21.800356 1.924327 6.000000
5.417813 21.843315 1.932540 0.000000
18.125422 21.808956 1.939206 47.333332
-18.395842 21.868990 1.954215 11.000000
6.781355 21.947695 1.972580 8.000000
18.028866 21.878542 1.938660 57.000000
5.168401 22.018307 1.942122 0.000000
6.726346 22.014626 1.976687 30.000000
5.716049 22.150162 1.964367 3.000000
5.468518 22.347988 1.975660 3.000000
5.595224 22.259077 1.970869 1.000000
5.208825 22.508125 1.983874 1.000000
18.137354 22.582521 1.980686 5.000000
15.784774 23.322781 1.925834 8.000000
-5.653785 -23.750484 2.096465 22.000000
-5.546753 -23.798187 2.098348 22.500000
-5.832496 -23.674366 2.093728 23.000000
-5.724632 -23.717110 2.095096 21.000000
-6.008438 -23.589233 2.090305 45.000000
-5.936243 -23.615725 2.090990 64.000000
-6.257170 -23.483208 2.086883 52.500000
-6.114004 -23.539417 2.088423 61.500000
-6.396180 -23.412676 2.084145 77.000000
-6.749827 -23.263388 2.080039 90.500000
-6.573365 -23.338654 2.082092 85.333336
-6.997156 -23.161085 2.077643 91.000000
-6.891322 -23.205236 2.078670 88.500000
-7.171733 -23.082556 2.075590 89.500000
-7.067556 -23.131367 2.076959 89.000000
-7.453837 -22.967869 2.073536 44.500000
-7.302556 -23.034538 2.075019 73.333336
-7.625160 -22.882128 2.071141 51.750000
-7.801427 -22.812134 2.070285 46.000000
-8.115778 -22.678951 2.068403 39.000000
-8.044489 -22.704336 2.068403 49.000000
-7.939363 -22.747612 2.068916 77.000000
-8.358402 -22.571503 2.066863 26.000000
-8.217104 -22.625446 2.067034 43.500000
-8.529512 -22.489588 2.065437 58.666668
-8.845379 -22.363722 2.065152 56.000000
-8.691288 -22.419073 2.064753 76.666664
-8.982763 -22.300301 2.064467 61.500000
-9.251935 -22.193581 2.064753 84.666664
-9.161426 -22.238308 2.065323 20.000000
-9.560316 -22.056660 2.064296 81.400002
-9.411774 -22.119051 2.064182 96.666664
-9.717386 -22.001055 2.065323 30.000000
-10.065100 -21.852947 2.066007 48.000000
-9.939105 -21.941168 2.068403 2.000000
-10.135383 -21.824835 2.066350 3.000000
-10.767913 -21.568800 2.070114 20.000000
-11.189162 -21.393793 2.073194 0.000000
-11.045396 -21.445959 2.071483 26.000000
-11.502796 -21.256233 2.075418 14.500000
-11.394053 -21.294416 2.073879 34.000000
-11.607629 -21.210560 2.076274 1.000000
-11.957070 -21.056808 2.079354 26.000000
-11.856723 -21.111156 2.079183 9.500000
-12.138033 -20.989819 2.082092 2.500000
-12.031078 -21.032976 2.080723 10.000000
-12.544088 -20.852125 2.089621 16.000000
-12.472385 -20.881166 2.088594 14.000000
-12.359644 -20.915665 2.086199 22.000000
-12.725151 -20.781822 2.092530 6.500000
-12.964543 -20.659245 2.094412 63.000000
-12.861774 -20.711620 2.093556 35.000000
-13.151043 -20.595394 2.098348 21.500000
-8.240914 -17.892347 2.037079 7.000000
-10.074939 -17.485525 2.086864 40.000000
-9.874498 -17.389330 2.067937 2.000000
-9.111055 -17.420431 2.032964 1.000000
-8.702892 -17.432434 2.014860 2.000000
-11.048903 -16.548349 2.057651 1.000000
-10.880316 -16.407236 2.035844 19.000000
-12.172311 -16.170811 2.093035 29.000000
-11.665152 -16.227800 2.066703 16.000000
-12.437023 -15.993327 2.095093 19.000000
-12.249071 -15.957535 2.080281 1.000000
-12.440043 -15.488891 2.054359 0.000000
-4.904021 -12.449577 2.097266 32.000000
-4.738777 -12.488051 2.093549 13.000000
-4.684229 -12.462186 2.086736 0.000000
-4.247172 -12.475982 2.065677 32.000000
-4.165056 -12.361936 2.044617 15.000000
-4.076157 -12.354087 2.039043 0.000000
-4.270999 -12.323596 2.044308 11.500000
-4.734138 -12.129923 2.040901 1.000000
-4.410689 -12.078899 2.015506 20.000000
-5.424607 -11.580298 2.004357 36.000000
-16.497627 -11.220245 2.063206 8.500000
-4.615283 -11.049454 2.092060 30.500000
7.847598 -10.691027 2.078684 16.000000
7.918718 -10.717175 2.088594 13.000000
-5.392776 -10.629745 2.082422 79.000000
-4.851095 -10.615284 2.039053 21.000000
-4.627547 -10.607221 2.021843 37.000000
8.098068 -10.607175 2.091691 8.000000
-4.636097 -10.491594 2.003944 9.000000
13.517697 -10.477844 2.071210 3.000000
-5.474541 -10.383393 2.050756 33.000000
-5.357361 -10.437675 2.049723 50.500000
7.451791 -10.423842 2.008383 14.000000
-3.321599 -10.277731 2.082124 0.000000
-17.075468 -10.215406 2.057651 22.000000
-3.681397 -10.175299 2.085909 43.000000
-3.289563 -10.178560 2.062059 20.250000
-3.190581 -10.199871 2.060167 4.000000
8.411633 -10.196872 2.071871 16.000000
10.848141 -10.215623 2.069016 11.000000
-16.943275 -10.064183 2.037901 21.000000
-3.718069 -10.078269 2.070767 10.000000
-3.624246 -10.116559 2.071524 25.000000
8.309414 -10.137671 2.054528 41.000000
10.411111 -10.053896 2.009603 1.000000
-3.984678 -10.018146 2.078338 27.000000
8.103859 -10.014580 2.019222 45.000000
-4.543382 -9.855357 2.091966 55.000000
-3.851727 -9.909922 2.049567 21.000000
3.995939 -9.865498 2.051838 0.000000
4.095829 -9.932123 2.071019 6.333333
10.496778 -9.947150 2.007952 4.000000
-16.700592 -9.778599 2.001283 20.000000
-16.697210 -9.847183 2.004574 6.000000
-6.333129 -9.795254 2.037848 34.500000
-4.167292 -9.755919 2.045024 0.000000
-3.730635 -9.826134 2.026096 0.000000
4.113513 -9.800019 2.048810 7.000000
4.274821 -9.752184 2.052595 7.000000
4.379208 -9.801513 2.069442 4.000000
13.850980 -9.759936 2.051974 6.000000
4.142977 -9.615265 2.018272 24.000000
6.974530 -9.501726 2.059246 11.333334
7.167463 -9.449629 2.072097 0.000000
17.378241 -9.510366 2.048599 22.000000
9.187595 -9.418270 2.062270 50.500000
11.684155 -9.387591 2.081119 9.000000
7.216527 -9.315155 2.058672 26.500000
7.344287 -9.312815 2.072097 11.333333
9.162318 -9.257485 2.041521 37.200001
11.719065 -9.295095 2.076901 2.666667
13.818090 -9.257380 2.014224 46.500000
-5.658042 -9.200615 2.082124 42.000000
9.617557 -9.056789 2.070632 46.000000
13.873200 -9.124772 2.010906 4.400000
17.526663 -9.096602 2.042016 17.000000
7.798138 -9.040609 2.085865 11.000000
9.651732 -9.031933 2.071871 3.000000
17.574619 -9.016628 2.042633 13.500000
7.420180 -8.824244 2.014271 11.000000
17.429888 -8.770131 2.017740 7.000000
17.569004 -8.736542 2.029055 11.500000
7.723026 -8.612692 2.021069 13.500000
8.042191 -8.615135 2.059017 28.000000
17.479631 -8.589680 2.014038 30.000000
17.678196 -8.618414 2.033787 26.000000
7.843706 -8.500099 2.020696 24.666666
8.044538 -8.483104 2.042495 30.000000
8.449479 -8.544352 2.099403 5.333333
12.344434 -8.528579 2.083320 7.000000
12.407596 -8.457545 2.084970 32.000000
17.702444 -8.527266 2.031936 8.500000
8.048979 -8.408100 2.033546 24.000000
17.858232 -8.361607 2.039136 7.000000
9.381633 2.128031 2.030422 1.000000
9.238147 2.356492 2.012249 17.000000
9.332176 2.537246 2.041161 16.000000
11.640582 2.470035 2.078980 6.000000
9.148288 2.642248 2.009771 40.000000
11.658550 2.576082 2.085979 13.000000
9.116942 2.679830 2.005641 42.500000
11.659510 2.685384 2.090339 50.500000
11.584041 2.841026 2.083799 50.000000
9.023359 2.900528 2.000478 24.000000
9.231121 2.935359 2.044465 36.000000
9.334686 2.866384 2.060986 8.333333
11.259734 2.949735 2.033546 12.000000
11.444934 2.883239 2.062000 20.000000
8.625534 3.029072 2.099831 5.000000
8.990580 3.020404 2.001786 26.666666
11.234316 3.037514 2.033202 49.000000
11.353242 3.012379 2.052133 18.000000
11.107119 3.071942 2.013353 43.000000
9.203816 3.167332 2.054377 0.000000
11.066534 3.198335 2.012549 28.333332
8.249390 3.516078 2.059759 13.750000
9.777234 4.122060 2.045403 12.500000
9.889047 4.114388 2.064709 96.000000
9.622425 4.189137 2.023067 14.400000
9.788428 4.181178 2.051838 0.000000
11.014042 4.243411 2.062115 6.500000
7.744555 4.417430 2.047894 10.500000
6.411024 4.520804 2.096545 3.000000
7.775871 4.516675 2.065505 5.666667
10.923979 4.527074 2.065901 0.500000
6.011852 4.739362 2.045939 13.000000
7.376406 4.681333 2.006704 31.000000
7.530504 4.729373 2.042522 53.000000
7.820401 4.719449 2.098040 29.333334
8.254433 4.702522 2.005090 16.000000
8.352489 4.677619 2.020509 12.000000
6.086112 4.829146 2.076406 27.500000
7.455019 4.838490 2.041402 4.250000
7.515133 4.819075 2.050581 31.000000
8.250983 4.862141 2.021335 129.000000
5.584871 5.130438 2.026833 5.000000
5.687844 5.241314 2.067111 19.500000
7.960320 5.175420 2.003989 3.000000
5.256586 5.339811 2.002562 41.000000
5.648196 5.320729 2.073824 68.000000
5.261569 5.412317 2.017365 17.333334
5.381886 5.398780 2.037332 44.666668
5.468775 5.417476 2.057300 39.000000
6.212001 5.407592 2.044757 51.000000
5.164393 5.482238 2.012890 3.000000
6.075818 5.476454 2.030781 59.000000
10.049917 5.534085 2.004403 31.000000
-10.564487 5.612510 2.089995 50.000000
-10.445781 5.633887 2.073473 7.000000
6.072087 5.612980 2.052949 6.000000
9.965907 5.699300 2.005734 41.799999
-12.006050 5.762648 2.087356 19.000000
-11.991445 5.802056 2.087975 1.000000
5.980699 5.777512 2.064515 2.000000
5.576790 5.920016 2.019215 21.000000
5.706433 5.907185 2.039135 28.666666
6.590750 6.016073 2.049685 7.000000
5.806355 6.125041 2.095358 22.000000
-10.005024 6.302953 2.065901 9.000000
-13.033308 6.356767 2.013454 1.000000
-11.228944 6.378926 2.024178 9.000000
-11.196136 6.472498 2.027027 42.599998
-11.055860 6.512397 2.011170 61.000000
-11.109706 6.638491 2.028513 64.000000
-11.288565 6.793581 2.065058 102.000000
-11.117607 7.077245 2.065677 10.000000
-10.608942 7.207023 2.010241 20.500000
-10.933008 7.302439 2.060722 35.000000
-10.814913 7.272801 2.042759 2.000000
8.884664 7.329163 2.012205 39.000000
-13.072619 7.372056 2.083870 22.000000
-10.405620 7.433219 2.004357 1.000000
-13.070997 7.507035 2.092947 6.000000
-12.797889 7.484477 2.058564 45.000000
9.019242 7.487920 2.048002 12.000000
-10.869480 7.636346 2.082091 41.000000
-10.667405 7.569727 2.050192 46.000000
8.990112 7.559656 2.052133 1.000000
8.722774 7.766247 2.040430 1.000000
8.661158 7.983889 2.057984 9.000000
8.646833 8.071754 2.066589 17.500000
10.541462 8.153247 2.088801 15.333333
10.496268 8.250881 2.092620 8.000000
-11.705621 8.745428 2.028857 6.400000
9.011915 9.186573 2.017055 9.000000
8.783590 9.445655 2.021700 11.000000
9.030430 9.380727 2.040901 6.000000
8.626225 9.787979 2.044927 12.000000
-5.977283 13.176852 2.009053 3.000000
-6.370543 13.422363 2.062965 18.500000
-6.802659 13.502096 2.099273 0.000000
-6.735403 13.526899 2.098173 2.000000
-6.308906 13.455841 2.063515 0.000000
-6.044897 13.513536 2.055538 7.833333
-8.320740 14.522956 2.026968 0.000000
-7.290992 15.048620 2.025044 41.000000
-6.976501 15.245023 2.030334 31.000000
-7.077597 15.338412 2.045723 11.000000
-7.446664 15.493780 2.081790 7.000000
-7.397955 15.517097 2.081790 13.000000
-7.030314 15.491059 2.060149 9.000000
-19.747185 21.893023 2.016163 11.000000
7.816137 22.281977 2.027678 3.000000
5.466545 22.647865 2.000643 6.000000
7.559844 22.567829 2.043763 4.500000
7.426883 22.762930 2.056083 3.000000
5.468277 22.971209 2.027678 8.000000
7.175484 23.223280 2.087225 19.000000
-3.793900 -31.305298 2.156432 16.000000
-3.823765 -30.742764 2.118499 3.000000
-3.580519 -24.939566 2.163541 30.000000
-3.621228 -24.671894 2.141297 55.000000
-3.880761 -24.557732 2.134965 53.500000
-3.733255 -24.626945 2.138901 52.500000
-4.064718 -24.473448 2.130346 56.000000
-3.990374 -24.501833 2.131714 56.000000
-4.280705 -24.351624 2.123159 78.000000
-4.174274 -24.420605 2.127437 55.500000
-4.463515 -24.272152 2.119223 76.500000
-4.352968 -24.314520 2.121105 76.000000
-4.646141 -24.195278 2.115630 77.000000
-4.573802 -24.229334 2.117341 75.000000
-4.898369 -24.076311 2.109812 71.000000
-4.753543 -24.139851 2.112721 69.000000
-5.043401 -24.015808 2.107245 77.500000
-5.403728 -23.861717 2.100914 46.000000
-5.293822 -23.898619 2.101941 76.000000
-5.186609 -23.948589 2.104165 74.500000
-13.439444 -20.475142 2.103139 27.500000
-13.298611 -20.540783 2.101256 21.000000
-13.623032 -20.403679 2.106732 27.000000
-13.957601 -20.278078 2.113919 3.500000
-13.806407 -20.330757 2.110325 18.000000
-14.300528 -20.160030 2.122474 1.000000
-14.221053 -20.182053 2.120079 6.000000
-14.075763 -20.244831 2.117341 6.000000
-14.556438 -20.049921 2.127608 5.000000
-14.370738 -20.124739 2.123501 9.000000
-14.734771 -19.963867 2.130688 46.000000
-14.671983 -20.010057 2.130688 20.000000
-14.960618 -19.875053 2.136163 57.000000
-14.859638 -19.935715 2.135137 19.000000
-15.308449 -19.749733 2.145746 11.500000
-15.116615 -19.821859 2.140612 22.000000
-15.027798 -19.834307 2.136848 58.000000
-15.421005 -19.702518 2.148484 41.000000
-15.727263 -19.581755 2.156697 62.000000
-15.586523 -19.632849 2.152590 55.400002
-15.996008 -19.473816 2.164055 62.500000
-15.880165 -19.519651 2.160804 62.000000
-15.798725 -19.544647 2.158066 61.000000
-16.312641 -19.358130 2.173808 65.000000
-16.152452 -19.414288 2.168675 61.500000
-16.589546 -19.253111 2.182364 61.000000
-16.471455 -19.299217 2.178770 49.000000
-16.786179 -19.174665 2.188353 61.500000
-16.668222 -19.221979 2.184759 60.000000
-17.071753 -19.073608 2.198106 58.000000
-16.949955 -19.118017 2.193999 60.000000
-9.981779 -18.376505 2.162570 14.000000
-10.802947 -17.214701 2.101676 65.000000
-12.439211 -17.077188 2.184788 22.000000
-11.682802 -16.916225 2.125951 26.000000
-11.369418 -16.913107 2.107436 24.000000
-11.816501 -16.769592 2.121425 18.000000
-11.905447 -16.672352 2.118545 60.000000
-13.188986 -16.316132 2.169565 5.000000
-7.938862 -16.155247 2.179892 15.000000
-8.998211 -15.560216 2.176766 12.000000
-8.637474 -15.210887 2.118338 1.000000
-9.395329 -14.867685 2.129879 2.000000
-10.366072 -14.711190 2.179411 11.000000
-10.190009 -14.558249 2.152000 19.000000
-16.430401 -12.795328 2.153518 24.000000
-16.939758 -12.562328 2.180880 41.000000
-5.071900 -12.642244 2.135049 8.000000
-16.520161 -12.534940 2.144467 14.000000
-16.952333 -12.448170 2.174914 2.000000
-17.327412 -12.309398 2.197955 59.000000
-17.253052 -12.338318 2.193429 20.000000
-16.445730 -12.316409 2.124717 22.000000
-6.998390 -12.053452 2.184600 5.000000
-4.319872 -11.715823 2.181553 25.000000
-4.138058 -11.672564 2.163654 2.500000
-7.119038 -11.580888 2.130713 10.000000
-4.709402 -11.632790 2.192567 29.000000
-17.477467 -11.410803 2.158456 19.000000
-7.327922 -11.379292 2.121422 15.333333
-7.072394 -11.384390 2.100672 11.500000
-7.468419 -11.335059 2.127616 0.000000
-4.395237 -11.261581 2.112024 18.000000
-4.756390 -11.238057 2.131988 109.000000
-4.430595 -11.247718 2.112024 29.000000
-5.875017 -11.058611 2.187748 47.000000
-5.248940 -11.068951 2.140248 40.000000
-5.552472 -11.030265 2.157459 30.000000
-5.083952 -11.033009 2.122350 48.000000
7.827540 -10.949536 2.109654 2.000000
-5.337422 -10.943339 2.127169 5.000000
-18.304558 -10.795117 2.197543 37.000000
-6.261924 -10.785024 2.178799 37.000000
-6.192591 -10.743195 2.166408 0.000000
-3.721045 -10.703629 2.184463 19.666666
-6.222625 -10.614817 2.149657 54.000000
-6.061870 -10.631901 2.138183 37.500000
-4.094155 -10.582744 2.187366 60.000000
-3.889915 -10.646965 2.185094 24.000000
13.967606 -10.582789 2.122185 14.000000
-3.525769 -10.458493 2.127552 13.000000
14.127288 -10.495676 2.131322 1.000000
-3.476736 -10.421082 2.117709 34.000000
-18.426439 -10.327758 2.184377 10.000000
-4.124399 -10.275310 2.134366 1.000000
-3.853910 -10.346266 2.128309 17.000000
14.487419 -10.345224 2.155847 16.000000
-17.977779 -10.187805 2.136855 31.500000
-4.741763 -10.173209 2.163642 29.000000
-17.885111 -9.950634 2.116488 22.000000
-18.542938 -9.788987 2.168330 1.000000
-18.427784 -9.802354 2.158456 36.000000
-5.664123 -9.786938 2.179794 33.000000
12.044882 -9.760715 2.152635 11.666667
-5.566860 -9.747717 2.163894 59.666668
-3.706567 -9.625710 2.177045 8.000000
3.962881 -9.567546 2.185719 24.750000
-18.835316 -9.530891 2.182937 10.500000
-18.505104 -9.473618 2.149815 7.000000
-18.482325 -9.535351 2.150638 1.000000
4.079572 -9.468067 2.175971 30.799999
4.203800 -9.468504 2.186545 24.000000
12.367999 -9.476571 2.163454 27.666666
-18.947029 -9.401262 2.187257 27.000000
18.903158 -9.400084 2.183143 32.500000
-5.761366 -9.303005 2.109380 95.000000
9.778372 -9.266361 2.111512 14.000000
12.121701 -9.187539 2.111926 24.000000
18.872719 -9.200763 2.171211 11.000000
-18.710741 -9.101658 2.151667 3.500000
-18.562386 -9.137852 2.139529 27.000000
15.638995 -9.098510 2.191113 12.000000
12.318513 -8.995995 2.117977 28.000000
12.436010 -8.972383 2.129255 7.500000
18.752974 -8.852480 2.144467 10.000000
7.308742 -8.676357 2.186861 30.666666
12.535503 -8.718892 2.120178 9.000000
15.524758 -8.687163 2.154405 2.000000
8.693403 -8.608849 2.137495 91.000000
19.232254 -8.639283 2.180263 8.000000
8.589237 -8.545891 2.116843 37.250000
15.295086 -8.495664 2.118819 2.000000
15.571107 -8.521400 2.149596 16.000000
15.939724 -8.507456 2.188067 21.333334
19.260681 -8.507022 2.177382 8.000000
19.345625 -8.472007 2.183965 21.000000
7.503778 -8.351364 2.164273 2.500000
15.332361 -8.411547 2.117857 19.666666
19.448788 -8.444468 2.192606 25.000000
7.244009 -8.321568 2.126795 8.000000
7.352725 -8.313681 2.139477 16.250000
7.609776 -8.284271 2.168437 15.000000
19.428417 -8.254910 2.182937 12.000000
7.563778 -8.182450 2.147995 44.000000
19.356934 -8.081245 2.169153 14.500000
8.077467 -7.729838 2.155187 5.500000
8.115709 -7.677300 2.153547 26.000000
16.224085 -7.658700 2.172679 11.000000
9.068305 2.419724 2.155796 17.000000
9.266341 2.394713 2.198330 14.000000
9.130184 2.482328 2.173257 21.000000
9.010427 2.756485 2.164303 2.000000
11.742273 2.840754 2.110647 7.000000
11.834120 2.803988 2.124759 36.500000
8.812346 2.878616 2.129380 10.000000
9.057600 2.877195 2.182928 13.000000
8.823550 2.984928 2.139529 9.333333
8.751920 3.104376 2.132962 44.000000
10.710599 3.405843 2.166544 11.000000
8.553465 3.480119 2.121098 18.750000
8.209724 4.479812 2.148185 0.000000
7.805608 4.766434 2.100726 3.000000
7.992376 4.811802 2.142812 8.000000
6.150654 4.943486 2.108938 41.000000
6.242793 4.858132 2.114102 0.000000
6.322241 4.877562 2.134070 11.000000
7.993797 4.973746 2.162512 50.000000
8.082826 4.970643 2.179526 39.000000
10.986248 5.025259 2.110647 15.000000
6.152535 5.106120 2.136824 48.000000
10.967484 5.100342 2.113171 23.000000
11.025541 5.211750 2.130611 0.000000
5.740273 5.615406 2.146119 30.000000
5.809668 5.577114 2.152315 5.000000
5.581183 5.741261 2.139922 14.000000
5.758404 5.668654 2.159545 7.000000
9.561668 5.685195 2.144398 11.750000
-12.604943 5.760351 2.172212 4.000000
-12.584323 5.837174 2.174319 22.400000
5.611447 5.808794 2.158512 4.000000
6.520977 5.840674 2.173428 16.000000
-12.092029 5.992016 2.115228 23.000000
9.294966 6.001663 2.132852 62.400002
-12.253445 6.120030 2.146817 71.000000
7.121347 6.140478 2.159826 10.000000
9.283983 6.119334 2.143452 41.000000
-12.176837 6.153640 2.138455 33.500000
-10.925312 6.191384 2.193944 11.666667
19.749420 6.219376 2.141175 4.000000
-12.381704 6.330587 2.179645 69.000000
10.828848 6.337928 2.192108 11.333333
19.742649 6.319672 2.143644 2.000000
-12.257511 6.364554 2.164780 23.000000
-12.271748 6.494817 2.176239 7.500000
-10.522491 6.744949 2.183618 14.000000
-10.191722 6.654045 2.126480 40.333332
-10.019955 6.692587 2.105140 8.000000
-10.254356 6.802663 2.149886 9.000000
-11.903082 6.911086 2.157347 11.000000
-10.234300 6.882351 2.154705 10.000000
-10.266225 6.966463 2.167555 26.000000
-11.682839 7.080956 2.141243 11.000000
-13.247355 7.388488 2.106150 11.000000
-13.159634 7.475709 2.101474 1.000000
-11.506838 7.478291 2.150998 36.000000
-10.066349 7.481385 2.191190 0.000000
9.760582 7.500338 2.150574 6.666667
-11.624378 7.711525 2.186459 48.000000
11.577676 7.738879 2.182742 8.000000
11.540193 7.766387 2.180264 0.000000
-13.330757 7.852414 2.148234 3.000000
-10.797592 7.946131 2.101292 12.000000
-11.282030 8.086067 2.175619 25.500000
-10.812388 8.088698 2.116467 2.000000
-11.100997 8.250343 2.167877 40.000000
7.678421 8.306469 2.180551 0.000000
7.803016 8.283267 2.193675 16.666666
7.768683 8.351326 2.198723 4.000000
8.619861 8.559879 2.122350 37.333332
10.398431 8.632944 2.118325 13.000000
12.567425 8.630895 2.116877 4.000000
8.496202 8.688162 2.123038 27.000000
8.582077 8.915013 2.161933 46.000000
10.785211 8.896967 2.191414 5.000000
10.546591 9.039522 2.177168 6.000000
7.941621 9.213452 2.125103 5.000000
10.053044 9.160386 2.131746 31.666666
10.482171 9.186228 2.184600 7.500000
8.176241 9.306931 2.164343 4.500000
10.067933 9.251455 2.143101 26.000000
9.880572 9.548225 2.153631 6.000000
10.107211 9.464781 2.170354 0.000000
10.285437 9.511090 2.195750 7.000000
10.134947 9.550690 2.182742 6.000000
-7.503195 13.294321 2.119628 1.000000
-7.479989 13.400465 2.130905 31.000000
-7.713332 13.566888 2.166938 37.000000
-7.910810 13.663500 2.192244 7.000000
-6.743325 13.704250 2.120728 15.000000
-7.512883 13.918001 2.196095 24.000000
-6.390726 13.913595 2.125954 2.000000
-6.061843 13.941291 2.110826 2.000000
-5.680061 14.143855 2.116327 0.000000
-6.838622 14.235029 2.192794 6.000000
-5.974252 14.610301 2.191694 2.000000
-8.438769 15.167698 2.101987 1.000000
-8.047389 15.598204 2.125551 10.000000
-8.180611 15.734918 2.147672 21.000000
-8.041772 15.708243 2.137093 24.000000
-7.952480 15.715794 2.133005 1.500000
-8.489248 15.878919 2.180533 19.666666
-7.052761 15.870552 2.103189 10.500000
-7.708413 16.433290 2.198166 20.000000
6.107240 19.988356 2.161336 8.000000
7.228242 20.000513 2.199189 17.000000
6.031293 20.077858 2.167919 7.000000
-3.340991 -32.721062 2.249217 19.000000
-3.737341 -32.549625 2.240484 14.000000
-3.582173 -32.550964 2.239393 20.000000
-3.426224 -32.543713 2.237755 29.000000
-3.774101 -31.982878 2.202279 16.000000
-3.533689 -26.378420 2.285373 32.000000
-3.550473 -25.885489 2.243622 32.000000
-3.565303 -25.400610 2.202555 30.000000
-17.357117 -18.968498 2.207859 58.500000
-17.193504 -19.028389 2.202213 59.000000
-17.689560 -18.850597 2.219837 59.500000
-17.521999 -18.908764 2.213677 59.000000
-17.855690 -18.789640 2.225826 46.000000
-18.247681 -18.666481 2.241568 37.000000
-18.115154 -18.706413 2.236093 37.500000
-17.982664 -18.745596 2.230617 43.000000
-18.452694 -18.581932 2.248755 47.500000
-18.334183 -18.637472 2.244991 40.000000
-18.700706 -18.480026 2.257653 60.000000
-18.579561 -18.534214 2.253546 54.000000
-19.000196 -18.367510 2.269289 65.000000
-18.873501 -18.417826 2.264497 57.000000
-19.306692 -18.257391 2.281780 64.000000
-19.175764 -18.305557 2.276475 63.000000
-19.089418 -18.338100 2.273053 64.000000
-19.624760 -18.153650 2.295640 59.000000
-19.526793 -18.177200 2.290849 63.000000
-19.440510 -18.211205 2.287426 64.000000
-13.019934 -17.992945 2.296702 21.000000
-12.358842 -18.015884 2.259260 19.000000
-13.088400 -17.617123 2.269547 45.000000
-7.832214 -17.290081 2.298673 12.000000
-12.716380 -17.229187 2.214413 22.000000
-7.762606 -16.578926 2.216921 7.000000
-9.672103 -16.309124 2.296268 20.000000
-9.721165 -16.159561 2.283765 36.000000
-9.724016 -15.993063 2.266694 17.000000
-10.808414 -15.545482 2.292902 34.000000
-11.110764 -14.857470 2.246736 7.000000
-11.211766 -14.701575 2.239042 4.000000
-11.085741 -14.727312 2.232310 25.000000
-11.040827 -14.572138 2.214036 21.000000
-11.393941 -14.416840 2.225337 10.500000
-11.146111 -14.426586 2.207784 41.000000
-17.372299 -13.660842 2.285388 12.500000
-17.398836 -13.461903 2.274895 9.000000
-16.692348 -13.253926 2.204126 11.000000
-17.487192 -13.182334 2.264609 18.000000
-17.084650 -13.048038 2.223053 40.000000
-16.961561 -13.038598 2.212355 31.000000
-17.396370 -12.690306 2.226756 4.000000
-18.226974 -12.522367 2.286828 41.000000
-17.367247 -12.544119 2.215441 14.000000
-3.971042 -12.495573 2.290665 2.000000
-17.641829 -12.284237 2.223053 0.000000
-17.510532 -12.315670 2.213796 19.000000
-4.185358 -12.294404 2.268980 19.000000
-4.041969 -12.122344 2.232495 1.000000
-4.138095 -12.031547 2.222857 17.000000
-18.536938 -11.786592 2.271604 41.000000
-17.794998 -11.818489 2.209064 24.000000
-5.065555 -11.813021 2.245574 21.000000
-17.765612 -11.718714 2.200835 35.000000
-6.101353 -11.660893 2.299270 8.000000
-4.766786 -11.669004 2.202205 19.000000
-18.533331 -11.527006 2.256998 14.500000
-18.872519 -11.411532 2.280656 13.000000
-6.233055 -11.427452 2.274143 16.000000
-6.162178 -11.171983 2.229053 36.000000
-6.976356 -10.959124 2.269668 10.000000
-6.912414 -10.934359 2.260031 13.000000
-18.739752 -10.815038 2.237454 92.000000
-18.465418 -10.811946 2.212767 10.000000
-7.094099 -10.840920 2.263473 10.000000
7.501906 -10.813883 2.299385 14.333333
-7.167506 -10.730983 2.254524 2.000000
-4.174527 -10.690564 2.212351 1.000000
-18.538876 -10.621614 2.209475 32.000000
-5.530091 -10.564609 2.298665 39.000000
-5.235384 -10.560493 2.272165 34.000000
-4.823003 -10.578342 2.241122 42.000000
-4.563160 -10.590447 2.222951 58.000000
-19.217266 -10.534222 2.266255 73.000000
-18.999477 -10.492604 2.244448 35.000000
-4.980034 -10.540106 2.247179 2.000000
-4.738609 -10.538960 2.227494 11.000000
-4.697479 -10.535859 2.223708 0.000000
10.009770 -10.489278 2.272554 2.000000
12.364234 -10.455989 2.248357 13.000000
-19.192045 -10.364121 2.255558 3.000000
-5.381464 -10.439651 2.264089 28.666666
-5.277795 -10.398607 2.247936 17.000000
-18.960180 -10.315971 2.232105 69.000000
-5.485759 -10.321559 2.253236 23.000000
-3.059187 -10.347539 2.277410 3.000000
7.879737 -10.254243 2.259342 10.000000
7.986645 -10.326059 2.280683 11.000000
8.125877 -10.303922 2.292615 18.000000
12.164400 -10.326335 2.215569 16.600000
19.379896 -10.291463 2.269135 3.000000
-3.169550 -10.207754 2.255933 53.666668
7.784188 -10.218181 2.244197 18.000000
12.253294 -10.230816 2.216449 6.000000
12.731752 -10.196435 2.264860 16.500000
-6.327309 -10.074874 2.293365 26.000000
-3.697506 -10.120328 2.274106 25.000000
-3.054481 -10.069055 2.220826 11.500000
7.527225 -10.120648 2.203582 12.000000
7.620972 -10.146487 2.217006 22.000000
8.083911 -10.119293 2.262784 11.000000
12.705190 -10.077232 2.251657 9.000000
19.109425 -10.070994 2.233751 8.000000
12.696332 -10.005387 2.244506 24.000000
7.935424 -9.869676 2.212531 9.000000
8.140492 -9.931583 2.243509 1.000000
12.699627 -9.943468 2.239555 10.000000
7.948054 -9.780071 2.201746 8.333333
-4.917232 -9.688206 2.293105 40.000000
-4.331874 -9.674938 2.237347 4.000000
3.930359 -9.703588 2.209674 3.000000
12.899343 -9.649942 2.236804 0.000000
13.198771 -9.745203 2.278064 18.000000
-4.417128 -9.621243 2.234455 4.000000
-4.373373 -9.645522 2.235281 19.000000
7.102957 -9.553685 2.294879 11.000000
12.920055 -9.602280 2.235154 56.000000
13.293239 -9.622701 2.278614 19.000000
13.323404 -9.580891 2.278614 7.000000
-19.084650 -9.544390 2.206595 8.000000
-6.526649 -9.506991 2.222951 22.000000
-6.483471 -9.507978 2.218408 0.000000
4.275640 -9.509293 2.200588 16.000000
4.324888 -9.538588 2.210500 0.000000
6.984699 -9.518960 2.275950 9.000000
15.792066 -9.500087 2.231829 14.000000
15.828650 -9.454503 2.232790 30.000000
7.101995 -9.428152 2.275446 34.000000
13.524291 -9.406630 2.287416 20.000000
7.013964 -9.311224 2.247179 27.000000
7.166008 -9.328806 2.267622 11.000000
8.942842 -9.254116 2.248328 63.000000
16.416018 -9.321807 2.286170 29.000000
8.982858 -9.237277 2.251081 51.000000
13.330238 -9.178755 2.247257 15.500000
15.668743 -9.225913 2.202013 2.000000
15.827252 -9.119465 2.212112 139.000000
15.907529 -9.099271 2.219325 122.000000
19.933987 -9.105456 2.266255 15.000000
13.514688 -9.026814 2.256608 13.000000
19.969027 -8.970247 2.263786 2.000000
13.242121 -8.935211 2.218100 40.000000
7.324387 -8.769197 2.202508 1.000000
7.428000 -8.697088 2.204780 7.000000
8.091597 -8.616679 2.278600 15.500000
7.947919 -8.544004 2.249451 58.000000
14.047373 -8.483936 2.278614 17.500000
14.083806 -8.415638 2.278064 2.000000
19.566586 -8.422654 2.202892 16.000000
16.499401 -8.334397 2.238561 47.500000
7.159306 -8.198196 2.297235 29.000000
8.049687 -8.171949 2.211215 21.900000
16.492306 -8.233543 2.232310 59.000000
16.414896 -8.130581 2.218364 27.000000
16.598042 -8.027380 2.232790 35.000000
8.624988 -7.897795 2.254372 3.000000
8.734157 -7.897457 2.269893 20.000000
16.621315 -7.942257 2.230867 4.500000
17.074617 -7.864278 2.276552 20.000000
7.562177 -7.828127 2.297235 0.000000
8.778321 -7.812956 2.265351 12.000000
8.898136 -7.789089 2.279642 23.875000
16.754498 -7.780732 2.237118 5.000000
9.364169 2.326072 2.216239 8.000000
9.356829 2.449482 2.221612 5.000000
11.618536 2.558747 2.293365 8.500000
11.290380 2.917788 2.247936 9.000000
9.207273 3.050372 2.227880 4.333333
11.311555 2.961201 2.253994 14.000000
9.097811 3.130852 2.209971 0.000000
11.161707 3.105372 2.233361 41.125000
10.993348 3.212597 2.207808 38.000000
8.548745 3.338174 2.278485 31.000000
11.222788 3.337110 2.257022 27.500000
9.030336 3.404159 2.216687 39.500000
9.335072 3.360820 2.278921 1.000000
9.169861 3.514473 2.255639 3.000000
9.760396 4.068003 2.231812 7.400000
10.718279 4.146589 2.215379 2.000000
10.678714 4.247342 2.215379 9.000000
9.640638 4.298339 2.227847 28.000000
10.582657 4.286417 2.200994 13.000000
10.696738 4.391488 2.229008 11.000000
7.126510 4.506934 2.253528 59.000000
6.958066 4.617678 2.231839 7.000000
7.843797 4.688811 2.268846 39.000000
10.868196 4.682833 2.281250 10.000000
10.900913 4.656382 2.285036 0.000000
7.810989 4.828784 2.279930 30.750000
7.905665 4.759598 2.291014 10.000000
