# This PCD file was generated using the MATLAB® pcwrite function
# from Computer Vision Toolbox®.
# .PCD v.7 - Point Cloud Data file format
VERSION .7
FIELDS x y z intensity
SIZE 4 4 4 4
TYPE F F F F
COUNT 1 1 1 1
WIDTH 1233
HEIGHT 1
VIEWPOINT 0 0 0 1 0 0 0
POINTS 1233
DATA ascii
-17.131996 -9.044139 1.663552 31.000000
-17.199139 -8.976196 1.665947 25.000000
-17.363319 -8.923494 1.676385 11.000000
-17.212776 -8.473469 1.647467 2.000000
-6.428191 -7.270860 1.695539 5.000000
-18.466669 -7.151629 1.700512 26.000000
-17.439241 -7.198627 1.620089 16.000000
-5.233800 -6.993621 1.683870 49.000000
-4.920821 -6.978293 1.646013 4.000000
-4.908616 -6.914758 1.634656 20.000000
-17.569258 -6.551405 1.610165 38.000000
-5.098669 -6.573174 1.603614 28.000000
-17.873785 -6.473749 1.632409 22.000000
-18.444263 -6.354471 1.675187 43.000000
-4.828783 -6.306671 1.676461 20.000000
-4.862846 -6.128790 1.651267 30.000000
-18.625134 -6.091230 1.682716 71.000000
-18.064684 -6.096991 1.637200 11.000000
-5.187718 -6.035542 1.679765 47.500000
-5.198520 -5.971864 1.671092 41.500000
-5.074233 -5.960096 1.652093 8.000000
-4.740425 -5.936103 1.603356 21.000000
-3.338541 -5.961392 1.696334 2.000000
-3.280509 -5.793571 1.652961 11.500000
-4.598479 -5.540862 1.653896 61.000000
-3.727940 -5.598012 1.669828 11.333333
-3.610613 -5.615019 1.657395 49.000000
-3.419518 -5.599459 1.691057 4.500000
-3.789767 -5.502245 1.658744 0.000000
-3.463921 -5.496284 1.612963 29.000000
-3.051354 -5.448584 1.668974 0.000000
-2.968143 -5.439383 1.656064 1.000000
-17.959126 -5.377749 1.609823 11.000000
-5.714089 -5.365905 1.654433 39.833332
-3.814493 -5.409393 1.643323 66.000000
-3.770753 -5.383193 1.631757 40.000000
-3.243795 -5.349817 1.672072 29.000000
-3.122973 -5.376592 1.661744 15.000000
-18.710825 -5.305231 1.670054 32.333332
-6.007884 -5.246554 1.683482 67.000000
-4.142061 -5.237307 1.657781 16.000000
-4.019114 -5.300575 1.651516 10.500000
8.130690 -5.320574 1.697605 1.000000
-4.033424 -5.216759 1.637155 46.200001
-6.115671 -5.059308 1.675222 29.000000
-3.960171 -5.088895 1.600915 52.000000
-3.768675 -5.085653 1.691695 10.000000
-3.630687 -5.097543 1.672589 18.500000
-5.027061 -4.954043 1.653692 35.750000
-4.281498 -4.956353 1.679320 35.000000
7.734875 -4.923864 1.601916 28.000000
7.850242 -4.928121 1.619356 38.000000
-5.520213 -4.882154 1.692699 55.000000
-4.633184 -4.908185 1.675772 43.333332
-4.086097 -4.853254 1.695568 36.500000
7.950251 -4.921685 1.633583 5.000000
-6.221976 -4.625904 1.636398 6.000000
-5.523798 -4.643235 1.657478 39.000000
-4.134121 -4.719067 1.676720 17.500000
10.862043 -4.677934 1.642120 19.000000
-18.431129 -4.523705 1.629672 34.000000
-7.411890 -4.622476 1.683870 7.000000
-6.526574 -4.571653 1.681830 14.000000
-6.198702 -4.578430 1.626485 16.000000
8.256552 -4.587960 1.650242 18.799999
9.472960 -4.571254 1.648619 7.666667
-7.331099 -4.476676 1.655856 8.000000
-7.144546 -4.486979 1.626328 28.000000
15.364331 -4.431782 1.653609 0.000000
18.842207 -4.485373 1.663210 2.000000
-18.362280 -4.384676 1.621116 21.000000
-18.158617 -4.396386 1.604347 39.000000
-5.863429 -4.416807 1.686133 64.000000
-5.142826 -4.364549 1.674648 24.000000
18.959320 -4.387562 1.671081 3.000000
-18.400179 -4.302175 1.622656 11.000000
-5.327986 -4.178661 1.681105 24.200001
-5.106691 -4.211128 1.643323 52.000000
-4.748847 -4.173432 1.689630 56.000000
7.239981 -4.144699 1.608157 106.000000
12.790145 -4.173052 1.629269 86.000000
13.102584 -4.161392 1.664855 22.000000
-18.589600 -4.070183 1.634120 1.000000
-5.272408 -4.036906 1.648624 21.000000
-4.630952 -4.044110 1.643154 14.000000
18.729244 -4.056266 1.645585 9.500000
9.561453 -3.835928 1.614758 8.000000
18.729565 -3.871902 1.642334 22.500000
-6.618196 -3.761185 1.606660 8.000000
-6.225570 -3.748100 1.669119 14.000000
13.492625 -3.800231 1.697556 34.000000
-6.360617 -3.641286 1.683446 0.000000
-6.065484 -3.703839 1.632406 5.000000
-5.982273 -3.644297 1.652011 10.000000
7.841585 -3.659895 1.668160 14.500000
12.903970 -3.678228 1.624941 58.000000
15.658617 -3.701553 1.663895 15.000000
18.509245 -3.675002 1.620432 28.000000
18.653688 -3.642806 1.632067 6.000000
-6.361857 -3.615505 1.680760 13.000000
-5.444990 -3.556301 1.686614 7.000000
7.067595 -3.573213 1.671505 18.500000
19.200512 -3.562070 1.676898 14.000000
-5.798434 -3.453764 1.675611 34.500000
18.523479 -3.496699 1.618720 33.000000
-5.907660 -3.419101 1.694647 7.000000
-18.486605 -3.322939 1.612903 3.000000
15.321104 -3.242629 1.619459 27.000000
15.600770 -3.233559 1.647575 54.000000
18.752844 -3.235808 1.634120 3.000000
7.346665 -3.214931 1.692569 48.400002
7.689918 -3.222112 1.607248 38.400002
7.700528 -3.147232 1.603614 54.000000
7.936083 -3.214444 1.650556 60.000000
15.908706 -3.210647 1.678296 1.000000
-5.623880 -2.955134 1.697892 0.500000
19.105238 -2.957724 1.660130 16.500000
19.115057 -2.866998 1.659787 27.000000
19.168198 -2.751936 1.662867 13.000000
19.184643 -2.692811 1.663552 17.000000
16.052204 -2.253133 1.676239 16.000000
16.248413 -2.228646 1.695988 12.000000
11.259982 7.761927 1.656199 12.000000
9.042809 7.874671 1.664950 2.500000
11.180058 7.810929 1.651630 5.500000
11.287519 7.965420 1.673030 3.000000
8.544497 8.205338 1.644871 7.000000
8.836691 8.301289 1.683471 24.333334
11.146817 8.347991 1.686495 43.000000
11.233845 8.330867 1.693708 13.500000
8.591381 8.407429 1.669076 8.000000
8.671719 8.432878 1.679529 21.000000
11.132675 8.419584 1.690342 10.000000
7.945849 9.277133 1.696032 12.000000
5.430230 10.201903 1.604712 18.750000
-11.370165 10.976205 1.634271 2.000000
5.239248 10.915590 1.681179 36.000000
-11.456271 10.990011 1.641677 0.000000
5.355491 11.002374 1.699058 46.000000
-11.472613 11.144942 1.654021 35.000000
3.678313 11.327472 1.653673 55.000000
3.734157 11.317545 1.654773 13.000000
-11.497135 11.381339 1.672947 66.000000
-11.258275 11.428538 1.658958 0.000000
10.633095 11.632413 1.629745 56.333332
-10.196481 12.636640 1.679119 0.500000
-10.021562 12.952359 1.693520 46.000000
8.732390 12.990269 1.618636 15.000000
8.609816 13.139607 1.624499 29.250000
8.742704 13.138912 1.632008 12.000000
8.481123 13.236098 1.625631 3.000000
8.459325 13.574625 1.654021 4.000000
8.314879 13.724092 1.659369 11.000000
8.434937 13.678664 1.661838 8.000000
8.430488 13.816779 1.673770 33.000000
7.981195 13.952888 1.662250 18.000000
8.275031 13.903473 1.673153 2.500000
-19.167521 25.252289 1.615429 2.000000
-19.385004 25.372881 1.627032 7.000000
-19.486452 26.703014 1.684435 8.000000
-19.538464 26.951687 1.696241 56.000000
-19.488707 27.061567 1.699294 53.000000
16.280027 27.073105 1.609729 13.000000
-19.417545 27.142149 1.700516 20.000000
-18.642305 27.124708 1.677107 24.000000
-18.496178 27.094063 1.671611 13.000000
18.178175 27.236425 1.668557 16.000000
-18.617908 27.643803 1.698277 11.000000
-4.092265 -25.634790 1.775195 25.000000
-4.106702 -25.216114 1.747086 10.000000
-4.102863 -24.703119 1.712429 4.000000
-3.796877 -20.466179 1.787437 29.000000
-3.806450 -20.164351 1.762112 33.000000
-3.815668 -19.870499 1.737472 33.000000
-3.826892 -19.596348 1.714543 30.000000
-12.573364 -15.356182 1.704276 20.000000
-12.912745 -15.129571 1.708041 36.500000
-12.721564 -15.209368 1.702679 44.333332
-13.138604 -15.055759 1.715912 13.000000
-13.049270 -15.096365 1.713516 2.500000
-13.327593 -14.984776 1.722072 12.333333
-13.188468 -15.017403 1.716254 43.000000
-13.623291 -14.841124 1.729943 19.333334
-13.472898 -14.910767 1.725665 14.500000
-14.076028 -14.673218 1.746028 1.000000
-14.635671 -14.463031 1.766903 16.500000
-14.845426 -14.351089 1.773063 15.000000
-14.717939 -14.407840 1.768615 18.000000
-14.944535 -14.311273 1.776828 5.000000
-7.430094 -12.755943 1.787723 6.000000
-8.097191 -12.045352 1.757667 12.000000
-7.621904 -12.061321 1.727852 6.000000
-7.972121 -11.980884 1.742759 7.000000
-8.826123 -11.880054 1.792292 0.000000
-9.037142 -11.754099 1.795538 2.000000
-9.108582 -11.488050 1.775460 13.000000
-9.016642 -11.520037 1.771613 1.000000
-13.273572 -11.236910 1.798439 2.000000
-12.888572 -11.050748 1.755648 18.000000
-11.527731 -9.251968 1.790047 38.333332
-11.702126 -9.054218 1.791811 3.000000
-11.379062 -9.035113 1.759591 28.000000
-19.178799 -7.987292 1.784015 14.000000
-18.317312 -7.763924 1.708383 6.000000
-18.359987 -7.714054 1.710094 31.000000
-18.385296 -7.454286 1.703592 12.000000
-5.432443 -7.354938 1.762612 17.000000
-18.514051 -7.304083 1.709068 29.000000
-5.328975 -7.167629 1.721727 32.000000
-4.604478 -7.033701 1.774348 2.000000
-19.054813 -6.969297 1.742263 43.000000
-4.747259 -6.961831 1.778478 4.000000
-19.034451 -6.826571 1.736446 9.000000
-4.733748 -6.826241 1.753283 33.000000
-4.565145 -6.740158 1.718176 35.000000
-4.472536 -6.739389 1.707162 16.333334
-4.953907 -6.533631 1.730567 32.000000
-5.063162 -6.464257 1.733045 26.000000
-4.964992 -6.421632 1.713220 0.000000
-19.448034 -6.292795 1.755268 24.000000
-5.620651 -6.235797 1.771869 19.000000
-5.580143 -6.230102 1.765261 10.000000
-5.648774 -6.053335 1.747501 39.500000
-5.912253 -5.893708 1.761957 3.000000
-16.156187 -5.737077 1.772929 1.000000
-15.746903 -5.815587 1.735899 10.000000
-5.666020 -5.799306 1.711238 43.799999
-3.390190 -5.753008 1.784645 6.333333
-3.262637 -5.762003 1.769670 18.000000
-19.068857 -5.644829 1.707699 8.000000
-3.406359 -5.657942 1.765023 44.000000
-3.285310 -5.717929 1.762441 20.000000
-3.122124 -5.636958 1.722162 21.000000
8.038624 -5.666425 1.718257 1.000000
-16.150581 -5.621063 1.768403 18.000000
-15.791265 -5.551692 1.730961 19.000000
8.083754 -5.622540 1.720322 7.000000
-15.931168 -5.488651 1.742482 22.000000
8.113658 -5.481145 1.710684 3.000000
-16.481407 -5.361536 1.792267 8.000000
-16.369102 -5.410390 1.782804 69.000000
-5.705950 -5.368378 1.799497 43.799999
-3.869571 -5.361348 1.767088 24.000000
-19.188370 -5.224159 1.707699 12.000000
-4.117625 -5.308426 1.795490 9.500000
7.564986 -5.228518 1.772707 19.000000
-19.545160 -5.123927 1.735077 19.000000
-16.458937 -5.192601 1.784724 12.000000
-16.195793 -5.184312 1.758528 33.000000
-5.011493 -5.187740 1.790789 102.000000
13.861902 -5.207585 1.793253 12.000000
-5.145811 -5.065609 1.792716 82.000000
13.351656 -5.063820 1.729295 11.000000
13.809648 -5.039953 1.780269 1.000000
13.901801 -5.123133 1.794215 3.000000
-19.225496 -4.975631 1.705303 2.000000
-5.010263 -4.942611 1.791658 45.666668
-4.923920 -5.012096 1.722613 64.166664
-4.560428 -4.949002 1.798588 41.000000
-4.236106 -4.975648 1.746432 33.000000
7.379766 -4.967952 1.714913 23.299999
7.458241 -4.949617 1.725513 4.000000
-4.807762 -4.883905 1.701474 20.000000
7.765848 -4.860193 1.766019 7.000000
7.903401 -4.843225 1.786841 13.500000
-7.561055 -4.798399 1.726270 5.500000
-5.698405 -4.744364 1.703146 23.000000
7.923607 -4.787351 1.784569 14.000000
-5.536307 -4.653750 1.795608 33.000000
10.221602 -4.710062 1.764032 4.000000
-6.130096 -4.587565 1.758664 28.000000
-16.790890 -4.514812 1.798027 18.000000
-6.066263 -4.510135 1.736278 36.000000
-19.936617 -4.365111 1.752530 15.000000
12.100433 -4.332583 1.784602 42.000000
-19.887899 -4.289018 1.747054 6.000000
-4.877553 -4.313776 1.740236 87.000000
11.952632 -4.322073 1.764798 40.000000
-19.872776 -4.155275 1.743404 9.000000
-16.806168 -4.152873 1.790210 13.000000
9.182976 -4.179032 1.762659 21.000000
9.085739 -4.083292 1.740286 38.000000
9.143654 -4.040459 1.746481 38.000000
10.204969 -4.032182 1.719849 20.666666
12.301290 -4.044403 1.797989 51.666668
-5.659506 -3.937855 1.711755 40.000000
-5.231837 -3.941042 1.750564 0.000000
7.090095 -3.999884 1.718176 13.444445
7.345460 -3.933652 1.758653 3.000000
9.079868 -3.989587 1.732713 17.333334
13.727931 -3.959769 1.730256 2.000000
16.214231 -4.021615 1.727533 19.333334
7.184121 -3.899673 1.725280 41.400002
9.057150 -3.883757 1.721699 22.500000
7.428751 -3.799849 1.761131 1.000000
9.512799 -3.781757 1.788474 40.000000
-5.594808 -3.687696 1.790842 10.000000
9.438594 -3.690580 1.770575 29.600000
12.272704 -3.667984 1.778551 19.000000
13.774504 -3.693479 1.727050 6.666667
-6.824001 -3.599408 1.772096 9.000000
-6.723154 -3.573260 1.748814 0.000000
-6.573626 -3.546938 1.715682 15.000000
-5.885639 -3.568683 1.708863 0.000000
-5.903377 -3.516412 1.705972 10.500000
-5.453209 -3.472741 1.727842 4.000000
7.004086 -3.513510 1.799855 8.500000
13.852643 -3.482050 1.729775 5.000000
16.756025 -3.436471 1.768815 39.000000
12.494823 -3.394769 1.797805 83.000000
8.229123 -3.243197 1.705070 22.000000
7.499937 -3.222212 1.722857 39.333332
7.880320 -3.177444 1.793347 44.500000
7.924304 -3.151861 1.799955 1.000000
12.312661 -3.056200 1.761497 2.000000
16.438385 -3.103100 1.729933 17.000000
7.808550 -2.971585 1.763402 32.000000
16.427090 -2.951590 1.725942 42.799999
7.831700 -2.833490 1.757827 12.000000
17.074299 -2.808302 1.789387 8.500000
8.005413 -2.636009 1.778891 58.000000
16.845520 -2.634960 1.763191 20.666666
8.096957 -2.588741 1.794173 6.000000
16.844753 -2.526483 1.761409 15.000000
8.027685 -2.462619 1.772282 20.500000
16.935276 -2.485684 1.770049 25.000000
8.084348 -2.403892 1.780130 3.000000
16.430298 -2.174725 1.713886 14.500000
-13.429976 6.049774 1.783796 40.000000
9.664795 7.572721 1.704834 0.000000
9.352404 8.353214 1.741143 3.000000
9.400581 8.316932 1.742793 0.000000
9.215894 8.468513 1.737842 16.000000
8.192933 9.266943 1.717487 25.000000
8.143951 9.299467 1.716387 15.500000
5.526143 9.944851 1.783233 17.000000
7.512100 9.976137 1.733991 20.000000
5.429285 10.047421 1.790047 56.500000
7.223835 10.045628 1.718037 46.000000
7.703360 10.064711 1.759847 12.000000
7.067415 10.161108 1.718587 34.000000
7.370808 10.115315 1.737842 30.000000
7.498852 10.089915 1.745543 16.750000
6.963207 10.261526 1.721888 14.333333
7.237796 10.222124 1.739125 19.333334
7.369195 10.180143 1.744993 8.000000
7.489252 10.210314 1.758196 37.000000
6.979360 10.425828 1.742059 21.666666
7.008728 10.564978 1.760397 3.000000
9.919992 11.013402 1.795017 64.333336
5.264986 11.103028 1.706210 25.000000
5.534324 11.168394 1.730690 40.000000
5.626033 11.264376 1.748294 55.000000
9.495340 11.196522 1.777865 56.000000
5.290603 11.340545 1.737567 5.500000
5.906341 11.375043 1.779651 0.000000
9.442614 11.313463 1.784597 59.000000
5.771072 11.419835 1.776625 37.000000
5.844526 11.386871 1.777176 48.000000
9.359116 11.430606 1.789086 51.000000
-12.241084 11.571683 1.741933 47.333332
9.346256 11.562282 1.800467 14.000000
-12.563789 11.642227 1.771283 11.000000
-12.500026 11.693225 1.770049 36.000000
-12.323031 11.747371 1.760586 5.000000
-11.944116 11.749746 1.732607 28.000000
-11.748844 11.703817 1.714915 88.000000
-12.194354 11.920767 1.763466 1.000000
-12.068887 12.098408 1.767169 54.000000
-11.457085 12.077474 1.721498 140.000000
-11.904857 12.392606 1.777044 55.000000
-11.890594 12.455844 1.780747 11.000000
-11.363244 12.637981 1.757500 65.000000
-11.803618 12.679999 1.791444 17.000000
-11.656723 12.842051 1.793501 39.000000
10.061167 13.022325 1.701749 4.000000
-10.438907 13.232185 1.742893 78.000000
-10.140860 13.191977 1.720675 21.000000
-10.077634 13.195310 1.716972 27.000000
-9.951902 13.463961 1.731373 2.000000
-9.923681 13.514403 1.733842 17.000000
-10.667277 13.609380 1.788153 56.000000
-10.401688 13.708692 1.779512 42.000000
-10.371622 13.803658 1.785478 11.500000
-10.383655 13.956145 1.798850 0.000000
8.275274 14.362125 1.714092 18.000000
8.406233 14.484029 1.731784 17.000000
8.729098 14.510445 1.751122 15.000000
8.254823 14.643974 1.738367 2.000000
8.377410 14.752903 1.754414 21.000000
8.596271 14.704862 1.761409 21.000000
8.745382 14.852641 1.782392 7.000000
-8.174002 18.952494 1.772379 2.000000
-8.008913 19.061756 1.775459 4.000000
-7.953581 19.097862 1.776486 1.000000
-7.880208 19.261805 1.787095 3.000000
-19.619137 27.606794 1.725757 17.000000
-19.513872 27.642189 1.724128 18.000000
-19.523272 27.840725 1.732678 9.000000
-19.437986 27.905209 1.732881 3.000000
-19.384325 28.015408 1.735935 8.000000
-3.389444 -35.460163 1.815118 1.000000
-4.154343 -35.258038 1.809012 23.000000
-4.042653 -35.262974 1.808604 21.000000
-3.873823 -35.257767 1.807383 23.000000
-3.705117 -35.251839 1.806162 23.000000
-3.592729 -35.247406 1.805348 23.000000
-3.481200 -35.250565 1.804940 20.000000
-3.640164 -27.173235 1.874802 26.000000
-4.003150 -26.978889 1.865114 18.000000
-3.872852 -26.975763 1.863613 24.000000
-3.743766 -26.979847 1.862658 27.000000
-4.068899 -26.559376 1.837415 19.000000
-4.080164 -26.085163 1.805486 24.000000
-3.754216 -21.757227 1.895922 33.000000
-3.772181 -21.458788 1.870940 27.000000
-3.776365 -21.093767 1.840139 32.000000
-3.789017 -20.787745 1.814473 33.000000
-15.885984 -13.926700 1.814130 22.000000
-15.746013 -13.979935 1.808141 21.500000
-16.019882 -13.867035 1.819435 36.500000
-16.730894 -13.630796 1.853144 2.000000
-16.411509 -13.717283 1.836717 2.000000
-17.381285 -13.361245 1.882575 4.000000
-17.228855 -13.417031 1.875160 6.000000
-17.648211 -13.260263 1.895580 39.500000
-17.528389 -13.299950 1.889420 50.000000
-8.614548 -13.079544 1.896646 28.000000
-7.559646 -12.838857 1.804314 8.000000
-8.833974 -12.705691 1.874044 34.000000
-8.339759 -12.322406 1.801909 43.000000
-8.786770 -12.223583 1.823069 2.000000
-8.763794 -12.071150 1.806478 25.000000
-7.991962 -10.824203 1.868221 0.000000
-8.312846 -10.755566 1.887475 10.000000
-8.250059 -10.743920 1.880874 20.000000
-10.484621 -10.591296 1.804795 7.000000
-8.740252 -10.468064 1.893527 8.000000
-8.344812 -10.453366 1.857219 2.000000
-8.239730 -10.455804 1.848417 16.000000
-8.213449 -10.355367 1.835214 4.000000
-11.104458 -10.111331 1.818741 25.500000
-11.519552 -9.814310 1.832687 0.000000
-9.298541 -9.812330 1.877023 9.000000
-9.005998 -9.684826 1.836314 1.000000
-4.933024 -7.185651 1.839605 9.000000
-5.257407 -7.117959 1.867691 7.000000
-5.230285 -7.019487 1.847590 33.666668
-4.624035 -6.888902 1.802096 38.000000
-16.848320 -6.524888 1.868385 13.000000
-4.921115 -6.532912 1.878654 21.000000
-4.846843 -6.476552 1.858059 36.000000
-4.655451 -6.443085 1.825823 32.666668
-5.035271 -6.346103 1.860745 6.000000
-16.463829 -6.316572 1.823537 12.000000
-5.060966 -6.265517 1.850000 47.111111
-17.028875 -6.167728 1.872911 5.000000
-5.655249 -5.835768 1.866566 51.000000
7.736128 -5.732761 1.856119 11.000000
7.768803 -5.681752 1.855361 16.500000
-16.548262 -5.527340 1.804199 34.000000
7.719953 -5.571911 1.835297 19.500000
7.815824 -5.548159 1.847664 13.000000
-17.515203 -5.485571 1.898009 3.000000
-5.696042 -5.456594 1.811794 32.000000
-5.768775 -5.366309 1.809705 16.000000
-4.086941 -5.366882 1.802891 4.333333
-17.134653 -5.248404 1.853161 7.000000
-17.095276 -5.295142 1.850693 39.000000
8.094855 -5.311261 1.866340 11.333333
7.995203 -5.198099 1.838326 8.000000
-6.233057 -5.107152 1.850895 10.000000
-6.126751 -5.052299 1.824032 26.000000
7.931787 -5.086274 1.816369 18.333334
-4.954438 -4.973027 1.862750 44.800003
7.201786 -4.944099 1.843735 24.000000
-5.524559 -4.906724 1.834482 22.666666
12.290141 -4.841215 1.834113 0.000000
8.240871 -4.752119 1.833783 11.000000
-5.714093 -4.652001 1.829342 67.000000
-4.915112 -4.669221 1.811842 64.000000
12.318556 -4.696593 1.830538 5.000000
-17.093403 -4.538622 1.828886 53.000000
-16.968575 -4.619805 1.818600 4.000000
7.741831 -4.562107 1.896602 60.000000
12.379207 -4.608706 1.834113 13.000000
-17.097237 -4.453575 1.827034 24.000000
12.595706 -4.465322 1.855568 7.000000
-16.958092 -4.332024 1.809959 28.000000
-6.641583 -4.385173 1.828061 16.125000
-5.502474 -4.408270 1.884309 11.000000
-17.060354 -4.301093 1.819423 7.000000
-17.253593 -4.148605 1.835058 15.000000
-5.675155 -4.219355 1.889989 7.000000
6.935718 -4.087081 1.849105 24.000000
-17.222134 -3.969742 1.827652 36.500000
-17.052223 -4.015263 1.811605 24.000000
6.938060 -4.015329 1.841269 19.000000
7.057837 -3.996466 1.862984 22.000000
8.960786 -3.927916 1.886025 4.000000
11.392653 -3.958426 1.890388 2.000000
16.991516 -3.960322 1.804199 3.500000
17.572489 -4.008501 1.863859 11.000000
-17.244946 -3.832636 1.826829 4.500000
7.091285 -3.863358 1.854861 27.714285
8.957023 -3.852671 1.879590 53.400002
9.621552 -3.860039 1.811191 33.000000
-5.694048 -3.817608 1.832153 19.500000
11.397994 -3.820392 1.884195 9.000000
11.433058 -3.752333 1.886053 4.000000
7.723065 -3.715250 1.808858 8.888889
7.998726 -3.626700 1.853648 105.000000
17.104109 -3.676172 1.809137 11.000000
7.908986 -3.616009 1.835475 0.000000
-5.954330 -3.334587 1.823891 1.000000
-5.872298 -3.361785 1.808399 7.000000
7.271965 -3.389418 1.842836 12.000000
-5.873146 -3.313401 1.802203 3.000000
7.281448 -3.246479 1.831195 49.000000
7.912361 -3.233809 1.804085 2.000000
7.340977 -3.217787 1.841045 41.500000
7.558428 -3.165654 1.882236 1.500000
8.364341 -3.175644 1.888342 77.000000
7.628899 -3.034365 1.885818 48.000000
8.145735 -3.034228 1.834649 19.000000
17.690838 -3.052559 1.856453 21.000000
7.614927 -2.991920 1.879251 38.666668
8.133195 -3.000494 1.829693 1.000000
15.015056 -2.981233 1.853846 37.000000
17.696419 -2.996301 1.856042 27.000000
8.219941 -2.886637 1.838779 95.000000
14.849590 -2.875686 1.831725 21.500000
15.104919 -2.851374 1.861540 105.000000
8.167602 -2.810736 1.823084 1.000000
14.793644 -2.744510 1.822107 0.000000
14.724061 -2.683780 1.812489 17.000000
14.818631 -2.628947 1.822588 12.000000
9.165884 7.573185 1.863600 14.750000
9.296515 7.532466 1.875399 13.600000
9.165015 7.706892 1.876917 11.750000
9.200046 7.835391 1.894105 10.000000
8.925176 7.946455 1.873045 14.000000
8.997293 8.061478 1.893485 3.000000
8.594920 8.517266 1.896582 3.000000
8.110102 8.859938 1.882646 8.000000
8.275896 8.843815 1.898441 0.000000
9.618745 9.519940 1.879113 7.600000
5.559766 10.079813 1.804293 23.000000
5.622740 10.347184 1.845792 66.000000
6.080275 10.285310 1.872736 7.500000
6.243413 10.374372 1.897821 21.000000
5.472000 10.378572 1.838979 57.000000
5.311621 10.496987 1.843934 44.666668
5.445726 10.568989 1.863548 50.333332
5.599133 10.539311 1.870568 29.000000
5.129367 10.729769 1.864064 8.500000
5.268017 10.715199 1.871497 17.000000
5.357231 10.726184 1.879239 14.000000
5.615245 10.731847 1.898441 97.000000
5.215138 10.778427 1.876762 18.000000
5.142012 10.887845 1.887292 5.000000
10.037121 10.980446 1.801589 33.000000
9.899012 11.129948 1.803833 23.000000
3.677966 11.326391 1.866542 57.000000
3.733176 11.314571 1.867471 14.000000
6.737419 11.479154 1.848142 33.000000
9.631042 11.539044 1.820183 49.000000
-10.578724 11.581121 1.899531 9.000000
6.088991 11.637270 1.823661 2.000000
6.130810 11.583906 1.819810 2.500000
6.730049 11.591286 1.861069 10.000000
9.963814 11.637308 1.855289 42.000000
6.683130 11.764436 1.878673 0.000000
6.708250 11.722751 1.875373 2.000000
8.633338 12.670246 1.856731 18.000000
8.746097 12.621650 1.859617 21.500000
-11.836546 12.958129 1.814897 16.000000
8.571240 13.103220 1.896165 3.000000
-11.517323 13.179322 1.809959 21.000000
-12.286474 13.366126 1.877437 2.000000
-11.536654 13.341739 1.823949 48.000000
-11.410513 13.350485 1.816131 53.500000
-12.404059 13.409239 1.888957 20.000000
-11.370126 13.866876 1.854396 17.000000
-11.261168 13.822323 1.843698 8.000000
-10.419926 14.378702 1.836292 5.000000
-10.443656 14.555323 1.852544 1.000000
10.559163 14.592272 1.862625 20.000000
10.672432 14.603346 1.870442 4.500000
10.807270 14.642568 1.881963 17.000000
10.266346 14.765837 1.859745 16.000000
10.457998 14.743063 1.869208 1.000000
9.303478 14.825267 1.809959 1.000000
9.625665 14.867578 1.831560 7.500000
10.006395 14.784942 1.846167 5.000000
10.442733 14.919309 1.883197 3.000000
10.528512 14.941721 1.890192 12.000000
9.542645 15.048360 1.842669 10.500000
10.245470 15.036202 1.881551 8.000000
10.324166 15.049875 1.887312 0.000000
-8.216505 19.385088 1.807970 2.000000
-7.913999 19.519144 1.808655 0.000000
7.113222 25.562803 1.814492 8.000000
7.668013 25.672731 1.832230 12.000000
7.735933 25.606493 1.829228 6.000000
6.929624 25.735779 1.822588 28.333334
7.430140 25.759197 1.833322 15.000000
7.516619 25.754883 1.834686 13.000000
6.654071 25.785072 1.821041 4.000000
7.277883 25.839947 1.835778 28.000000
7.355742 25.805441 1.834959 8.000000
7.613314 25.784725 1.838507 25.000000
6.083641 25.917387 1.820496 20.000000
6.462915 25.882977 1.824316 13.000000
6.360831 25.994570 1.830047 7.000000
5.869744 26.109844 1.830047 27.000000
5.960617 26.130182 1.832776 21.000000
6.214013 26.103903 1.834959 14.000000
5.819622 26.272318 1.840144 8.000000
6.075968 26.255182 1.842873 9.000000
6.963037 26.298273 1.860339 12.000000
5.691331 26.480034 1.852152 7.000000
6.952044 26.594143 1.879714 44.000000
6.442060 26.689421 1.877531 5.000000
-3.628438 -28.442530 1.960765 30.000000
-3.633434 -27.785999 1.916283 29.000000
-3.733747 -22.051832 1.920562 8.000000
-4.616072 -18.736832 1.995522 73.500000
-4.478862 -18.815056 2.000048 68.333336
-4.756187 -18.672977 1.992642 76.333336
-5.092189 -18.525021 1.986745 75.333336
-4.925179 -18.601677 1.989899 75.333336
-5.230861 -18.460884 1.984208 79.000000
-5.507596 -18.334528 1.979682 76.000000
-5.368412 -18.394375 1.981533 77.666664
-5.673650 -18.260910 1.977419 56.000000
-5.589876 -18.295074 1.978242 83.000000
-5.977496 -18.127371 1.973853 62.666668
-5.865552 -18.170935 1.974539 65.000000
-5.785261 -18.215420 1.976390 64.500000
-6.113534 -18.061684 1.971864 52.000000
-6.278248 -17.988237 1.970218 58.000000
-6.194067 -18.019526 1.970424 88.000000
-6.576397 -17.845308 1.966721 82.333336
-6.413282 -17.921480 1.968367 88.333336
-6.851616 -17.728731 1.965487 84.000000
-6.740058 -17.771376 1.965487 89.666664
-7.013482 -17.650986 1.964115 91.333336
-6.904387 -17.699705 1.964664 91.000000
-7.230707 -17.551710 1.963018 93.000000
-7.150155 -17.591097 1.963635 88.500000
-7.476533 -17.444057 1.962607 95.000000
-7.341840 -17.508324 1.963292 92.666664
-7.613823 -17.385981 1.962744 96.666664
-7.940721 -17.240589 1.962881 70.666664
-7.778424 -17.315872 1.963018 56.000000
-8.186827 -17.133221 1.963635 90.000000
-8.078163 -17.182524 1.963429 89.000000
-8.380243 -17.053448 1.964938 91.000000
-8.268342 -17.096268 1.963841 85.000000
-8.654930 -16.935059 1.966721 43.666668
-8.515427 -16.990101 1.965281 90.500000
-8.819689 -16.863312 1.967955 47.000000
-8.980727 -16.784121 1.968504 81.000000
-9.284252 -16.653126 1.971658 89.500000
-9.145511 -16.711535 1.970013 77.333336
-9.580542 -16.567234 1.979064 38.500000
-9.425872 -16.599266 1.973990 75.333336
-9.856960 -16.443722 1.982562 21.000000
-9.711669 -16.493744 1.979339 31.000000
-10.069084 -16.328716 1.983796 18.000000
-9.993071 -16.377707 1.984002 4.000000
-10.283101 -16.234842 1.987293 60.333332
-10.186254 -16.288740 1.986676 38.000000
-10.499477 -16.139400 1.991079 67.199997
-10.382989 -16.204254 1.990174 51.000000
-10.771850 -16.024117 1.996674 70.000000
-10.656025 -16.069010 1.993877 70.000000
-10.594546 -16.085794 1.991819 74.000000
-10.888472 -15.979870 1.999637 46.000000
-8.734215 -13.725823 1.970222 6.000000
-8.740803 -13.594313 1.957238 21.000000
-8.778816 -13.513030 1.951468 4.000000
-8.853112 -13.350265 1.939926 24.000000
-8.662539 -13.242793 1.916362 83.000000
-17.951740 -13.138650 1.910295 52.000000
-17.795206 -13.196587 1.902424 58.500000
-8.791375 -13.167168 1.917324 15.000000
-18.289059 -13.035772 1.928604 3.500000
-18.154648 -13.069476 1.920904 21.000000
-18.438776 -12.954143 1.935050 58.666668
-8.970032 -12.988243 1.911553 30.000000
-18.755119 -12.841848 1.951876 59.000000
-18.588928 -12.900366 1.942978 59.000000
-18.999414 -12.747789 1.964709 56.000000
-18.869862 -12.790266 1.957522 58.000000
-19.298452 -12.642985 1.981136 45.000000
-19.177177 -12.693048 1.974805 44.500000
-19.609211 -12.540551 1.998760 43.500000
-19.477926 -12.586378 1.991403 44.000000
-19.391523 -12.617075 1.986611 43.000000
-10.736540 -12.420882 1.988256 0.000000
-8.368821 -11.637875 1.990349 22.000000
-8.478134 -11.558483 1.990349 10.000000
-8.293070 -11.609301 1.980996 16.000000
-11.018713 -11.510329 1.929667 56.000000
-8.658458 -11.498510 1.998600 1.000000
-11.928515 -11.104077 1.973589 9.000000
-9.003157 -11.062595 1.980446 27.000000
-8.480405 -10.831023 1.910030 34.000000
-8.314792 -10.898935 1.903429 10.000000
-12.177032 -10.777117 1.969261 2.000000
-11.673541 -10.730612 1.920209 19.000000
-8.414711 -10.816958 1.902879 17.000000
-9.553532 -10.018184 1.922133 16.000000
-4.618346 -6.982904 1.922979 20.500000
-17.683584 -6.657395 1.953966 21.000000
-17.672033 -6.526453 1.948124 43.599998
-6.300454 -6.522032 1.913949 13.000000
-4.490848 -6.475986 1.956567 44.000000
-6.924786 -6.241675 1.967642 11.000000
-5.968883 -6.237325 1.982974 17.000000
-5.050230 -6.263306 1.997529 13.500000
-6.886054 -6.167665 1.951121 3.000000
-5.818674 -6.215795 1.955663 33.000000
-5.622993 -6.189396 1.920740 13.500000
-17.978443 -6.067884 1.962195 67.000000
-6.724536 -6.118781 1.918906 13.500000
-5.199848 -6.088592 1.987891 7.000000
-5.836724 -5.966511 1.917159 51.000000
-4.889039 -5.928663 1.980599 24.000000
-6.573592 -5.614423 1.985661 40.500000
-6.448388 -5.613367 1.963722 35.000000
-5.909574 -5.428424 1.992228 24.000000
-5.863983 -5.420610 1.982590 51.000000
-5.670059 -5.357994 1.936808 42.166668
7.519821 -5.330190 1.945431 6.000000
7.617401 -5.282406 1.956491 32.500000
-17.812639 -5.181831 1.918376 21.000000
7.889890 -5.147280 1.988294 16.500000
7.920927 -5.167583 1.996141 6.500000
-17.706348 -5.040461 1.903769 21.666666
-6.170900 -5.056221 1.980662 26.000000
13.425344 -5.046256 1.991449 4.000000
-17.717192 -4.943391 1.902124 1.000000
12.781409 -4.988404 1.905079 34.000000
-5.501922 -4.896868 1.968480 23.000000
8.051239 -4.676531 1.965164 0.000000
-6.168734 -4.556305 1.976779 18.500000
-5.489914 -4.585325 1.911677 8.000000
7.688720 -4.602740 1.957586 19.200001
7.819420 -4.607657 1.915601 45.500000
7.926881 -4.571056 1.931296 27.000000
11.755664 -4.418664 1.968432 21.000000
11.823296 -4.370039 1.975710 39.500000
-6.812071 -4.248395 1.993192 5.000000
-6.742603 -4.264067 1.980662 19.666666
9.309210 -4.273861 1.974610 38.500000
13.092051 -4.319653 1.914248 7.000000
13.594553 -4.249854 1.977696 12.000000
-18.405064 -4.151135 1.951086 63.000000
-6.778918 -4.139492 1.971988 0.000000
-6.165162 -4.204013 1.994300 25.000000
-6.002676 -4.148776 1.950149 22.250000
9.250551 -4.194289 1.957953 11.000000
11.624448 -4.203402 1.937462 1.000000
13.110927 -4.189273 1.911131 9.000000
13.638118 -4.216486 1.982097 2.000000
-18.503462 -4.112288 1.960138 22.000000
6.714095 -4.085455 1.951266 25.000000
6.885086 -4.096193 1.989015 14.666667
18.810663 -4.104826 1.990996 23.000000
-18.224787 -3.990307 1.929279 7.000000
6.946101 -4.005422 1.990782 8.500000
9.062738 -4.017936 1.911011 51.000000
11.543298 -3.970169 1.913306 20.000000
18.802540 -4.010306 1.988116 20.500000
-18.142883 -3.841206 1.917759 11.000000
6.972815 -3.876239 1.980662 0.000000
7.041604 -3.891262 1.997433 14.000000
-18.819462 -3.811760 1.985648 34.000000
11.918718 -3.725964 1.957283 0.000000
18.690847 -3.731410 1.970973 46.000000
-18.940651 -3.712579 1.995934 22.000000
11.790405 -3.685903 1.936224 10.000000
13.221336 -3.681516 1.905630 15.000000
13.779754 -3.651062 1.979346 1.000000
8.342879 -3.563704 1.914775 10.000000
9.500624 -3.563251 1.956006 24.142857
11.805845 -3.609410 1.934985 15.000000
18.216906 -3.557508 1.919405 1.000000
12.150311 -3.498644 1.981811 33.000000
7.214506 -3.362649 1.976164 20.000000
12.214848 -3.421921 1.988253 1.000000
-18.193844 -3.270315 1.911587 3.000000
7.139223 -3.291228 1.951748 13.000000
7.223240 -3.261278 1.967651 9.250000
12.035427 -3.269953 1.954805 19.000000
7.740702 -3.163651 1.920740 19.000000
7.867606 -3.172312 1.948499 44.500000
18.610466 -3.151065 1.951909 5.000000
8.064229 -3.032752 1.978945 1.000000
13.894125 -3.080253 1.976045 25.000000
13.969536 -3.050959 1.985397 9.000000
7.364314 -2.950803 1.969675 38.599998
8.007104 -2.939989 1.959245 25.000000
7.881013 -2.893425 1.928352 49.500000
7.504067 -2.813120 1.989658 38.666668
16.142626 -2.733218 1.982726 17.000000
16.281597 -2.442017 1.993786 20.000000
16.309172 -2.498568 1.998114 24.000000
8.329753 -2.405835 1.991481 58.000000
7.992662 -2.315259 1.911338 37.750000
9.253396 7.931120 1.910209 2.000000
11.596214 7.910401 1.949089 1.000000
9.182347 8.021499 1.911076 41.599998
9.007140 8.121459 1.900918 11.000000
11.580258 8.114610 1.963392 39.000000
11.725858 8.143620 1.982280 18.666666
8.930487 8.258148 1.906493 2.000000
11.258491 8.264134 1.939187 3.000000
11.387331 8.194689 1.947989 6.000000
11.638875 8.265205 1.982097 1.000000
8.963312 8.305992 1.915371 25.666666
9.171807 8.322323 1.941179 30.000000
11.430893 8.298968 1.961375 3.666667
11.675928 8.291601 1.988423 30.500000
8.917768 8.456732 1.926313 37.000000
9.186472 8.388401 1.949850 30.000000
11.150942 8.457837 1.943313 37.500000
11.298016 8.430479 1.957341 20.500000
11.430037 8.445440 1.973295 1.000000
8.687807 8.501790 1.905254 0.000000
8.796632 8.554350 1.923216 22.000000
8.954052 8.544727 1.939940 23.000000
8.938565 8.583764 1.942418 5.000000
9.186537 8.629652 1.975555 29.500000
11.033896 8.645462 1.946339 7.000000
11.116756 8.626152 1.953765 2.000000
11.251210 8.608453 1.967060 8.000000
10.681782 8.755398 1.917732 1.000000
8.382359 8.831665 1.908506 1.250000
10.795254 8.791851 1.933136 31.000000
8.288954 8.932458 1.910003 26.666666
8.116706 9.122805 1.913925 4.000000
8.119263 9.212892 1.924765 8.000000
6.136709 9.442485 1.967459 17.000000
7.269769 10.109505 1.951708 18.000000
7.338569 10.137835 1.961619 1.000000
7.477214 10.227539 1.985775 23.500000
6.290312 10.378363 1.902157 1.000000
6.101516 10.508752 1.904635 3.000000
5.369932 10.922765 1.907732 7.000000
-11.519882 11.016386 1.930308 8.500000
-11.346476 11.445991 1.951788 6.000000
19.818357 11.520672 1.968473 1.000000
10.709032 11.666402 1.917805 42.000000
19.705406 11.579607 1.962656 3.000000
-10.657056 11.740730 1.920209 37.000000
10.786049 11.676455 1.925018 23.000000
-11.196871 11.803169 1.970222 9.000000
-11.211492 11.893186 1.979359 47.000000
-10.962662 12.192414 1.985611 15.500000
9.949657 12.933850 1.976153 17.666666
8.561491 13.239018 1.909309 17.666666
8.575910 13.384028 1.925018 28.000000
7.543694 13.887974 1.913958 0.000000
8.100655 13.907150 1.949063 9.500000
8.556726 13.999086 1.986933 12.750000
8.415994 14.089988 1.987535 18.000000
-13.657527 18.356392 1.964709 52.000000
-8.769976 20.873137 1.944176 0.000000
6.904037 26.987122 1.904912 47.000000
7.381317 27.018423 1.915327 15.000000
5.589839 27.255718 1.902638 14.000000
6.397352 27.253855 1.914372 10.000000
6.842160 27.219673 1.919284 36.000000
5.434020 27.368587 1.908096 13.000000
5.817168 27.485544 1.921195 11.000000
5.999959 27.495239 1.924469 22.000000
5.422970 27.769360 1.934840 12.000000
5.340219 27.809774 1.936477 20.000000
5.624184 27.867739 1.944118 8.000000
5.269111 27.912687 1.942481 2.000000
5.855338 28.101421 1.962948 11.000000
-3.614426 -29.059692 2.002518 30.000000
-3.817649 -19.880817 2.093447 27.000000
-3.823652 -19.579756 2.063000 35.000000
-3.831681 -19.298367 2.034610 37.000000
-4.028796 -19.035847 2.012117 61.333332
-3.886474 -19.102674 2.015889 59.000000
-4.169383 -18.963497 2.007866 61.500000
-4.311398 -18.900387 2.004711 55.000000
-11.038581 -15.929796 2.004163 19.500000
-11.236046 -15.839894 2.008277 9.333333
-11.131766 -15.903717 2.007454 29.000000
-11.449381 -15.744223 2.013112 23.250000
-11.342345 -15.778732 2.009512 14.000000
-11.659636 -15.642586 2.017535 45.000000
-11.834227 -15.568437 2.022266 20.000000
-11.746388 -15.604976 2.019798 63.000000
-12.136272 -15.455740 2.032141 5.000000
-11.982093 -15.508535 2.026655 15.000000
-12.357823 -15.386521 2.040782 0.000000
-12.243066 -15.391623 2.033787 29.500000
-12.710607 -15.228729 2.051274 43.250000
-12.564112 -15.295820 2.046953 29.000000
-12.833056 -15.180497 2.055594 3.000000
-13.248196 -15.037657 2.072463 12.000000
-13.554296 -14.859464 2.079869 2.000000
-7.416471 -12.681607 2.039860 0.000000
-7.382564 -12.715122 2.041510 0.000000
-19.820133 -12.457262 2.010225 41.000000
-19.733755 -12.489624 2.005434 48.000000
-8.357837 -12.513112 2.089371 42.000000
-19.964075 -12.402338 2.018210 52.666668
-8.601427 -12.284112 2.082219 10.000000
-8.512815 -12.321614 2.079469 24.000000
-8.438194 -12.296029 2.070667 33.000000
-8.275503 -12.305969 2.059114 16.000000
-8.621120 -12.149047 2.068466 32.000000
-8.978010 -11.768270 2.055263 2.500000
-8.329532 -11.816618 2.007402 21.000000
-8.960707 -11.370686 2.010153 3.000000
-12.853564 -10.881347 2.039471 2.000000
-10.412791 -10.581347 2.061315 1.000000
-10.311638 -10.577799 2.051137 27.000000
-7.918261 -10.584558 2.071871 18.000000
-8.151532 -10.410993 2.072490 0.000000
-8.039445 -10.267799 2.043998 13.500000
-8.153007 -10.147546 2.040282 8.000000
-11.156760 -10.091497 2.088821 33.000000
-8.254039 -10.045067 2.037804 15.000000
-8.912107 -9.644441 2.058244 8.000000
-8.895130 -9.686944 2.061341 18.000000
-11.474182 -9.344779 2.054713 11.000000
-11.548429 -9.265352 2.055813 39.000000
-11.545585 -8.987995 2.031608 0.000000
-11.662198 -8.730787 2.022806 7.000000
-11.518723 -8.736851 2.007402 19.000000
-11.511307 -8.674395 2.001351 0.000000
-5.210329 -7.364260 2.072072 5.500000
-5.001053 -7.334020 2.038940 3.000000
-4.765007 -7.304022 2.003122 12.500000
-5.327194 -7.212442 2.059535 1.000000
-19.097630 -6.917016 2.100442 16.000000
-4.759657 -6.794971 2.059696 0.000000
-4.866900 -6.665738 2.049094 24.000000
-4.788850 -6.679107 2.040420 15.500000
-4.605321 -6.708305 2.020179 25.000000
-18.371155 -6.556147 2.017123 32.500000
-4.882159 -6.539814 2.026203 54.750000
-18.953470 -6.463368 2.070817 1.000000
-7.015533 -6.444338 2.010597 0.000000
-6.269178 -6.328544 2.046103 29.000000
-6.191832 -6.289865 2.027299 45.000000
-5.633465 -6.289635 2.096321 38.000000
-5.279849 -6.201608 2.022107 7.000000
-18.685379 -6.078439 2.031935 30.000000
-5.766294 -6.082779 2.080900 36.000000
7.686740 -5.771384 2.028770 18.000000
-6.666973 -5.640017 2.005808 21.000000
7.705258 -5.675185 2.019801 22.285715
-15.729139 -5.557567 2.020235 8.000000
7.687059 -5.566548 2.003162 0.000000
-19.355711 -5.466171 2.079869 9.000000
-5.558770 -5.336260 2.059365 15.000000
7.392871 -5.353397 2.096547 16.000000
13.584034 -5.350893 2.027207 2.000000
-18.917877 -5.214404 2.029261 28.000000
-18.705952 -5.219272 2.008277 57.000000
-16.206736 -5.131743 2.058707 1.000000
13.473268 -5.209710 2.005752 1.000000
-16.218988 -5.079611 2.058226 16.000000
7.989160 -5.105371 2.001097 1.500000
13.583955 -4.960271 2.007952 10.000000
13.601761 -5.015257 2.012904 25.000000
12.287222 -4.884712 2.072490 9.000000
-19.286192 -4.797864 2.055182 4.000000
7.487852 -4.735470 2.035000 18.200001
12.384600 -4.699522 2.076206 2.000000
7.581570 -4.564476 2.032672 26.000000
13.674426 -4.623257 2.004285 36.333332
-6.243396 -4.476413 2.053168 3.166667
-6.183084 -4.507131 2.044906 56.000000
7.506172 -4.455068 2.004913 37.000000
-19.579334 -4.351394 2.074109 6.000000
-6.134004 -4.296670 2.001529 18.000000
19.329866 -4.281789 2.047365 22.000000
-16.567642 -4.066333 2.065920 7.000000
9.035423 -4.035263 2.088576 38.000000
12.484747 -4.032464 2.056386 113.000000
12.577203 -4.106004 2.073729 43.000000
16.348263 -4.109433 2.041395 1.000000
16.243034 -3.947597 2.024323 4.000000
-18.983007 -3.865657 2.003340 9.000000
-16.626410 -3.859871 2.067042 5.333333
9.677444 -3.831598 2.006410 9.000000
6.817473 -3.817968 2.088283 7.000000
9.713706 -3.793076 2.010196 15.000000
14.204452 -3.811385 2.042060 3.000000
14.300945 -3.741114 2.052513 1.000000
-19.229610 -3.706519 2.025147 18.000000
8.955061 -3.692837 2.044465 0.000000
9.002846 -3.679494 2.052725 41.000000
-19.365696 -3.575259 2.036461 1.000000
7.978779 -3.587479 2.009390 87.000000
7.092369 -3.256023 2.085701 10.500000
7.165297 -3.221715 2.099643 0.000000
7.744195 -3.165079 2.077045 67.000000
8.353523 -3.171537 2.052372 1.000000
7.458918 -3.103321 2.005722 0.000000
8.557678 -2.975076 2.081026 12.000000
19.279062 -2.953556 2.016918 19.000000
7.300020 -2.903555 2.099643 18.000000
7.118558 -2.805511 2.044906 32.000000
7.878083 -2.780501 2.074153 37.000000
16.464518 -2.734541 2.021197 6.000000
16.751303 -2.728122 2.055341 40.000000
19.321795 -2.773988 2.018564 17.000000
7.777437 -2.703825 2.044275 0.000000
7.871113 -2.663830 2.063069 29.500000
14.863836 -2.647664 2.096339 29.333334
17.026442 -2.718052 2.088041 50.000000
7.406089 -2.620496 2.099644 16.500000
7.923318 -2.574442 2.068371 10.000000
7.417130 -2.516066 2.093240 9.800000
8.678642 -2.447631 2.071176 7.000000
8.742612 -2.373552 2.080827 26.777779
16.373459 -2.376997 2.003644 25.500000
16.548603 -2.243345 2.022399 6.500000
7.960386 -2.197758 2.050299 15.250000
8.095441 -2.201000 2.082828 55.000000
-13.703566 5.952794 2.074517 3.000000
-13.735176 6.043633 2.083595 9.000000
-13.420288 6.005988 2.041510 30.000000
-13.384633 6.065907 2.040410 26.000000
-13.592534 6.211671 2.075068 4.000000
-13.626925 6.279219 2.083320 7.000000
-13.531677 6.286938 2.071767 1.000000
9.040883 7.873003 2.094470 2.000000
8.472016 8.501640 2.096879 12.000000
10.839460 9.620365 2.012353 16.500000
10.817159 9.815221 2.028124 7.333333
11.015342 9.869629 2.053613 3.000000
7.966302 10.043768 2.009312 0.000000
7.827370 10.127413 2.006215 8.500000
5.704226 10.227422 2.045937 9.000000
6.054361 10.253598 2.080357 50.000000
8.029720 10.255420 2.041521 10.000000
5.722567 10.374969 2.070031 67.000000
5.802673 10.289685 2.063836 0.000000
8.110819 10.292219 2.053908 4.000000
10.861288 10.299775 2.078368 3.000000
5.430983 10.459550 2.059017 10.000000
6.027329 10.381239 2.097223 68.000000
10.806286 10.377390 2.080294 5.000000
5.399901 10.480062 2.059705 13.000000
5.527836 10.484473 2.070720 24.000000
7.828397 10.533260 2.057005 0.000000
7.919692 10.494493 2.060722 28.666666
10.772497 10.608301 2.099273 1.000000
5.130497 10.863463 2.098944 16.000000
9.529593 11.055734 2.026657 10.000000
9.957846 10.981987 2.058381 47.000000
10.089218 10.987328 2.071217 76.000000
6.277621 11.131895 2.003118 18.000000
9.934497 11.095531 2.067916 24.000000
6.285085 11.227423 2.016745 15.000000
9.541801 11.187894 2.041693 80.000000
-12.206748 11.347185 2.018312 19.000000
3.679492 11.331091 2.081390 37.500000
3.733484 11.315506 2.081734 16.000000
6.718490 11.324227 2.063819 18.000000
-12.111496 11.437204 2.017350 8.500000
6.585525 11.424877 2.066916 35.000000
9.246764 11.471986 2.045911 37.500000
9.325754 11.385642 2.043527 53.666668
-11.552470 11.900349 2.008534 34.666668
-11.434065 11.977612 2.005328 0.000000
-11.312540 12.384470 2.031296 32.000000
-11.714182 12.743545 2.096216 59.000000
-11.335054 12.807443 2.071210 70.000000
10.422062 13.710693 2.085637 13.000000
8.469407 14.315374 2.014304 35.666668
9.000234 14.476379 2.064317 29.333334
9.164563 14.553116 2.082752 18.000000
8.090565 14.783843 2.040914 1.000000
8.559781 14.909986 2.082030 9.000000
15.554147 26.227440 2.085206 2.000000
15.336759 26.521193 2.095030 10.000000
-4.099325 -24.681818 2.148484 3.000000
-4.142916 -24.468416 2.131030 3.000000
-3.791351 -20.800547 2.186434 33.000000
-3.801522 -20.491219 2.155164 26.000000
-3.812740 -20.197674 2.125540 29.000000
-14.349392 -14.540991 2.112579 13.500000
-14.241085 -14.613766 2.110111 2.000000
-14.651320 -14.433042 2.126774 8.000000
-14.529361 -14.493899 2.122248 27.000000
-14.733552 -14.423124 2.132123 26.000000
-15.313580 -14.165645 2.157221 2.000000
-16.101131 -13.893220 2.199189 10.000000
-8.436952 -12.893014 2.139432 1.000000
-8.403300 -12.753959 2.120728 15.000000
-9.162384 -12.491341 2.150985 0.000000
-9.154514 -12.398747 2.139982 32.000000
-13.222058 -11.336682 2.109201 13.000000
-8.046865 -10.934440 2.127926 12.500000
-8.163760 -10.631534 2.100982 12.000000
-8.619090 -10.355968 2.111822 7.500000
-11.631575 -10.225781 2.150435 34.000000
-11.672591 -10.197012 2.152085 16.000000
-18.843590 -8.338531 2.130889 3.000000
-18.904823 -8.188692 2.130477 14.000000
-18.943228 -8.099516 2.130477 24.000000
-19.048103 -7.932862 2.133769 3.000000
-18.992161 -8.014785 2.131711 38.500000
-19.775326 -7.801676 2.198366 16.000000
-19.156284 -7.731884 2.136238 6.500000
-18.965000 -7.758785 2.118957 14.000000
-19.695978 -7.698946 2.186846 16.000000
-19.259077 -7.668012 2.143644 28.000000
-19.507317 -7.414032 2.158044 19.000000
-5.674201 -7.197692 2.105203 0.000000
-19.639849 -7.043693 2.157633 5.000000
-4.395173 -6.854076 2.176069 2.000000
-4.507828 -6.746427 2.168496 27.000000
-4.450410 -6.821741 2.176844 11.250000
-4.218231 -6.728303 2.122365 21.000000
-6.292108 -6.637453 2.100726 18.000000
-4.628746 -6.719667 2.180717 8.000000
-4.265679 -6.698355 2.122365 9.000000
-4.818987 -6.610905 2.186397 59.000000
-4.452822 -6.552075 2.117201 6.000000
-4.873895 -6.512700 2.174004 1.000000
-4.569370 -6.523314 2.128561 28.000000
-6.984015 -6.255406 2.153558 10.000000
-5.880253 -6.242155 2.129092 4.000000
-5.533565 -6.062150 2.193627 4.000000
-5.063529 -6.062253 2.111004 23.000000
-5.270342 -5.940312 2.122365 9.500000
-5.647509 -5.920119 2.186655 43.250000
-16.794689 -5.786194 2.151199 9.333333
-5.933743 -5.433465 2.150250 17.500000
16.525587 -5.449322 2.107277 3.000000
-5.724143 -5.392273 2.101709 47.000000
7.555227 -5.345403 2.125799 4.000000
7.627019 -5.324612 2.136544 5.000000
7.847737 -5.208167 2.163408 17.666666
-6.228232 -5.038126 2.140955 24.000000
-6.179410 -5.030828 2.129594 31.000000
7.824911 -5.122429 2.148185 18.000000
9.846495 -5.114843 2.138909 5.000000
10.101218 -4.999783 2.172677 16.400000
16.764355 -5.007230 2.118819 0.000000
7.226794 -4.885332 2.165717 6.142857
7.871622 -4.874909 2.126694 50.000000
7.905424 -4.827385 2.127589 24.000000
10.090803 -4.884664 2.161118 37.000000
7.249904 -4.794962 2.158006 22.000000
7.304905 -4.782017 2.167645 10.000000
7.800558 -4.797059 2.103412 67.000000
9.138553 -4.736706 2.172502 26.285715
10.069621 -4.783559 2.149004 39.666668
10.232058 -4.795223 2.178280 0.000000
9.269785 -4.686574 2.192327 10.500000
12.962078 -4.641097 2.157966 38.000000
13.069712 -4.633362 2.173451 46.000000
15.144113 -4.630021 2.198846 2.000000
7.390879 -4.545122 2.154151 0.000000
7.533165 -4.535333 2.183066 12.000000
9.191748 -4.556818 2.165343 13.666667
11.384428 -4.608855 2.145756 26.000000
9.353644 -4.395553 2.181313 46.333332
11.516177 -4.369986 2.151951 1.000000
9.338580 -4.312307 2.171015 63.400002
12.719854 -4.241197 2.101602 3.000000
-6.778628 -4.139349 2.122709 10.333333
11.608497 -4.176995 2.155393 7.500000
13.137279 -4.197693 2.161683 37.000000
6.830017 -4.024871 2.118750 16.500000
11.798886 -4.099574 2.182241 17.000000
6.897190 -3.997847 2.130627 20.000000
6.988179 -3.884780 2.136824 29.000000
7.000349 -3.862807 2.136824 0.000000
8.723603 -3.802097 2.185794 11.000000
17.672358 -3.798306 2.189029 18.000000
17.303480 -3.662189 2.141901 6.000000
9.693899 -3.541709 2.178284 7.000000
17.326563 -3.610242 2.143344 13.000000
13.076685 -3.475871 2.120803 14.750000
15.030144 -3.481037 2.142183 13.000000
15.102808 -3.447909 2.150985 22.000000
9.566566 -3.410271 2.143590 45.500000
12.054993 -3.418025 2.189125 8.000000
13.378763 -3.365478 2.162302 26.000000
9.631375 -3.291929 2.148271 37.000000
9.717705 -3.242078 2.162176 21.000000
13.327904 -3.308199 2.152392 30.000000
7.569188 -3.219164 2.198274 41.000000
8.818055 -3.127834 2.149080 0.000000
7.581348 -3.043073 2.183299 57.000000
8.794735 -3.088490 2.141021 6.000000
13.551583 -3.108666 2.179232 34.666668
13.655736 -3.072445 2.193891 8.000000
8.803296 -2.967769 2.133858 1.000000
7.387451 -2.751772 2.106873 38.000000
14.931568 -2.805220 2.109542 17.000000
17.431149 -2.726528 2.136612 8.000000
7.522613 -2.483498 2.117201 36.000000
7.896427 -2.093700 2.183299 23.000000
7.936611 -2.077690 2.192594 0.000000
9.313315 7.732064 2.114778 18.000000
9.197921 7.783859 2.105140 7.000000
9.364072 7.874114 2.137495 7.000000
11.519163 7.937648 2.192652 2.000000
9.050151 8.186059 2.131988 1.000000
9.052034 8.396923 2.157115 20.000000
9.188839 8.417107 2.177078 3.500000
11.063910 8.391879 2.176548 10.000000
8.426180 8.598510 2.103304 6.000000
9.160077 8.595914 2.194632 28.000000
8.398344 8.769992 2.121432 29.000000
8.791645 8.767128 2.169162 62.000000
8.894713 8.814351 2.187748 53.000000
8.169700 8.953238 2.117531 10.000000
8.442643 8.951232 2.149714 27.750000
10.837559 8.883081 2.196369 5.000000
6.362148 9.267375 2.166923 1.000000
6.331655 9.316725 2.171466 30.000000
6.470649 9.330878 2.188880 1.500000
9.518318 9.672393 2.126997 27.000000
