# This PCD file was generated using the MATLAB® pcwrite function
# from Computer Vision Toolbox®.
# .PCD v.7 - Point Cloud Data file format
VERSION .7
FIELDS x y z intensity
SIZE 4 4 4 4
TYPE F F F F
COUNT 1 1 1 1
WIDTH 1216
HEIGHT 1
VIEWPOINT 0 0 0 1 0 0 0
POINTS 1216
DATA ascii
-4.185055 -5.299364 -0.241945 26.250000
-4.185736 -5.148962 -0.237755 18.600000
11.574536 -5.064009 -0.233318 0.000000
-4.191482 -5.009539 -0.234031 13.500000
-4.195082 -4.872228 -0.230365 5.000000
-4.197280 -4.692755 -0.225581 1.000000
-2.185098 -2.849735 -0.253693 1.000000
4.333632 -2.831530 -0.275556 5.000000
4.831211 -2.869994 -0.252524 13.714286
-2.148427 -2.759390 -0.268185 34.434784
4.348448 -2.762495 -0.274235 33.857143
-2.132686 -2.586877 -0.267761 64.263161
-2.158095 -2.432729 -0.263726 52.799999
-2.131325 -2.427775 -0.282202 59.434784
-2.121870 -2.288222 -0.269727 53.950001
-2.136021 -2.156324 -0.268429 62.875000
-2.148275 -2.005951 -0.250921 46.916664
-2.145557 -1.860833 -0.241829 48.335423
-2.133795 -1.698736 -0.277107 49.846153
-2.160275 -1.550688 -0.268957 45.071426
-2.158177 -1.409031 -0.283641 45.198925
-2.159330 -1.241340 -0.257400 44.432236
8.021608 -1.226058 -0.290749 0.000000
-2.330263 -1.114208 -0.273155 40.200001
-2.165841 -1.092721 -0.267253 39.350182
7.937724 -1.098757 -0.287120 0.000000
-2.158987 -0.945195 -0.271591 43.400116
7.913783 -0.968896 -0.285664 0.000000
8.057845 -1.025088 -0.291035 1.000000
-2.136149 -0.863586 -0.248808 56.875000
7.872068 -0.913598 -0.283946 0.000000
-2.208527 -0.799344 -0.267093 37.374195
7.847026 -0.811001 -0.282657 0.000000
-2.219387 -0.644526 -0.264670 37.675674
7.837025 -0.660864 -0.281797 0.000000
-2.335124 -0.466512 -0.247156 35.444443
-2.228131 -0.503595 -0.266204 35.279999
-2.144727 -0.479868 -0.261321 40.500000
7.829474 -0.511827 -0.281129 1.000000
-2.210150 -0.348104 -0.262024 38.304764
7.814956 -0.350813 -0.280293 4.142857
-2.203367 -0.211089 -0.267497 39.682541
7.799885 -0.190626 -0.279553 10.833333
-2.205202 -0.040925 -0.260480 38.758621
-2.138385 -0.045625 -0.264117 46.555557
7.804091 -0.043582 -0.279625 9.000000
-2.329058 0.088985 -0.251461 32.176472
-2.166450 0.106191 -0.277152 43.759804
7.808190 0.103566 -0.279792 3.666667
-2.203056 0.266991 -0.260178 38.010525
-2.134887 0.208234 -0.254355 46.818180
7.806848 0.250804 -0.279864 27.500000
-2.214864 0.398372 -0.269741 32.807339
7.796077 0.397641 -0.279697 28.500000
-2.346170 0.563653 -0.265090 34.961540
-2.220171 0.544258 -0.261337 31.609756
7.773242 0.543516 -0.279195 109.833336
-2.216620 0.702908 -0.262953 31.352459
-2.147532 0.725646 -0.279616 29.500000
7.775548 0.691233 -0.279697 39.500000
-3.122870 0.846124 -0.285058 1.000000
-2.469837 0.851937 -0.276326 32.500000
-2.357799 0.851549 -0.283243 23.823530
-2.203082 0.839554 -0.265948 34.240505
7.779014 0.839670 -0.280341 0.000000
-2.441158 0.933164 -0.276297 12.000000
-2.121335 0.882521 -0.255171 39.391304
7.883224 0.938622 -0.284447 0.000000
-2.154034 0.990794 -0.270043 45.440659
8.023080 0.980846 -0.289603 0.000000
8.178613 1.025948 -0.295332 0.000000
-2.144198 1.157281 -0.251945 44.445354
-2.145109 1.312072 -0.285012 40.971958
-2.320642 1.455227 -0.241352 37.000000
-2.212631 1.427139 -0.234999 34.133335
-2.111306 1.444461 -0.284788 53.214287
-2.200015 1.607768 -0.286097 36.857143
-2.121601 1.575256 -0.264968 42.228573
-2.143853 1.732425 -0.281081 45.153488
-2.201349 1.886713 -0.204834 46.250000
-2.107914 1.892213 -0.279040 55.750000
-2.141355 2.026758 -0.235051 40.480770
-2.150694 2.207808 -0.267951 37.292614
-2.149187 2.350710 -0.291159 37.970238
-2.167323 2.469841 -0.261013 36.125000
-2.113022 2.502090 -0.278506 46.434784
-2.099170 2.645309 -0.269862 52.529411
-2.102750 2.806323 -0.278248 51.250000
-2.170360 2.875986 -0.254539 38.000000
-2.091239 2.942127 -0.288244 59.000000
-2.086794 3.098944 -0.279229 55.529411
-2.106042 3.227953 -0.251068 51.250000
-2.155461 3.418183 -0.271615 40.200001
-2.157167 3.533805 -0.260650 39.558441
-2.109534 3.672840 -0.252343 40.272728
-2.114451 3.869203 -0.278538 38.000000
-2.184216 3.932669 -0.263177 36.599998
-2.090946 3.947302 -0.282210 40.428570
-2.114572 4.163348 -0.285686 47.636364
-2.140824 4.412854 -0.282293 33.750000
-2.156003 4.534418 -0.267264 34.500000
-2.132012 4.614431 -0.270581 27.400000
-2.133421 4.753845 -0.277363 22.500000
-2.133981 4.898979 -0.284444 21.200001
-2.126585 5.055230 -0.259727 27.666666
-2.134693 5.217369 -0.251031 32.125000
-2.132524 5.329120 -0.285396 31.600000
-2.176306 5.411000 -0.208967 33.000000
-2.141682 5.493966 -0.269382 25.400000
-2.153807 5.634502 -0.216128 18.500000
-2.159099 5.768843 -0.274165 18.250000
-2.146685 5.804571 -0.293796 21.666666
-2.147477 5.922652 -0.225724 23.000000
-2.153988 6.005727 -0.274834 25.833332
-2.152876 6.147754 -0.233387 26.500000
-2.134384 6.252120 -0.236705 36.333332
-2.134879 6.384184 -0.241193 30.000000
-2.126331 6.529031 -0.246026 45.250000
-2.110443 6.656993 -0.250216 49.000000
-2.138559 6.819977 -0.256088 29.000000
-2.160932 6.967930 -0.261387 38.000000
-2.141473 7.061703 -0.264395 21.000000
-2.129854 7.144497 -0.267117 47.000000
-2.203496 7.184880 -0.269265 51.000000
-2.111782 7.292837 -0.272034 50.333332
-2.089246 7.432997 -0.276641 54.000000
-2.095214 7.591105 -0.282155 58.000000
-2.102900 7.713349 -0.286452 43.000000
-2.089925 7.860327 -0.291417 50.666668
-2.076010 8.010036 -0.296478 44.000000
11.510299 9.145869 -0.271502 0.000000
11.293031 9.266329 -0.269779 16.333334
11.400768 9.205816 -0.270616 0.000000
12.354817 9.229115 -0.284797 0.500000
12.501065 9.246925 -0.287160 2.000000
12.397397 9.352290 -0.286791 1.000000
11.239946 9.401453 -0.270616 18.666666
12.409362 9.422632 -0.287751 1.000000
11.217607 9.533469 -0.271872 16.500000
11.199903 9.609655 -0.272537 5.000000
12.474644 9.612024 -0.290835 0.750000
7.994436 9.865273 -0.234500 5.000000
8.058578 9.849166 -0.235017 0.000000
11.205175 9.799031 -0.274900 1.000000
9.365260 9.924415 -0.252004 2.250000
7.967329 9.991366 -0.236001 2.000000
7.948342 10.129648 -0.237786 1.500000
9.401470 10.120728 -0.255106 2.000000
9.363138 10.175209 -0.255365 2.500000
11.314654 10.342567 -0.283098 0.000000
11.150659 10.452932 -0.282261 1.000000
11.228903 10.394438 -0.282581 0.000000
11.355691 10.445751 -0.284945 0.000000
-2.090336 10.557198 -0.198752 7.000000
11.135105 10.570515 -0.283541 0.000000
7.880607 10.755663 -0.246243 0.000000
7.928601 10.750164 -0.246686 0.000000
-2.088380 10.814322 -0.203405 3.000000
7.883825 10.867132 -0.247942 0.000000
8.926352 10.863286 -0.259661 0.666667
9.104786 10.846814 -0.261532 0.000000
9.045893 10.880356 -0.261310 0.000000
9.362963 10.873972 -0.265003 0.666667
9.372962 11.060081 -0.267736 1.500000
7.833225 11.781101 -0.261273 1.500000
7.853456 12.612198 -0.274383 3.000000
7.835497 12.701729 -0.275614 2.000000
3.791347 13.239471 -0.254330 51.500000
4.456762 13.354509 -0.259999 21.250000
6.408208 13.368975 -0.273792 1.000000
4.364377 13.392396 -0.260128 3.000000
5.933452 13.446579 -0.271429 0.000000
6.033024 13.443070 -0.272118 104.666664
6.162341 13.391623 -0.272241 255.000000
6.317272 13.394445 -0.273497 255.000000
-3.797391 -9.928782 -0.196315 34.000000
-3.795622 -9.785879 -0.193841 34.500000
-3.788330 -9.632026 -0.191145 35.000000
-3.789176 -9.502632 -0.188929 35.000000
-3.788623 -9.330418 -0.185975 34.500000
-3.783903 -9.194101 -0.183611 21.000000
-3.781719 -9.067289 -0.181433 22.000000
-4.147678 -8.976374 -0.182614 24.500000
-4.037808 -8.978011 -0.181802 41.250000
-3.993535 -8.973838 -0.181396 57.000000
-3.865613 -8.988666 -0.180701 34.400002
-4.196021 -8.897142 -0.181666 15.333333
-4.195325 -8.717344 -0.178663 21.000000
-4.194668 -8.577642 -0.176336 22.500000
-4.192423 -8.438297 -0.174010 24.000000
-4.194012 -8.310030 -0.171905 24.500000
-4.191670 -8.145869 -0.169184 25.333334
-4.191192 -7.989901 -0.166624 25.500000
-4.190887 -7.839193 -0.164162 27.000000
-4.191815 -7.694804 -0.161823 27.000000
-4.190594 -7.550929 -0.159484 27.333334
-4.189221 -7.383549 -0.156776 21.666666
-4.189780 -7.251140 -0.154659 7.000000
-4.186380 -7.115763 -0.152468 11.000000
-4.187322 -6.966307 -0.150104 11.000000
-4.183746 -6.814058 -0.147667 8.666667
-4.184682 -6.650601 -0.145113 16.250000
-4.187389 -6.495199 -0.142719 24.000000
-4.184648 -6.358571 -0.140577 7.666667
-4.183661 -6.207444 -0.138244 10.250000
-4.182224 -6.040119 -0.135677 8.500000
-4.180604 -5.898044 -0.133511 8.666667
-4.177810 -5.758947 -0.131394 13.250000
-4.178800 -5.610557 -0.129196 31.000000
-4.179135 -5.466262 -0.127073 31.750000
-4.177019 -5.306410 -0.124717 32.200001
-4.180302 -5.158718 -0.122623 32.000000
-4.177320 -5.008672 -0.120448 33.400002
-4.175628 -4.849700 -0.118188 33.400002
-4.175307 -4.698020 -0.116075 35.000000
-4.145859 -4.562713 -0.113852 38.000000
-3.801041 -4.143752 -0.103845 32.000000
-3.756649 -4.056845 -0.102109 31.500000
-3.751192 -3.950386 -0.100607 28.833334
-3.750090 -3.803057 -0.098638 45.000000
4.340858 -2.837333 -0.140744 5.500000
-2.146765 -2.744199 -0.148586 18.571428
4.354561 -2.763657 -0.140014 34.733334
-2.305171 -2.545001 -0.123031 36.500000
-2.228620 -2.583761 -0.122264 27.176470
-2.133671 -2.612741 -0.169126 57.529411
-2.352280 -2.508373 -0.123210 43.500000
-2.264818 -2.432017 -0.119078 38.000000
-2.106684 -2.432348 -0.171295 62.363636
-2.209153 -2.308289 -0.128353 43.500000
-2.131448 -2.292949 -0.166652 61.599998
-2.150710 -2.140986 -0.135084 47.681820
-2.144771 -1.997293 -0.124457 48.285713
-2.151136 -1.855215 -0.129977 49.173077
-2.156651 -1.706646 -0.134331 46.435486
-2.133507 -1.550761 -0.143832 55.975609
-2.151023 -1.391764 -0.138995 48.579861
-2.161535 -1.251700 -0.138226 45.356361
-2.146987 -1.097563 -0.126810 47.975807
-2.149616 -0.943364 -0.125430 45.397865
8.469496 -0.834918 -0.157170 0.000000
-2.161488 -0.800209 -0.121464 45.094757
-2.366256 -0.693735 -0.174203 40.000000
-2.169226 -0.647657 -0.117354 42.142601
8.938475 -0.638739 -0.165495 10.571428
-2.160225 -0.493700 -0.119958 45.079456
8.916996 -0.494742 -0.164932 83.090912
-2.166474 -0.352859 -0.126189 45.914783
8.918599 -0.347701 -0.164833 102.375000
-5.403945 -0.250041 -0.099905 7.000000
-5.337261 -0.289047 -0.098711 5.000000
-5.633381 -0.136693 -0.104066 7.000000
-5.531070 -0.186172 -0.102205 9.600000
-2.321830 -0.129810 -0.144041 30.500000
-2.163648 -0.203102 -0.125446 49.584938
7.965461 -0.182143 -0.147144 1.250000
8.916076 -0.203868 -0.164704 54.833332
-5.824674 -0.058799 -0.107574 6.750000
-5.699933 -0.111400 -0.105285 9.000000
-2.354942 -0.047471 -0.126239 38.000000
-2.206728 -0.044846 -0.130865 38.566666
-2.142900 -0.048257 -0.124027 45.466667
-0.509563 -0.078850 -0.129791 2.583333
-0.474367 -0.049940 -0.131730 23.880434
0.479182 -0.033929 -0.128564 26.023554
7.925744 -0.044296 -0.146375 4.000000
8.941834 -0.106129 -0.165147 13.500000
-6.110717 0.053377 -0.112855 3.000000
-6.005620 0.005303 -0.110910 3.000000
-2.309471 0.059669 -0.163209 41.000000
-0.505820 0.064833 -0.127773 4.558824
8.968389 -0.021889 -0.165627 6.250000
-6.394991 0.156312 -0.118136 1.000000
-6.290040 0.104390 -0.116179 2.666667
-2.158304 0.101703 -0.128429 43.583908
-0.475988 0.104088 -0.133345 11.995643
0.469318 0.100437 -0.127433 14.497569
7.918506 0.105013 -0.146251 9.166667
9.017756 0.105529 -0.166550 1.800000
-6.452157 0.188115 -0.119207 2.000000
-2.157534 0.238654 -0.132079 42.320553
-0.505002 0.259450 -0.144203 8.588235
-0.487421 0.247075 -0.141828 8.426724
0.476363 0.250656 -0.137551 9.566412
7.908346 0.230961 -0.146112 11.857142
9.058659 0.257791 -0.167363 0.000000
-6.614213 0.338532 -0.122309 4.000000
-6.567786 0.305140 -0.121423 3.000000
-0.505192 0.366392 -0.147192 11.380531
7.900337 0.315930 -0.146018 11.000000
-6.843513 0.458143 -0.126667 2.000000
-6.718093 0.396962 -0.124285 2.500000
-2.171587 0.403889 -0.141505 35.985077
-0.441029 0.403491 -0.142384 30.313187
-0.284140 0.412602 -0.135950 4.873096
-0.147241 0.419035 -0.124623 5.133858
-0.000737 0.449266 -0.100648 23.002857
0.188180 0.428646 -0.129904 6.839779
0.326205 0.431745 -0.139094 6.478821
0.461834 0.402728 -0.138685 32.225998
7.890283 0.402450 -0.145907 6.000000
9.020658 0.403201 -0.166759 2.666667
-6.997038 0.534809 -0.129596 7.000000
-6.893903 0.483278 -0.127627 2.000000
-2.336048 0.558640 -0.102084 35.238094
-2.212732 0.544890 -0.138133 33.714287
-0.503957 0.520933 -0.125162 6.454545
-0.435862 0.553932 -0.138816 16.603846
-0.270966 0.564513 -0.139648 7.584980
-0.120228 0.561374 -0.140104 21.732937
0.030632 0.552100 -0.122477 32.400723
0.440846 0.564480 -0.129506 21.672672
7.923132 0.516566 -0.146633 0.666667
8.968339 0.556358 -0.165944 16.799999
-7.214203 0.642581 -0.133757 4.000000
-7.135444 0.601729 -0.132243 6.500000
-2.144273 0.602728 -0.196241 35.000000
0.174919 0.575766 -0.140971 20.748428
0.325189 0.583957 -0.138731 11.852018
0.455243 0.666273 -0.117826 4.953488
8.966540 0.655327 -0.166033 10.500000
-7.452243 0.758286 -0.138336 12.000000
-7.336060 0.700056 -0.136096 5.333333
-2.340599 0.686899 -0.112328 34.409092
-2.227748 0.704917 -0.136596 33.472221
-2.145846 0.736401 -0.120768 32.500000
-0.514266 0.696079 -0.118419 12.652174
-0.438685 0.734049 -0.126901 15.694581
-0.265040 0.745286 -0.137140 19.960526
-0.116103 0.732616 -0.111536 56.702900
0.053506 0.729625 -0.100907 58.170403
0.165069 0.717659 -0.137869 28.703226
0.302547 0.714170 -0.137396 14.472727
-7.558270 0.811214 -0.140386 10.750000
-2.227336 0.854929 -0.144105 36.138889
-2.134444 0.785323 -0.160672 48.000000
-0.423724 0.835797 -0.124487 22.000000
-0.278147 0.861225 -0.127902 30.714285
0.179223 0.796245 -0.131384 37.434578
0.311035 0.793464 -0.128258 19.030304
-7.837641 0.947070 -0.145796 11.000000
-7.736727 0.897954 -0.143839 8.000000
-8.050449 1.049856 -0.149932 11.000000
-7.942196 0.997774 -0.147827 12.000000
-2.222314 0.986464 -0.121868 35.729168
-2.121720 1.005221 -0.160447 49.733334
-0.508818 1.020925 -0.120606 46.000000
-0.429745 1.036406 -0.132335 24.822784
-0.270326 1.062658 -0.128036 43.855999
-0.162069 0.988976 -0.117673 49.814816
0.028853 1.019288 -0.116832 104.225807
0.162267 1.021207 -0.132952 43.167885
-8.130356 1.086266 -0.151483 10.000000
-7.420991 1.170104 -0.138743 22.750000
-2.153702 1.142192 -0.124511 40.289268
-0.478102 1.078898 -0.124761 4.666667
-0.268072 1.077311 -0.128672 45.714287
0.197551 1.086572 -0.130749 49.761906
0.281145 1.072986 -0.117276 33.799999
0.314731 1.087334 -0.131431 33.893806
-2.128153 1.263466 -0.131297 44.000000
-0.509227 1.220937 -0.116551 1.000000
-7.419903 1.285641 -0.139075 25.666666
-7.380891 1.306753 -0.138429 28.250000
-2.202342 1.330980 -0.136905 34.692307
-0.525030 1.290547 -0.122753 1.444444
-7.414593 1.457455 -0.139555 28.500000
-7.379472 1.450480 -0.138890 27.750000
-2.217426 1.448167 -0.140874 33.000000
-2.132896 1.446177 -0.165288 38.250000
-7.413539 1.554190 -0.139887 32.500000
-2.220831 1.567974 -0.121054 34.500000
-7.357675 1.627111 -0.139163 21.200001
-2.119226 1.589091 -0.151537 46.571430
-7.264099 1.714472 -0.137838 34.500000
-2.161645 1.753960 -0.126799 38.629807
-7.453491 1.845855 -0.141808 36.500000
-7.302709 1.881553 -0.139272 37.666668
-7.243796 1.890995 -0.138262 40.333332
-2.215383 1.892628 -0.100036 35.439999
-2.124483 1.919110 -0.116531 40.111111
-7.483068 2.003682 -0.143063 37.000000
-7.232327 2.022038 -0.138687 50.000000
-2.501329 2.045824 -0.172010 35.333332
-2.419093 2.010579 -0.167439 37.500000
-2.110233 2.044911 -0.131901 44.320000
-7.301779 2.103408 -0.140330 31.000000
-7.292626 2.162924 -0.140478 29.500000
-7.405547 2.259862 -0.142989 24.000000
-7.233725 2.182752 -0.139543 35.000000
-2.110698 2.195790 -0.135572 41.750000
-7.436624 2.294911 -0.143728 28.000000
-7.247806 2.354435 -0.140737 26.100000
-2.124903 2.351285 -0.139785 41.095238
-7.284343 2.488375 -0.142158 19.500000
-2.208416 2.541324 -0.098581 37.250000
-2.119392 2.511837 -0.158494 41.928570
-2.104119 2.647288 -0.133128 48.583332
-2.100620 2.781916 -0.133590 55.142857
-2.098372 2.957083 -0.163422 50.647060
-2.109295 3.099914 -0.134346 45.000000
-2.098093 3.242863 -0.138395 54.454544
-2.139141 3.543439 -0.108842 42.642857
-2.086862 3.661661 -0.126543 50.666668
-2.199057 3.685834 -0.116607 51.000000
-2.177093 3.881268 -0.121015 50.500000
-2.082815 3.882981 -0.114213 40.285713
-2.205501 3.990092 -0.115845 57.200001
-2.104623 3.983320 -0.122222 44.750000
-2.113117 4.148318 -0.146306 48.125000
-2.324734 4.190393 -0.129862 46.000000
-2.120338 4.286679 -0.116047 43.666668
-2.153155 4.458057 -0.177385 37.750000
-2.157529 4.613896 -0.152688 38.083336
-2.238240 4.741310 -0.096828 44.333332
-2.126446 4.709358 -0.134034 35.714287
-2.142572 4.917338 -0.192185 22.666668
-2.157650 5.050403 -0.148956 29.833332
-2.259322 5.188432 -0.104509 26.000000
-2.213392 5.378116 -0.107406 27.444445
-2.147685 5.501633 -0.109070 30.500000
-2.159897 5.734524 -0.113167 24.444445
-2.153826 5.940502 -0.116696 15.666667
-2.144669 6.093826 -0.119306 18.000000
-2.136001 6.192864 -0.120980 21.000000
-2.156856 6.427902 -0.125214 25.166668
-2.147108 6.523129 -0.126827 33.166664
-2.162199 6.820247 -0.132132 38.000000
-2.172878 6.967805 -0.134791 33.000000
-2.126137 6.971757 -0.134606 37.500000
-2.122592 7.161429 -0.137942 45.000000
-2.092743 7.313138 -0.140478 59.000000
-2.089378 7.523939 -0.144208 45.500000
-2.107047 7.728559 -0.147938 45.000000
-2.096370 7.884649 -0.150671 42.000000
-2.076988 8.013809 -0.152886 49.000000
-2.092442 8.179151 -0.155915 38.000000
-2.098067 8.309768 -0.158278 41.000000
-2.114490 8.487069 -0.161528 48.000000
-2.108055 8.634876 -0.164150 44.500000
-2.081551 8.764666 -0.166365 41.500000
-2.069685 8.900985 -0.168766 36.000000
-2.098006 9.153030 -0.173419 29.000000
-2.102477 9.375499 -0.177444 27.500000
-2.093041 9.543511 -0.180435 24.000000
-2.111181 9.772861 -0.184645 30.000000
-2.081302 9.783357 -0.184719 27.000000
-2.101452 10.112179 -0.190739 18.500000
-2.077282 10.237597 -0.192917 11.000000
14.660568 -24.496021 -0.031888 4.000000
14.667247 -24.333366 -0.031737 3.000000
14.631527 -24.102530 -0.031495 2.000000
11.859217 -23.335405 -0.029239 4.000000
13.573387 -23.340145 -0.030159 4.000000
13.794969 -23.381870 -0.030325 5.000000
13.974478 -23.349649 -0.030396 5.000000
14.080804 -23.360441 -0.030468 4.000000
14.210162 -23.408415 -0.030588 4.000000
6.094246 -23.229889 -0.026826 6.000000
8.605585 -23.288898 -0.027733 3.000000
8.740547 -23.278435 -0.027775 4.000000
8.900414 -23.295584 -0.027856 4.000000
9.010795 -23.255287 -0.027858 3.000000
9.155429 -23.301870 -0.027965 4.000000
9.315748 -23.279175 -0.028008 3.000000
9.445631 -23.285095 -0.028068 4.000000
10.991200 -23.231073 -0.028707 3.000000
11.108902 -23.290295 -0.028823 2.000000
11.255956 -23.315083 -0.028919 3.000000
11.432177 -23.304949 -0.028995 3.500000
11.580072 -23.327904 -0.029091 3.000000
11.700655 -23.294481 -0.029118 3.000000
13.658770 -23.318096 -0.030186 4.000000
13.860186 -23.324661 -0.030307 5.000000
17.523329 -23.237358 -0.032509 43.000000
3.156295 -23.131615 -0.026078 6.500000
3.456172 -23.153423 -0.026149 4.500000
5.272033 -23.186136 -0.026560 5.000000
5.426271 -23.189552 -0.026603 4.500000
5.580742 -23.191950 -0.026645 4.500000
5.736454 -23.197195 -0.026692 4.500000
5.890962 -23.195583 -0.026732 5.000000
6.013213 -23.217941 -0.026790 5.000000
14.260493 -23.161982 -0.030383 12.000000
17.572060 -23.150328 -0.032465 74.000000
17.673838 -23.133158 -0.032518 41.000000
2.746483 -23.101295 -0.025986 7.000000
2.854554 -23.082115 -0.025979 7.000000
2.968673 -23.110092 -0.026026 7.000000
3.037601 -23.072891 -0.025995 7.000000
3.303333 -23.123196 -0.026091 6.500000
3.600948 -23.127300 -0.026145 6.500000
9.473093 -23.040529 -0.027827 87.500000
11.837651 -23.112902 -0.029007 32.000000
-0.288336 -22.943483 -0.025630 255.000000
-0.132180 -22.951578 -0.025638 255.000000
0.012028 -22.953955 -0.025640 255.000000
0.156282 -22.959425 -0.025647 164.000000
0.288584 -22.963480 -0.025653 90.333336
0.444977 -22.965649 -0.025658 62.500000
0.639902 -22.966209 -0.025664 61.799999
3.691845 -22.997541 -0.026017 255.000000
3.764072 -22.985830 -0.026017 255.000000
5.120584 -23.021383 -0.026344 4.000000
6.154557 -23.017334 -0.026614 164.000000
11.916013 -22.998257 -0.028933 147.500000
13.273994 -22.991230 -0.029654 4.000000
14.325059 -23.023193 -0.030289 90.500000
0.767109 -22.883133 -0.025575 255.000000
3.816502 -22.855530 -0.025883 255.000000
9.520047 -22.847965 -0.027648 57.000000
12.013787 -22.834396 -0.028821 21.500000
12.195662 -22.830788 -0.028913 24.000000
12.333524 -22.829412 -0.028984 21.000000
12.477420 -22.837692 -0.029069 26.000000
12.613900 -22.831202 -0.029136 22.000000
12.756483 -22.834316 -0.029217 22.500000
12.948029 -22.838970 -0.029326 21.000000
13.090308 -22.838476 -0.029404 23.000000
14.411865 -22.841354 -0.030168 27.000000
14.562337 -22.840693 -0.030258 25.000000
14.657793 -22.831858 -0.030307 58.000000
0.833719 -22.736704 -0.025414 77.000000
0.940928 -22.734495 -0.025416 59.000000
1.084143 -22.736126 -0.025425 73.500000
1.227518 -22.738850 -0.025437 56.000000
1.946098 -22.746861 -0.025501 55.500000
2.126370 -22.748749 -0.025521 51.000000
2.307391 -22.755272 -0.025548 58.000000
2.451400 -22.750267 -0.025559 43.500000
2.560582 -22.756378 -0.025580 48.000000
2.637579 -22.795904 -0.025633 62.000000
3.917026 -22.795872 -0.025836 55.000000
4.059158 -22.764900 -0.025830 56.500000
4.207201 -22.766479 -0.025861 37.000000
4.355799 -22.769062 -0.025895 45.000000
4.504205 -22.768713 -0.025926 36.500000
4.653591 -22.771313 -0.025962 42.000000
4.805238 -22.782721 -0.026008 32.000000
4.953379 -22.775532 -0.026035 61.500000
6.211972 -22.800926 -0.026397 59.000000
6.326300 -22.796421 -0.026426 29.500000
6.479261 -22.790848 -0.026466 40.500000
6.634067 -22.790016 -0.026513 28.000000
6.790833 -22.793884 -0.026567 36.000000
6.943247 -22.781376 -0.026603 29.000000
7.106485 -22.802219 -0.026679 29.500000
7.224724 -22.802830 -0.026719 27.000000
7.341913 -22.798958 -0.026755 32.000000
7.499398 -22.796074 -0.026806 27.000000
7.660951 -22.803482 -0.026871 34.500000
7.818357 -22.796516 -0.026920 27.000000
7.979272 -22.797913 -0.026980 27.500000
8.145220 -22.811367 -0.027056 28.500000
8.304132 -22.802961 -0.027108 25.000000
9.631510 -22.812025 -0.027659 24.500000
9.803864 -22.819046 -0.027742 25.000000
9.928834 -22.812977 -0.027791 22.000000
10.059638 -22.818966 -0.027856 28.500000
10.229814 -22.815536 -0.027930 22.500000
10.401175 -22.812683 -0.028006 23.500000
10.533701 -22.817928 -0.028073 21.000000
10.667373 -22.824165 -0.028142 24.500000
-4.871065 -22.682858 -0.025915 41.000000
-4.760015 -22.685959 -0.025892 34.500000
-4.611410 -22.686020 -0.025859 39.000000
-4.462217 -22.681185 -0.025821 36.500000
-4.315509 -22.687160 -0.025796 41.000000
-4.167086 -22.682358 -0.025760 35.500000
-4.020306 -22.684458 -0.025734 46.000000
-3.874665 -22.691528 -0.025714 37.500000
-3.728121 -22.691744 -0.025687 46.000000
-3.581418 -22.689037 -0.025658 40.000000
-3.436398 -22.695271 -0.025640 49.500000
-3.290289 -22.692663 -0.025613 40.500000
-3.145441 -22.697041 -0.025595 52.500000
-3.000412 -22.698511 -0.025575 44.000000
-2.855488 -22.699055 -0.025555 50.500000
-2.674717 -22.700209 -0.025532 46.666668
-2.494447 -22.703335 -0.025513 59.000000
-2.350296 -22.704636 -0.025497 51.500000
-2.206455 -22.707008 -0.025483 52.000000
-2.062278 -22.704491 -0.025466 52.000000
-1.918731 -22.707037 -0.025454 65.000000
-1.775246 -22.708675 -0.025443 52.000000
-1.632093 -22.713394 -0.025437 79.500000
-1.488447 -22.709232 -0.025421 57.500000
-1.345966 -22.722130 -0.025425 83.500000
-1.202437 -22.716156 -0.025410 62.500000
-1.023977 -22.724854 -0.025410 73.333336
-0.844658 -22.710257 -0.025385 58.000000
-0.701943 -22.715115 -0.025385 70.500000
-0.559106 -22.715078 -0.025381 57.000000
-0.416517 -22.726143 -0.025390 80.000000
1.369611 -22.718712 -0.025423 74.000000
1.800326 -22.722750 -0.025461 57.000000
14.664305 -22.684917 -0.030173 31.000000
1.466303 -22.552370 -0.025244 81.000000
1.685023 -22.621317 -0.025338 123.000000
14.656940 -22.518051 -0.030012 32.000000
14.655257 -22.361492 -0.029864 31.000000
1.551048 -22.235928 -0.024898 47.500000
14.657139 -22.211843 -0.029726 31.000000
14.658229 -22.062403 -0.029587 32.000000
14.654070 -21.906532 -0.029440 31.000000
14.658022 -21.764172 -0.029310 32.000000
14.656733 -21.615383 -0.029172 32.000000
14.661421 -21.476730 -0.029047 33.000000
14.660852 -21.331669 -0.028913 32.000000
14.657237 -21.183537 -0.028774 33.000000
14.664270 -21.052048 -0.028658 33.000000
14.659142 -20.904348 -0.028520 33.000000
14.664765 -20.773228 -0.028403 34.000000
14.660440 -20.629240 -0.028269 32.000000
14.662335 -20.495247 -0.028149 35.000000
14.668211 -20.367937 -0.028037 33.000000
14.662781 -20.159508 -0.027845 34.000000
14.723989 -19.978363 -0.027722 46.000000
14.871692 -19.981005 -0.027822 49.000000
14.963172 -19.972599 -0.027876 48.000000
-3.816650 -17.504738 -0.020012 19.000000
-5.059755 -17.247097 -0.020077 16.500000
-4.913381 -17.248434 -0.020033 22.000000
-4.767979 -17.251190 -0.019992 25.000000
-4.624935 -17.260376 -0.019960 25.333334
-4.479843 -17.260071 -0.019919 26.000000
-4.335710 -17.261061 -0.019880 27.000000
-4.163146 -17.260977 -0.019834 24.333334
-4.020636 -17.263962 -0.019800 25.000000
-3.881825 -17.281317 -0.019784 26.333334
-5.125526 -17.171341 -0.020017 8.000000
-5.136671 -17.013472 -0.019852 2.000000
-5.139865 -16.832748 -0.019659 2.000000
-5.132530 -16.621601 -0.019432 1.000000
-5.129884 -16.429756 -0.019226 1.000000
-5.129696 -16.249537 -0.019034 1.000000
-3.807708 -11.931125 -0.013989 23.000000
-3.777431 -11.965916 -0.014016 0.000000
-3.815052 -11.762770 -0.013813 36.000000
-3.816070 -11.579391 -0.013619 35.000000
-3.814511 -11.453493 -0.013485 36.000000
-3.812200 -11.327722 -0.013351 36.000000
-3.811121 -11.150673 -0.013163 36.000000
-3.809934 -10.977643 -0.012980 36.000000
-3.809995 -10.867476 -0.012863 36.000000
-3.806770 -10.696792 -0.012683 33.000000
-3.806254 -10.537642 -0.012515 34.000000
-3.804174 -10.378763 -0.012347 36.000000
-3.802222 -10.223866 -0.012184 35.000000
-3.800576 -10.121997 -0.012077 35.000000
-3.799747 -10.023980 -0.011974 34.000000
-3.798340 -9.926070 -0.011872 35.000000
-3.796528 -9.783150 -0.011722 35.500000
-3.792120 -9.636724 -0.011568 36.000000
-3.791478 -9.503585 -0.011429 36.000000
-3.788634 -9.325784 -0.011244 36.000000
-3.781582 -9.183908 -0.011094 23.000000
-3.778550 -9.055250 -0.010960 24.000000
-4.171718 -8.950480 -0.011030 19.750000
-4.056406 -8.977495 -0.011004 26.750000
-3.866584 -8.986575 -0.010928 27.200001
-4.195886 -8.749939 -0.010839 21.666666
-4.192480 -8.569386 -0.010656 24.500000
-4.192840 -8.435411 -0.010522 26.500000
-4.192570 -8.303568 -0.010390 27.000000
-4.194410 -8.147709 -0.010236 27.333334
-4.190508 -7.985216 -0.010073 28.500000
-4.192336 -7.838620 -0.009929 27.666666
-4.190037 -7.688357 -0.009781 28.000000
-4.189395 -7.545648 -0.009641 28.000000
-4.188585 -7.379436 -0.009478 21.000000
-4.188752 -7.246448 -0.009349 7.500000
-4.187665 -7.115087 -0.009222 7.000000
-4.185123 -6.959906 -0.009072 7.000000
-4.183556 -6.811075 -0.008929 7.000000
-4.183892 -6.646769 -0.008773 14.750000
-4.184173 -6.487730 -0.008623 26.000000
-4.186476 -6.358916 -0.008504 14.000000
-4.184341 -6.206106 -0.008361 9.500000
-4.181373 -6.056839 -0.008221 9.000000
-4.181866 -5.917415 -0.008094 16.000000
-4.179538 -5.759187 -0.007949 15.250000
-4.178086 -5.607583 -0.007811 32.000000
-4.179586 -5.464871 -0.007685 32.500000
-4.176183 -5.303436 -0.007540 33.000000
-4.177506 -5.153426 -0.007410 33.500000
-4.175821 -5.005114 -0.007281 34.400002
-3.749783 -3.649951 -0.051232 50.500000
-3.758950 -3.510106 -0.094982 44.375000
-3.750116 -3.342656 -0.092776 53.714287
-3.745904 -3.200653 -0.090993 54.500000
-3.749379 -3.047300 -0.089230 53.250000
-3.749975 -2.894394 -0.087485 52.875000
-3.727082 -2.745044 -0.085487 54.333332
-3.258488 -2.742931 -0.078659 101.000000
-3.740657 -2.580692 -0.083929 53.642857
-2.697879 -2.536998 -0.068393 2.000000
-3.729414 -2.466295 -0.082573 46.250000
-2.695907 -2.487748 -0.067746 3.250000
-3.718053 -2.290514 -0.080653 38.500000
-3.142583 -2.264142 -0.071532 111.500000
-3.038453 -2.247517 -0.069796 6.000000
-3.738396 -2.131710 -0.079477 54.461540
-3.279095 -2.164952 -0.072566 123.000000
-3.002805 -2.152237 -0.068230 6.400000
-3.078042 -2.116270 -0.068983 4.000000
-3.724757 -2.006332 -0.078135 46.363636
-3.385606 -1.998255 -0.072603 82.000000
-3.274672 -2.013515 -0.070996 143.750000
-3.109853 -2.010875 -0.068393 95.000000
-3.029857 -1.979799 -0.066842 6.000000
-3.743251 -1.903170 -0.077551 10.000000
-3.294388 -1.916611 -0.070387 104.000000
-3.121404 -1.902257 -0.067506 90.500000
-2.987038 -1.839798 -0.064792 8.500000
-3.705835 -1.695077 -0.075261 48.333332
-3.625498 -1.688287 -0.073858 57.000000
-3.478055 -1.700120 -0.071495 109.000000
-3.331443 -1.680644 -0.068910 146.000000
-3.001364 -1.696016 -0.063666 3.000000
-3.719510 -1.605724 -0.074818 50.000000
-3.265012 -1.589444 -0.067063 115.000000
-3.131532 -1.561247 -0.064626 92.000000
-2.934512 -1.537222 -0.061182 16.875000
-2.875323 -1.530803 -0.060157 10.000000
-3.490218 -1.480791 -0.070018 107.000000
-2.160691 -1.502285 -0.094290 57.000000
-3.757340 -1.416035 -0.074154 11.000000
-3.217166 -1.388990 -0.064718 114.750000
-3.096853 -1.406785 -0.062816 107.500000
-2.955706 -1.373824 -0.060194 7.750000
-3.666942 -1.284154 -0.071753 64.000000
-3.217588 -1.270687 -0.063887 74.000000
-3.118499 -1.265735 -0.062157 95.714287
-2.933750 -1.266509 -0.059013 4.000000
-3.584239 -1.219489 -0.069919 67.000000
-3.436735 -1.197470 -0.067211 125.000000
-3.095441 -1.132924 -0.060884 89.666664
-3.726061 -1.113650 -0.071827 56.250000
-3.454317 -1.107065 -0.066989 66.000000
-3.250267 -1.121195 -0.063503 86.000000
-2.971442 -1.119853 -0.058643 35.000000
-3.888238 -0.989613 -0.074098 36.750000
-3.696662 -1.011927 -0.070781 44.333332
-3.397865 -0.995589 -0.065389 97.333336
-4.204929 -0.846268 -0.079213 27.500000
-4.139966 -0.880664 -0.078167 38.333332
-4.038886 -0.923945 -0.076517 41.750000
-3.303472 -0.867265 -0.063075 149.000000
-3.231665 -0.902904 -0.061967 58.000000
-3.174935 -0.897818 -0.060933 65.000000
-4.425005 -0.732539 -0.082832 21.000000
-4.323872 -0.785469 -0.081161 27.250000
-3.046335 -0.768877 -0.058025 8.625000
-2.284686 -0.771990 -0.044536 1.000000
-4.619254 -0.638395 -0.086119 32.400002
-4.510207 -0.693292 -0.084272 21.000000
-3.065678 -0.712842 -0.058126 3.000000
-2.966833 -0.646203 -0.056083 6.333333
-2.582666 -0.634842 -0.049116 5.000000
-4.807857 -0.549401 -0.089368 26.000000
-4.714232 -0.591329 -0.087743 32.333332
-2.871106 -0.591913 -0.054138 8.000000
-2.521398 -0.544685 -0.047638 1.000000
-5.040643 -0.432117 -0.093431 20.000000
-4.926647 -0.484547 -0.091424 18.333334
-2.916395 -0.500421 -0.054655 8.333333
-2.798777 -0.513307 -0.052550 7.000000
-2.667069 -0.481941 -0.050061 6.400000
-2.491480 -0.448737 -0.046752 12.000000
-2.356744 -0.520723 -0.044573 4.000000
-5.217353 -0.340076 -0.096557 9.333333
-5.113261 -0.389757 -0.094705 14.750000
-3.061847 -0.364561 -0.056945 9.000000
-2.938737 -0.364041 -0.054692 10.500000
-2.807199 -0.370200 -0.052292 4.500000
-2.646750 -0.391107 -0.049411 7.000000
-2.537147 -0.347252 -0.047301 7.714286
-2.464059 -0.419861 -0.046161 10.000000
-2.928358 -0.255683 -0.054286 12.000000
-2.670299 -0.235674 -0.049510 8.333333
-2.580141 -0.238929 -0.047860 11.000000
-2.467026 -0.265981 -0.045829 10.000000
-2.855509 -0.226706 -0.052901 11.750000
-2.325787 -0.139895 -0.043030 24.400000
-2.446037 -0.062413 -0.045197 19.968750
-2.387197 0.043298 -0.044093 22.500000
-2.801763 0.099308 -0.051775 36.000000
-2.659156 0.112412 -0.049153 25.000000
-2.557868 0.104647 -0.047288 18.500000
-2.486001 0.100177 -0.045956 32.444443
-6.294982 0.194563 -0.007035 41.000000
-2.781787 0.197910 -0.051504 14.000000
-2.558400 0.268802 -0.047515 9.000000
-2.439739 0.255286 -0.045307 17.395832
-6.610731 0.349962 -0.007395 42.000000
-6.544396 0.315495 -0.007319 41.000000
-2.439268 0.364177 -0.045548 5.500000
-0.146619 0.317168 -0.068141 1.000000
-6.832622 0.458612 -0.007649 41.000000
-6.720884 0.408825 -0.007521 37.333332
-2.670549 0.436184 -0.049977 7.333333
-2.524406 0.436373 -0.047314 2.800000
-2.319175 0.441461 -0.084589 35.000000
-0.069621 0.424508 -0.006592 59.607330
-7.037615 0.561414 -0.007886 40.666668
-6.900193 0.495863 -0.007727 41.500000
-3.022989 0.520532 -0.056649 9.000000
-2.648181 0.536455 -0.049903 2.000000
-2.537016 0.545046 -0.047927 3.272727
-2.448866 0.557717 -0.046383 5.000000
-0.078087 0.550484 -0.012333 77.161903
0.020654 0.543329 -0.000554 78.104164
-7.172475 0.628816 -0.008042 40.000000
-2.758620 0.582841 -0.052070 4.000000
-0.097935 0.647543 -0.012359 55.740742
-7.433480 0.757688 -0.008346 40.000000
-7.321256 0.699933 -0.008215 40.333332
-2.944803 0.768710 -0.056206 4.000000
-2.803981 0.694693 -0.053350 1.333333
-2.669934 0.707136 -0.051011 2.333333
-2.553162 0.711670 -0.048953 3.200000
0.069684 0.698844 -0.011528 44.105556
-7.630038 0.850592 -0.008576 40.333332
-7.502669 0.788561 -0.008427 39.000000
-2.960587 0.802709 -0.056649 6.000000
-2.799197 0.847950 -0.054015 4.000000
-2.652791 0.842216 -0.051405 6.000000
-2.520235 0.852000 -0.058170 14.700000
-2.359215 0.848366 -0.094580 34.166668
-0.100847 0.840485 -0.089669 77.238808
0.068458 0.835464 -0.055840 50.437500
0.105656 0.813899 -0.007932 1.900000
-7.822924 0.946677 -0.008802 42.000000
-7.754353 0.913672 -0.008722 42.000000
-0.165815 0.954957 -0.001083 11.333333
-8.035768 1.049368 -0.009052 39.000000
-7.927497 0.997326 -0.008925 33.500000
-2.668843 0.975353 -0.052476 8.750000
-2.522764 1.005274 -0.050159 24.312500
-2.366710 0.985852 -0.068900 35.000000
-8.227348 1.140236 -0.009278 39.000000
-8.111725 1.085218 -0.009142 40.000000
-7.584921 1.152545 -0.008570 37.000000
-2.469285 1.102621 -0.049943 34.000000
-2.398736 1.161236 -0.052639 41.269230
-7.494621 1.195070 -0.008477 43.000000
-7.454801 1.284891 -0.008450 49.599998
-7.378664 1.343592 -0.008378 49.000000
-2.396845 1.292288 -0.050292 41.384617
-7.428311 1.429913 -0.008450 46.200001
-2.429637 1.448781 -0.054197 37.000000
-7.391196 1.490366 -0.008422 48.000000
-7.346687 1.601778 -0.008399 41.714287
-2.459934 1.593708 -0.054138 34.333332
-2.385163 1.602948 -0.064563 35.470589
-7.273558 1.744644 -0.008355 52.200001
-2.460836 1.686863 -0.055098 35.000000
-2.364525 1.752754 -0.054360 35.818180
-7.242464 1.770984 -0.008328 58.500000
-7.255766 1.907673 -0.008380 58.625000
-2.346425 1.871286 -0.068744 35.125000
-7.224460 2.057921 -0.008391 54.857143
-2.243113 2.052644 -0.056154 35.900002
-7.246286 2.212778 -0.008463 59.666668
-2.335316 2.262277 -0.060047 38.000000
-2.273016 2.230377 -0.058816 38.166668
-7.303796 2.339121 -0.008567 50.000000
-7.230038 2.345049 -0.008490 53.000000
-2.342310 2.280967 -0.060379 42.500000
-2.192670 2.329474 -0.059087 37.333332
-7.256732 2.500710 -0.008574 47.500000
-7.300333 2.654276 -0.008677 49.333332
-7.229624 2.649967 -0.008601 50.500000
-2.844365 2.618299 -0.004318 4.000000
-2.334778 2.636421 -0.034258 23.500000
-2.221715 2.646731 -0.072832 43.000000
-7.245821 2.785828 -0.008671 52.625000
-2.158967 2.824833 -0.065660 44.000000
-2.181478 2.949346 -0.067749 41.142857
-2.533326 2.991428 -0.004379 4.000000
-2.234716 3.112110 -0.070756 42.000000
-7.223557 3.243451 -0.008845 52.000000
-2.201636 3.257911 -0.088132 39.692307
-2.231809 3.368673 -0.074634 41.500000
-7.235433 3.400189 -0.008930 54.000000
-2.692742 3.434183 -0.004875 8.000000
-2.342101 3.400776 -0.076259 40.000000
-2.118167 3.375399 -0.085068 41.666668
-7.231356 3.495774 -0.008972 45.000000
-7.277073 3.593407 -0.009066 57.333332
-7.235277 3.696180 -0.009075 59.000000
-7.238154 3.848080 -0.009157 48.400002
-7.324191 3.946967 -0.009294 58.000000
-7.229845 4.014249 -0.009237 56.000000
-7.217209 4.156844 -0.009303 57.000000
-2.379210 4.241437 -0.089811 57.000000
-2.201224 4.246576 -0.088334 43.500000
-2.157475 4.210640 -0.087374 46.000000
-7.214173 4.307500 -0.009386 59.799999
-7.223792 4.452870 -0.009479 55.250000
-7.202260 4.581399 -0.009535 55.000000
-2.981973 5.000340 -0.006503 2.500000
-7.249839 7.129371 -0.011358 59.000000
-7.244489 7.225675 -0.011429 58.750000
-7.234081 7.317908 -0.011494 65.000000
-7.223846 7.446826 -0.011589 58.500000
-7.221200 7.609698 -0.011718 56.333332
-7.209809 7.693794 -0.011778 59.000000
-7.251023 7.786664 -0.011885 51.000000
-7.257834 7.892941 -0.011977 55.333332
-7.243927 8.050247 -0.012097 60.714287
11.429525 9.587067 -0.016664 0.000000
12.390191 9.590053 -0.017501 0.000000
-2.747723 9.723206 -0.011286 0.000000
11.393410 9.679458 -0.016699 0.000000
12.346409 9.680881 -0.017525 0.333333
-2.644035 9.826491 -0.011367 0.000000
12.335862 9.861741 -0.017641 0.333333
11.619440 9.966103 -0.017099 1.000000
12.019423 9.953884 -0.017432 2.500000
12.155482 9.949104 -0.017546 1.666667
12.272682 9.938221 -0.017640 1.000000
19.220322 9.882109 -0.024141 1.000000
19.071461 10.033957 -0.024072 2.000000
19.170000 9.970767 -0.024136 2.000000
11.388660 10.146959 -0.017038 0.000000
11.656143 10.125439 -0.017247 2.500000
18.958590 10.165505 -0.024029 1.000000
8.428077 10.264019 -0.014835 2.000000
8.586687 10.258608 -0.014943 2.000000
8.721869 10.255290 -0.015038 2.000000
8.868384 10.263195 -0.015151 2.000000
18.958233 10.242127 -0.024069 0.000000
8.114481 10.337553 -0.014680 3.750000
8.266500 10.296078 -0.014749 2.000000
8.995916 10.279514 -0.015258 2.000000
9.153213 10.327537 -0.015415 2.500000
9.284679 10.344275 -0.015526 2.000000
11.352251 10.324415 -0.017141 0.250000
8.029885 10.464860 -0.014734 4.333333
11.362388 10.448251 -0.017242 0.000000
11.338315 10.492045 -0.017256 0.000000
8.010951 10.611673 -0.014852 5.000000
11.348653 10.601325 -0.017347 0.500000
8.003866 10.741987 -0.014963 2.500000
11.324454 10.746599 -0.017439 0.000000
7.987759 10.898093 -0.015093 2.333333
7.976842 11.064308 -0.015236 0.000000
7.965121 11.195704 -0.015348 0.000000
7.939453 11.695763 -0.015790 0.000000
7.937824 11.812728 -0.015897 0.000000
7.937563 12.522162 -0.016561 3.000000
3.775156 13.252788 -0.015392 8.000000
3.811232 13.221644 -0.015370 106.000000
4.458270 13.351255 -0.015723 17.500000
4.366218 13.390108 -0.015732 2.000000
5.946500 13.469784 -0.016447 3.000000
6.036953 13.445513 -0.016463 175.666672
6.175769 13.414618 -0.016496 255.000000
6.329215 13.413708 -0.016568 255.000000
6.415090 13.377341 -0.016572 9.000000
8.717441 14.496792 -0.018895 0.000000
10.632824 28.868073 -0.034364 56.000000
4.664666 28.960686 -0.032766 255.000000
4.842572 28.907135 -0.032740 255.000000
4.977057 28.874172 -0.032728 44.000000
10.500733 28.929108 -0.034377 51.000000
4.395133 29.027088 -0.032793 18.000000
4.529081 28.988308 -0.032773 204.000000
10.392612 29.057394 -0.034471 42.000000
7.250209 31.580378 -0.036193 2.500000
7.131257 32.220242 -0.036861 3.000000
9.881413 32.728821 -0.038188 3.000000
9.979512 32.682312 -0.038170 3.000000
10.093938 32.689018 -0.038215 3.000000
10.201352 32.672417 -0.038233 3.000000
10.373386 32.681114 -0.038300 3.000000
10.562862 32.742325 -0.038430 3.000000
9.822020 32.905354 -0.038358 2.000000
7.094960 33.038757 -0.037746 2.000000
9.771803 33.116360 -0.038568 1.000000
9.713635 33.304333 -0.038751 2.000000
-4.175964 -4.838155 0.011226 34.500000
-4.174179 -4.695083 0.047489 33.400002
-4.144395 -4.559508 0.046583 37.250000
-3.756292 -4.067932 0.041857 30.500000
-3.750215 -3.947961 0.041161 27.916666
-3.813027 -3.781517 0.087176 44.250000
-3.766599 -3.819509 0.036532 38.636364
-3.808293 -3.648408 0.085612 28.333334
-3.801157 -3.512057 0.084011 28.750000
-3.762275 -3.493894 0.014157 45.444443
-3.769379 -3.348000 0.038258 41.214287
-3.767863 -3.201206 0.037490 45.071430
-3.764212 -3.048455 0.036714 48.062500
-3.754413 -2.892340 0.033107 44.466667
4.341742 -2.838993 0.054205 7.000000
-3.750622 -2.746279 0.035158 46.250000
4.354441 -2.764628 0.038977 34.533333
-3.750409 -2.599305 0.032194 48.529411
-3.750922 -2.446118 0.035898 47.421051
-3.749199 -2.292320 0.033210 54.333332
-3.748894 -2.148939 0.032652 54.666668
-3.748377 -2.002500 0.032124 55.150002
-3.749019 -1.853897 0.031606 55.900002
-3.746610 -1.701316 0.031092 57.272728
-3.745524 -1.547039 0.030620 56.409092
-3.745135 -1.397434 0.030189 58.590908
-3.743426 -1.251224 0.029832 59.318180
-3.809567 -1.031459 0.029801 51.500000
-3.751532 -1.104857 0.029540 55.041668
-3.883108 -0.992505 0.030288 50.857143
-4.172336 -0.841949 0.029668 47.933334
-4.021535 -0.920739 0.031178 50.111111
-4.322697 -0.767224 0.035690 43.599998
-4.481047 -0.690242 0.034275 43.928570
-4.753157 -0.559771 0.043060 42.783333
-4.625987 -0.619596 0.031564 43.818180
-5.020313 -0.437455 0.081803 33.000000
-4.930188 -0.471999 0.033516 40.909092
-5.225503 -0.331316 0.039526 38.000000
-5.085415 -0.398308 0.033647 39.666668
-5.370892 -0.267255 0.048482 41.750000
-5.637716 -0.141708 0.059021 33.333332
-5.516850 -0.188596 0.036417 35.666668
-5.826867 -0.048685 0.044146 35.625000
-5.699513 -0.105017 0.033338 37.000000
-6.008885 0.044033 0.028168 41.666668
-5.956586 0.006220 0.045303 42.750000
-6.256582 0.149119 0.074561 31.250000
-6.133816 0.093269 0.046440 38.000000
-6.408667 0.244673 0.014889 38.799999
-0.079333 0.268625 0.039094 7.754541
-0.015151 0.272577 0.046076 7.711488
-0.004550 0.421480 0.010380 108.108215
0.103858 0.740653 0.012141 1.000000
-3.813028 -11.883590 0.202593 28.000000
-3.813894 -11.696271 0.199704 37.000000
-3.813066 -11.570275 0.197757 37.000000
-3.812747 -11.448196 0.195874 37.000000
-3.812976 -11.330026 0.194056 37.000000
-3.809965 -11.147322 0.191232 37.000000
-3.808123 -10.972425 0.188538 37.000000
-3.808173 -10.862277 0.186850 37.000000
-3.807606 -10.699160 0.184350 33.500000
-3.804396 -10.532498 0.181786 39.000000
-3.803203 -10.426561 0.180162 39.000000
-3.800165 -10.267880 0.177728 37.500000
-3.797266 -10.113182 0.175358 37.000000
-3.794995 -9.964370 0.173086 37.000000
-3.793142 -9.774406 0.170197 37.500000
-3.791623 -9.635460 0.168087 38.000000
-3.790243 -9.500481 0.166042 37.500000
-3.788898 -9.326410 0.163412 36.500000
-3.779563 -9.179004 0.161140 23.000000
-3.780368 -9.059597 0.159354 22.500000
-4.171595 -8.950211 0.160296 19.000000
-4.030409 -8.976323 0.159728 27.125000
-3.865753 -8.984665 0.158777 26.799999
-4.196492 -8.751194 0.157547 18.333334
-4.195451 -8.575445 0.154972 19.000000
-4.194958 -8.439679 0.152992 21.000000
-4.193811 -8.306055 0.151044 21.500000
-4.195691 -8.150197 0.148804 21.000000
-4.191811 -7.987713 0.146435 21.500000
-4.192080 -7.867680 0.144714 21.500000
-4.190068 -7.717366 0.142550 20.666666
-4.190140 -7.546989 0.140126 22.333334
-4.188694 -7.379628 0.137746 23.666666
-4.186207 -7.242031 0.135787 23.500000
-4.185076 -7.110714 0.133937 23.333334
-4.185963 -6.961269 0.131859 23.666666
-4.182295 -6.809054 0.129717 23.666666
-4.184945 -6.648433 0.127526 23.250000
-4.181453 -6.483520 0.125237 24.000000
-4.180062 -6.349174 0.123398 24.333334
-4.181765 -6.202301 0.186296 26.750000
-4.180827 -6.035856 0.182861 26.875000
-4.180506 -5.895728 0.179987 28.000000
-4.179854 -5.759613 0.177235 29.250000
-4.179032 -5.608839 0.174198 30.750000
-4.178432 -5.453571 0.177659 30.000000
-4.177897 -5.297966 0.161462 27.888889
-4.176995 -5.152809 0.165186 30.375000
-4.175654 -5.004912 0.162313 32.000000
-4.174357 -4.853330 0.165552 33.111111
-3.752637 -4.063933 0.185723 32.333332
-3.750863 -3.948667 0.182860 30.000000
-3.751152 -3.802806 0.179348 46.000000
-3.750151 -3.649673 0.175701 50.571430
-3.752186 -3.494318 0.172154 51.142857
-3.750074 -3.341454 0.168645 52.142857
-3.749144 -2.897044 0.202997 51.599998
4.339679 -2.837644 0.174091 8.000000
-3.751948 -2.752036 0.194280 54.176472
4.353850 -2.764257 0.173160 37.066666
-3.752180 -2.596446 0.192890 56.000000
-3.753573 -2.443421 0.189313 51.000000
-3.751268 -2.293577 0.185860 58.944443
-3.753361 -2.151499 0.182869 59.500000
-3.751842 -2.004338 0.179809 60.650002
-3.750264 -1.854501 0.176843 60.549999
-3.747841 -1.701871 0.173989 60.363636
-3.749681 -1.548742 0.171496 61.863636
-3.747180 -1.398186 0.169061 62.000000
-3.747918 -1.249307 0.168496 62.956520
-3.815034 -1.030790 0.178439 53.000000
-3.756047 -1.099769 0.162593 57.791668
-3.886945 -0.993482 0.169597 52.642857
-4.173780 -0.842235 0.177480 50.200001
-4.023908 -0.921267 0.174499 52.666668
-4.323076 -0.767289 0.188079 47.466667
-4.478869 -0.689910 0.191543 49.857143
-4.714580 -0.575536 0.200779 47.500000
-4.627382 -0.616399 0.197305 48.916668
-4.915777 -0.473315 0.200043 47.799999
-5.080201 -0.394289 0.171084 47.799999
-5.358138 -0.259506 0.180114 47.625000
-5.227016 -0.323185 0.175835 47.400002
-5.607213 -0.135079 0.188318 45.000000
-5.527034 -0.176460 0.185667 42.750000
-5.698005 -0.092360 0.191338 44.500000
-5.969488 0.039154 0.200432 42.500000
-5.844632 -0.021281 0.196238 43.000000
-6.422515 0.246220 0.168009 34.714287
-6.613473 0.346615 0.183975 39.000000
-6.573499 0.301400 0.135176 52.500000
-6.832543 0.451438 0.150673 34.333332
-6.709195 0.397568 0.167501 32.500000
-7.033634 0.556620 0.187927 39.599998
-6.914753 0.496908 0.172525 35.750000
-7.206841 0.643193 0.180128 38.000000
-7.138923 0.607024 0.157718 39.333332
-7.438860 0.758236 0.186135 36.500000
-7.320710 0.699870 0.183071 37.166668
-7.631688 0.850775 0.124653 38.666668
-7.494102 0.787661 0.187631 37.000000
-7.817927 0.946072 0.127834 40.000000
-7.757308 0.914020 0.126795 41.000000
-8.038680 1.049748 0.131600 40.000000
-7.922490 0.996690 0.129620 35.500000
-8.218346 1.138988 0.134684 39.500000
-8.110662 1.085076 0.132833 40.000000
-7.649117 1.306044 0.125968 1.250000
-7.524036 1.296924 0.123939 0.000000
-7.622771 1.454255 0.125973 4.333333
-7.465151 1.493017 0.123582 24.500000
-7.669370 1.621781 0.127250 0.000000
-7.514791 1.572705 0.124631 15.666667
-7.354230 1.603481 0.122186 6.000000
-7.622121 1.737330 0.126904 16.000000
-7.466728 1.788506 0.124637 36.750000
-7.457966 1.910663 0.124978 39.750000
-7.330263 1.877935 0.122835 23.500000
-7.344176 2.027252 0.123679 27.200001
-7.432776 2.138360 0.125551 34.166664
-7.305336 2.210627 0.123900 26.600000
-7.241619 2.236117 0.123030 27.000000
-7.246496 2.287594 0.123354 16.000000
-7.488867 2.402993 0.127672 19.000000
-7.344255 2.465135 0.125757 21.000000
-7.314587 2.694145 0.126536 11.000000
-7.238415 3.060630 0.127574 52.000000
-7.307151 3.078810 0.128717 44.599998
-7.285290 3.271044 0.129638 48.000000
-7.261321 3.403052 0.130177 52.583336
-7.319046 3.566639 0.132168 48.250000
-7.413539 3.612620 0.133872 55.000000
-7.228179 3.635382 0.131340 47.500000
-7.266624 3.683465 0.132249 47.500000
-7.335711 3.854551 0.134521 51.166668
-7.245657 3.963594 0.134067 43.000000
-7.332850 4.003888 0.135625 52.000000
-7.354156 4.159231 0.137151 56.000000
-7.339271 4.301122 0.138092 53.799999
-7.326414 4.472938 0.139344 45.142857
-7.225941 4.564519 0.138741 26.000000
-7.196768 4.483078 0.137638 37.000000
-3.816150 -17.502441 0.290792 17.000000
-5.059651 -17.246756 0.291766 14.000000
-4.912741 -17.246170 0.291095 20.333334
-4.767354 -17.248928 0.290500 21.500000
-4.623975 -17.256826 0.290013 22.666666
-4.478750 -17.255873 0.289396 21.000000
-4.334812 -17.257505 0.288844 20.666666
-4.163541 -17.262600 0.288260 23.666666
-4.021472 -17.267540 0.287805 23.500000
-3.882193 -17.282953 0.287546 25.333334
-5.125998 -17.172922 0.290922 5.000000
-5.125593 -16.976782 0.287870 2.000000
-5.135687 -16.819067 0.285468 2.000000
-5.129497 -16.611778 0.282222 1.000000
-5.124444 -16.412331 0.279106 1.000000
-5.123003 -16.228336 0.276249 1.000000
-3.773324 -11.952904 0.203470 0.000000
-4.194644 -7.993118 0.303081 27.500000
-4.191866 -7.837733 0.298428 26.333334
-4.191512 -7.691051 0.294088 26.500000
-4.192853 -7.551892 0.290017 27.333334
-4.190176 -7.382238 0.285006 25.666666
-4.187399 -7.244100 0.280934 18.000000
-4.187337 -7.114531 0.277176 20.333334
-4.186206 -6.961698 0.272746 24.000000
-4.185376 -6.814063 0.268496 26.000000
-4.175012 -4.696049 0.210976 33.599998
-4.140991 -4.555762 0.206707 37.500000
-3.750848 -3.346428 0.296597 51.461540
-3.750571 -3.192011 0.204856 53.153847
-3.751146 -3.047625 0.204305 52.875000
-3.807752 -2.197550 0.300642 31.333334
-4.785687 -0.538350 0.203534 47.799999
-5.934293 -0.003060 0.302384 43.000000
-6.226356 0.163042 0.209123 41.000000
-6.119483 0.112324 0.205499 42.000000
-6.285447 0.194266 0.211137 41.000000
