# This PCD file was generated using the MATLAB® pcwrite function
# from Computer Vision Toolbox®.
# .PCD v.7 - Point Cloud Data file format
VERSION .7
FIELDS x y z intensity
SIZE 4 4 4 4
TYPE F F F F
COUNT 1 1 1 1
WIDTH 1225
HEIGHT 1
VIEWPOINT 0 0 0 1 0 0 0
POINTS 1225
DATA ascii
-13.287390 -7.091801 2.091296 0.000000
-11.758573 -6.252145 2.087356 0.000000
-11.675097 -6.113975 2.065677 0.000000
-11.643037 -6.004272 2.053289 0.000000
-11.459126 -5.773367 2.011170 0.000000
-11.169333 -4.202763 2.084947 19.000000
-11.148745 -4.115201 2.076227 17.000000
-11.138371 -4.051853 2.070720 16.000000
-11.123975 -3.928357 2.061082 20.500000
-11.102416 -3.822869 2.051444 17.000000
-11.090435 -3.760399 2.045937 17.500000
-11.072911 -3.638499 2.036299 23.250000
-11.042579 -3.475437 2.022532 18.750000
-11.018410 -3.316234 2.010312 22.750000
-10.997874 -3.216003 2.001879 19.000000
-10.747091 -1.667632 2.096509 24.750000
-10.718594 -1.525526 2.087045 34.500000
-10.705297 -1.420796 2.081745 29.500000
-10.692581 -1.350794 2.077581 27.500000
-10.671572 -1.229148 2.070767 33.599998
-10.645916 -1.073897 2.062627 28.750000
-10.620420 -0.936691 2.055245 34.250000
-10.602072 -0.851159 2.050324 29.000000
-10.592691 -0.766765 2.047296 31.000000
-10.564244 -0.631369 2.040102 39.750000
-10.542458 -0.505506 2.034613 32.750000
-10.517023 -0.330532 2.028367 40.750000
-10.490760 -0.181325 2.022613 34.200001
-10.464231 -0.032901 2.017199 44.500000
-10.441422 0.114777 2.012921 36.599998
-10.413860 0.261768 2.008114 42.000000
-10.394864 0.343016 2.004896 35.000000
-10.380013 0.424160 2.002624 37.750000
-10.354236 1.924700 2.030184 1.600000
-11.755821 2.106732 2.086553 2.000000
-10.335088 2.072664 2.031963 0.000000
-11.752392 2.201543 2.088963 3.000000
-10.308739 2.219461 2.032758 0.000000
-11.748350 2.296416 2.091372 3.000000
-12.906909 2.375847 2.057005 0.000000
-12.674253 2.394827 2.021700 0.000000
-11.741245 2.352533 2.092060 3.000000
-10.284805 2.366860 2.034424 0.000000
-10.266296 2.515956 2.037604 0.000000
-10.236605 2.674073 2.039535 0.000000
-10.211479 2.828061 2.042563 0.000000
-10.186460 2.976818 2.045781 0.000000
-10.139074 3.090123 2.043257 31.000000
-10.047728 3.119899 2.028115 32.666668
-10.114366 3.427466 2.058652 0.000000
-10.089931 3.561188 2.062627 0.000000
-10.069311 3.714807 2.068949 0.000000
-10.053952 3.871459 2.076824 0.250000
-10.020044 4.021981 2.081367 0.000000
-9.989402 4.174604 2.087045 0.000000
-9.964092 4.311889 2.092913 0.250000
-9.894158 4.448684 2.091209 18.000000
-9.706152 4.474630 2.060318 39.200001
-9.679338 4.629303 2.068306 44.000000
-12.225296 4.815669 2.059483 1.000000
-12.166039 4.836537 2.052050 0.000000
-11.972689 4.825054 2.023248 0.500000
-9.671918 4.749610 2.077127 35.200001
-11.904077 4.862812 2.015506 0.000000
-11.817122 4.892385 2.004667 0.500000
-11.771535 5.069673 2.008899 1.000000
-11.773591 5.180518 2.016125 1.000000
-11.748565 5.821818 2.055147 1.000000
-11.730216 5.858702 2.055147 1.000000
-10.340939 5.895989 2.079669 1.000000
-11.694335 5.955986 2.057005 0.000000
-9.859724 5.975967 2.014271 1.000000
-12.932759 6.408627 2.004102 1.000000
-11.041878 6.411059 2.001260 3.000000
-9.344883 6.708849 2.009796 32.500000
-9.319107 6.858182 2.021499 31.250000
-9.295851 7.022847 2.035439 28.500000
-9.268784 7.163778 2.046626 23.666666
-9.428982 7.454624 2.099977 0.000000
-10.389214 8.134478 2.068154 2.000000
-10.381733 8.207867 2.074348 1.500000
-10.403976 8.332232 2.089214 0.000000
-9.090277 9.173154 2.024178 0.000000
-11.182645 9.396698 2.028124 1.000000
-11.019414 9.438114 2.014554 2.000000
-11.157632 9.495889 2.034359 3.000000
-8.935360 9.541852 2.048953 10.000000
-9.268139 9.620883 2.093859 4.000000
-9.106750 9.572968 2.070942 19.500000
-9.003234 9.553998 2.057625 10.000000
-8.859568 9.596077 2.047095 19.000000
-8.829442 9.730794 2.059483 18.333334
-8.805669 9.890307 2.075587 18.333334
-8.779857 10.018597 2.087975 18.000000
-9.141489 11.629210 2.053888 2.000000
-8.686410 11.640935 2.016755 21.000000
-9.408057 11.676144 2.082036 1.333333
-9.285936 11.661437 2.069841 2.000000
-9.001471 11.688732 2.048479 3.333333
-8.840636 11.693568 2.035459 7.000000
-8.534098 11.664717 2.006852 15.000000
-8.482718 11.826777 2.020880 13.500000
-8.463169 11.957460 2.034083 14.000000
-8.440055 12.085104 2.046736 13.500000
-8.426988 12.188287 2.057464 12.000000
-8.410812 12.288357 2.067641 15.000000
-8.387758 12.421406 2.081119 12.000000
-8.370306 12.550816 2.094689 9.333333
-8.061306 15.212254 2.084916 18.000000
-8.203796 15.248711 2.096938 9.500000
-7.934427 15.261622 2.083072 13.666667
-7.897006 15.425467 2.098621 11.000000
-9.824625 17.023603 2.032553 0.000000
-9.696966 16.986748 2.022678 3.000000
-9.555897 16.986660 2.015478 3.000000
-9.415227 16.985466 2.008277 3.000000
-9.306382 16.977341 2.002105 2.000000
-7.496400 17.841940 2.001283 2.000000
-7.477018 17.953556 2.011158 1.000000
-7.455499 18.061544 2.020621 1.000000
-7.435519 18.256771 2.038519 0.500000
-9.733550 -30.480871 2.188088 44.000000
-9.428171 -30.514059 2.183995 14.000000
-9.209721 -30.484831 2.177718 14.000000
-9.107050 -30.490671 2.176080 17.000000
-9.007824 -30.507650 2.175262 19.000000
-7.760968 -30.469698 2.150155 1.000000
-9.866003 -30.400455 2.185632 36.500000
-7.419386 -30.320539 2.134600 6.000000
-7.106853 -30.276451 2.126686 3.000000
-10.605900 -30.234936 2.191090 27.000000
-10.441478 -30.068306 2.176626 41.000000
-6.859677 -30.071499 2.109221 10.000000
-10.311936 -29.999063 2.169258 35.000000
-6.955016 -30.053688 2.109494 12.000000
-8.128816 -29.939651 2.121501 7.000000
-10.625540 -29.790546 2.162890 34.000000
-8.286811 -29.780340 2.113860 1.000000
-7.437709 -29.852861 2.103854 7.000000
-9.791684 -29.694221 2.138148 44.000000
-8.466106 -29.700819 2.111950 6.000000
-8.370591 -29.719585 2.111404 7.000000
-11.628283 -29.535221 2.170623 4.000000
-11.515133 -29.519558 2.166802 1.000000
-9.899151 -29.551228 2.131189 50.500000
-8.625716 -29.555099 2.105400 1.000000
-9.993986 -29.373938 2.121774 61.000000
-10.990306 -29.254726 2.137056 7.000000
-10.030431 -29.180120 2.110039 5.000000
-11.955473 -29.020536 2.146335 3.000000
-10.672421 -28.959988 2.110585 7.000000
-10.270350 -28.986488 2.102944 1.000000
-10.745258 -28.877695 2.107038 2.000000
-15.174811 -28.147362 2.186723 10.000000
-15.131727 -27.857588 2.167894 11.000000
-15.081233 -27.557858 2.148245 10.000000
-15.030933 -27.262218 2.128869 10.000000
-14.973111 -26.956701 2.108675 3.000000
6.091142 -24.817389 2.194341 8.000000
5.318213 -24.660217 2.166279 2.000000
7.247783 -24.483797 2.192630 8.000000
7.477048 -24.410591 2.192288 10.000000
7.633845 -24.374542 2.193315 8.000000
7.052190 -24.101004 2.156355 13.000000
6.048205 -23.990286 2.124528 3.000000
5.460532 -23.861080 2.101941 1.000000
6.143898 -23.739611 2.105705 4.000000
7.161192 -23.644417 2.121448 13.000000
7.855931 -23.643303 2.139414 5.500000
7.952600 -23.562630 2.135479 4.000000
7.497091 -23.548401 2.122132 6.000000
8.104885 -23.287146 2.117341 0.000000
-14.027292 -21.297764 2.189893 5.000000
-14.001625 -21.114090 2.175519 10.000000
-13.957240 -20.904274 2.158408 5.000000
-13.931682 -20.724720 2.144377 6.000000
-14.223642 -20.457523 2.139585 7.000000
-14.090929 -20.471760 2.134110 28.000000
-13.965128 -20.495155 2.129661 30.000000
-13.893970 -20.529026 2.128634 12.000000
-14.308411 -20.442122 2.142666 5.000000
-13.237593 -16.588383 2.194663 7.000000
-13.203197 -16.386433 2.176148 7.500000
-13.169870 -16.188198 2.158044 8.000000
-13.191713 -16.059822 2.149198 21.500000
-13.600002 -15.985600 2.170388 2.000000
-13.500168 -16.020569 2.166479 7.500000
-13.336885 -16.030148 2.156398 23.000000
-12.629276 -12.959869 2.191433 10.000000
-12.600273 -12.768621 2.172438 10.000000
-12.569284 -12.617640 2.156809 10.000000
-12.546888 -12.477097 2.142863 10.500000
-12.520738 -12.334201 2.128436 11.000000
-12.514023 -12.250359 2.120742 14.000000
-12.492673 -12.152836 2.110643 10.000000
7.866323 -11.077175 2.129474 8.000000
7.860818 -10.959709 2.113989 21.500000
8.032837 -11.015768 2.136907 85.000000
8.139700 -10.968095 2.140830 122.000000
7.891547 -10.893738 2.108415 12.000000
8.038485 -10.879267 2.120183 34.000000
8.124015 -10.780931 2.115848 12.000000
8.172344 -10.739355 2.115228 13.500000
8.258969 -10.747754 2.124519 19.000000
-12.145158 -10.050976 2.188943 11.000000
-12.120623 -9.903030 2.173265 14.000000
-12.094726 -9.755777 2.157586 11.500000
-12.067450 -9.609255 2.141908 13.000000
-12.048864 -9.501965 2.130630 11.000000
-12.038112 -9.432301 2.123479 11.000000
-12.018215 -9.325703 2.112201 13.500000
-15.735786 -9.015619 2.196243 1.000000
-15.611085 -9.009429 2.182777 1.000000
-15.462543 -8.988584 2.165946 1.000000
-13.204173 -8.706550 2.196095 1.000000
-13.034427 -8.682937 2.174640 1.000000
-13.280163 -7.679692 2.130080 1.000000
-13.260278 -7.539076 2.117977 0.666667
-13.262634 -7.375916 2.107158 1.000000
-13.591225 -7.063171 2.126779 0.500000
-13.434550 -7.089226 2.109175 0.000000
-11.794056 -7.069926 2.155282 7.333333
-13.767166 -6.963288 2.142183 0.000000
-13.670707 -6.995656 2.132281 0.000000
-11.808191 -6.961022 2.148469 24.333334
-11.951921 -6.945021 2.166638 2.000000
-11.360831 -5.392113 2.197042 22.500000
-11.337884 -5.272558 2.184536 20.333334
-12.773167 -5.106342 2.156108 2.000000
-11.318893 -5.134540 2.171456 22.000000
-12.776037 -4.991488 2.149914 2.000000
-11.299413 -5.040277 2.161589 20.000000
-11.288761 -4.971895 2.155049 22.500000
-12.773995 -4.898360 2.144340 1.000000
-11.334855 -4.760077 2.147821 9.000000
-11.268958 -4.836949 2.142486 23.500000
-11.644574 -4.704746 2.194174 4.333333
-11.447334 -4.733338 2.164171 18.250000
-11.441179 -4.501096 2.147993 0.000000
-11.396454 -4.390688 2.133708 0.000000
-10.977965 -3.040389 2.195883 26.500000
-10.948833 -2.884708 2.182633 21.500000
-10.921355 -2.731146 2.170141 28.250000
-10.900346 -2.580808 2.159352 23.000000
-10.871544 -2.430139 2.147427 27.750000
-10.853139 -2.300996 2.138656 23.333334
-10.834080 -2.225890 2.132095 23.000000
-10.823214 -2.135260 2.126606 31.750000
-10.798977 -1.989829 2.116763 24.500000
-10.773515 -1.828076 2.106503 31.200001
-10.408584 0.310729 2.197834 39.666668
-10.388214 0.424483 2.194392 34.000000
-10.363552 0.570321 2.190675 39.599998
-10.340827 0.715825 2.187784 35.000000
-10.318325 0.860997 2.185388 41.000000
-10.286392 1.021264 2.181754 35.400002
-10.268242 1.166284 2.181175 45.000000
-10.240068 1.301785 2.178697 36.000000
-10.215271 1.470213 2.178284 41.400002
-10.187052 1.629875 2.177458 36.400002
-10.167117 1.758002 2.177734 44.666668
-15.350872 3.428515 2.183992 3.000000
-14.817414 3.407262 2.111101 2.000000
-14.918853 3.504678 2.127880 1.000000
-15.340653 3.705657 2.191327 4.000000
-15.331946 3.856832 2.195178 4.000000
-15.326783 3.983759 2.198846 3.500000
-9.990404 4.435431 2.107109 1.000000
-15.030494 5.011640 2.199946 1.000000
-9.856368 4.944309 2.125659 0.500000
-9.836559 5.070562 2.133306 0.000000
-9.821648 5.239879 2.145912 0.000000
-9.797093 5.365973 2.153294 0.000000
-9.781134 5.383978 2.152285 0.000000
-9.764600 5.529110 2.163137 0.000000
-9.732518 5.673638 2.171655 0.000000
-9.719313 5.810029 2.182823 0.000000
-10.864248 5.870582 2.157459 2.000000
-9.696779 5.942118 2.192287 25.000000
-9.576820 5.930939 2.171466 7.000000
-10.770123 5.962542 2.150747 2.000000
-10.677522 6.021387 2.141625 1.000000
-9.460912 5.962520 2.155755 32.750000
-9.433855 6.112443 2.166923 35.000000
-9.408606 6.265341 2.179037 35.500000
-10.760967 6.361415 2.183962 2.000000
-10.590800 6.373594 2.159524 1.666667
-9.386667 6.422446 2.192476 33.000000
-9.369075 6.518956 2.200237 32.000000
-9.430119 7.576595 2.113401 0.000000
-9.372639 7.726230 2.122120 0.000000
-9.359997 7.915524 2.141625 0.000000
-9.376017 8.030546 2.156770 0.000000
-9.302885 8.121146 2.157459 0.000000
-9.256189 8.366508 2.179832 10.500000
-9.092115 8.375240 2.159696 18.000000
-10.420191 8.535022 2.111202 2.000000
-9.041262 8.500786 2.168129 22.250000
-10.377111 8.609131 2.113370 3.000000
-9.012819 8.676401 2.185683 20.500000
-8.998050 8.799245 2.198763 20.000000
-10.628387 8.930924 2.175929 2.000000
-10.665354 9.076927 2.195130 0.000000
9.024117 9.983617 2.109344 25.250000
9.143701 9.957644 2.118945 0.000000
8.945347 10.086060 2.113060 12.000000
-8.760220 10.156073 2.102221 17.666666
-8.747558 10.271075 2.114609 17.000000
-8.734695 10.354480 2.123281 16.000000
-8.717938 10.456213 2.133810 11.333333
-5.447677 12.316589 2.110893 4.000000
-5.374543 12.307705 2.105008 11.500000
-5.325099 12.352868 2.108415 5.000000
-8.359749 13.122012 2.160337 15.333333
-8.683647 13.214482 2.195545 6.500000
-8.525043 13.152405 2.176291 18.500000
-8.262644 13.197437 2.161987 12.500000
-8.238871 13.345176 2.177666 12.000000
-8.216665 13.498204 2.194170 12.500000
-8.339922 15.290134 2.109201 4.666667
-7.876157 15.565269 2.112567 12.000000
-7.854295 15.705200 2.126513 11.000000
-7.841986 15.804497 2.136612 12.000000
-7.749813 16.387457 2.195281 14.000000
-9.429054 -30.860298 2.206645 10.000000
-9.635854 -30.842346 2.209647 35.000000
-9.696641 -30.697760 2.201460 42.000000
-11.591973 -30.277069 2.217015 12.000000
-11.076662 -30.350447 2.209374 16.000000
-10.948704 -30.295021 2.202824 35.000000
-11.401917 -30.206257 2.207873 8.000000
-15.479033 -29.823849 2.297792 4.000000
-15.239100 -28.696819 2.221927 1.000000
-15.233162 -28.469353 2.208009 4.000000
5.722980 -26.138340 2.297693 4.000000
19.611622 -26.016048 2.227931 9.000000
6.442319 -25.896488 2.291533 94.000000
19.618481 -25.855757 2.219471 20.000000
6.128548 -25.665327 2.265866 1.000000
4.996578 -25.491327 2.230617 11.000000
5.414576 -25.495464 2.238146 5.000000
5.234999 -25.435297 2.229933 1.000000
6.498375 -25.438475 2.254573 5.000000
5.134495 -25.350061 2.221035 2.000000
5.966591 -25.339201 2.235408 6.000000
6.691809 -25.202766 2.239173 5.000000
7.274282 -25.152891 2.248413 11.000000
8.565227 -24.861135 2.257995 0.000000
8.467786 -24.831341 2.252862 5.000000
-14.358574 -22.564508 2.296666 32.000000
-14.264194 -22.572447 2.292902 29.000000
-13.431664 -17.727663 2.299994 6.000000
-13.405253 -17.577814 2.286005 9.000000
-13.382885 -17.434616 2.272838 7.000000
-13.364614 -17.298031 2.260495 7.000000
-13.549207 -17.199436 2.264198 28.000000
-13.444769 -17.233246 2.260289 24.500000
-13.360923 -16.851248 2.223876 4.000000
-12.748816 -13.671535 2.263808 9.000000
-12.724708 -13.517303 2.248179 10.000000
-12.699297 -13.363667 2.232550 9.000000
-12.670104 -13.207646 2.216440 10.000000
-12.653616 -13.107780 2.206341 10.000000
-5.951924 -11.731929 2.298352 5.333333
-12.299927 -10.985901 2.289891 11.000000
-12.275112 -10.825848 2.272562 13.000000
-12.248772 -10.666548 2.255233 11.000000
-12.228437 -10.514458 2.239280 12.000000
-12.200977 -10.391189 2.225251 11.000000
-12.188194 -10.314418 2.217000 11.000000
-12.169819 -10.200899 2.204897 13.500000
-16.076389 -9.010588 2.231829 0.000000
-15.937353 -8.998569 2.216440 1.000000
-16.068359 -8.840971 2.221008 2.000000
-16.542786 -8.666749 2.261644 1.000000
-16.083706 -8.750922 2.217402 2.000000
-14.020494 -8.747376 2.294567 1.000000
-13.902365 -8.734468 2.279714 1.000000
-13.774413 -8.714551 2.263210 1.000000
-13.636269 -8.727433 2.247990 1.000000
-13.481623 -8.738272 2.230753 1.000000
-13.297752 -8.708433 2.207098 1.000000
-16.096375 -8.627181 2.211631 1.000000
-16.655544 -8.526742 2.265972 2.000000
-16.111633 -8.505480 2.206341 1.000000
-16.077818 -8.552329 2.205379 1.000000
-11.871837 -8.430758 2.282258 15.333333
-11.964928 -8.328125 2.284942 15.000000
-11.528014 -5.808074 2.255212 0.000000
-11.410614 -5.681692 2.226987 19.000000
-11.391112 -5.560799 2.214596 19.666666
-11.376163 -5.465201 2.204958 21.000000
-11.153322 -4.094805 2.290336 18.000000
-11.139274 -4.030162 2.283522 18.000000
-11.126971 -3.927233 2.274625 23.000000
-11.099195 -3.780667 2.260303 19.000000
-11.076303 -3.637486 2.247369 24.000000
-11.049946 -3.475634 2.232983 19.500000
-11.027701 -3.335792 2.220932 24.000000
-10.999587 -3.214451 2.209070 19.333334
-10.986878 -3.135914 2.202508 20.000000
-10.745763 -1.667426 2.295170 21.750000
-10.723248 -1.526185 2.286083 31.000000
-10.710053 -1.421428 2.280301 24.500000
-10.689651 -1.350424 2.274106 24.500000
-10.672650 -1.229272 2.267497 30.600000
-10.647143 -1.074030 2.258617 25.250000
-10.621788 -0.936793 2.250563 32.000000
-10.593727 -0.783591 2.242055 27.799999
-10.568821 -0.631632 2.234662 34.750000
-10.552030 -0.514239 2.229774 29.666666
-10.536865 -0.430575 2.225782 27.500000
-10.519865 -0.330629 2.221445 37.500000
-10.491947 -0.181338 2.214796 31.200001
-10.466301 -0.032898 2.209054 39.250000
-10.443570 0.114816 2.204387 32.799999
-10.425724 0.229315 2.201001 35.500000
-10.368132 1.910436 2.225163 1.750000
-10.352536 2.059232 2.227847 0.200000
-10.325796 2.223093 2.229334 0.000000
-10.292227 2.368606 2.229086 0.000000
-10.273266 2.517661 2.232473 0.000000
-10.249146 2.683087 2.236107 0.000000
-10.231939 2.816453 2.239907 0.000000
-10.208624 2.965875 2.243748 0.000000
-10.156167 3.080775 2.240031 20.750000
-10.054498 3.121996 2.222064 35.000000
-10.121155 3.429802 2.255519 0.000000
-10.112459 3.533409 2.260889 0.000000
-10.090055 3.596888 2.260889 0.000000
-10.070360 3.715196 2.265515 0.000000
-10.057604 3.872857 2.274725 0.250000
-10.019421 4.021726 2.278731 0.000000
-15.330836 4.062036 2.202146 4.000000
-15.318977 4.162092 2.204164 4.000000
-9.994641 4.176795 2.286290 0.000000
-15.321009 4.318136 2.210215 2.333333
-9.984028 4.324220 2.296409 0.200000
-15.329165 4.424540 2.215349 5.000000
-9.901944 4.452186 2.291453 30.000000
-9.717226 4.461202 2.256759 35.250000
-9.683515 4.612637 2.263863 42.200001
-9.681905 4.754557 2.276584 32.599998
-15.113891 4.986736 2.209848 12.000000
-15.044713 5.068952 2.204347 11.000000
-11.760137 5.108574 2.240067 0.000000
-15.114978 5.145555 2.217000 1.000000
-15.042540 5.173690 2.208748 0.000000
-11.773774 5.180623 2.247295 0.000000
-15.268870 5.359087 2.246890 3.333333
-15.264879 5.519821 2.253858 4.000000
-15.252674 5.651228 2.258534 3.000000
-15.265259 5.792632 2.267061 1.000000
-11.721291 5.831265 2.287223 0.000000
-9.840520 5.966676 2.218408 1.000000
-10.918177 6.362123 2.207712 2.000000
-9.356774 6.598063 2.207051 32.333332
-9.344080 6.710734 2.217651 31.750000
-9.315723 6.858201 2.229954 31.250000
-9.292255 7.022680 2.245286 29.000000
-9.268902 7.166463 2.258536 24.666666
-9.390722 7.355331 2.299422 0.000000
-9.453193 8.421277 2.211843 3.200000
-8.984406 8.841288 2.202205 20.000000
-8.972340 8.941144 2.212990 19.333334
-10.883915 9.204138 2.234152 2.000000
-9.075065 9.157804 2.252458 0.000000
-10.791123 9.340931 2.237042 2.666667
-10.742088 9.417276 2.239107 2.333333
-9.136694 9.395468 2.289632 0.000000
-11.095989 9.503700 2.289897 0.000000
-10.752904 9.506680 2.249637 2.000000
-8.973018 9.551886 2.289632 12.000000
-8.866410 9.588369 2.281601 19.000000
-8.836547 9.738624 2.297434 18.000000
-10.036080 10.170050 2.239520 1.000000
-9.916166 10.164983 2.225790 1.000000
-8.659108 11.642363 2.274206 18.666666
-8.842819 11.696451 2.298259 5.500000
-8.515494 11.677785 2.265328 15.333333
-8.489584 11.836364 2.283084 13.000000
-8.466425 11.962038 2.297020 14.000000
-9.008759 13.569553 2.261560 1.000000
-8.188786 13.644680 2.209573 12.000000
-8.163414 13.798161 2.226077 12.000000
-8.149377 13.923668 2.240105 12.000000
-8.125323 14.033919 2.251657 8.000000
-7.921437 16.415462 2.207303 17.000000
-7.770982 16.432255 2.201292 11.000000
-8.072502 16.463415 2.220528 6.500000
-7.712021 16.576242 2.214036 6.000000
-7.693185 16.672501 2.223654 5.000000
-7.675473 16.772413 2.233752 5.000000
-7.657201 16.872383 2.243851 5.000000
-7.649792 16.997746 2.257316 5.000000
2.815159 -34.912884 2.395217 21.000000
2.920830 -34.856148 2.391942 9.000000
1.792682 -34.320950 2.350189 6.000000
2.005254 -34.257217 2.346641 15.000000
1.895634 -34.227489 2.344185 82.000000
3.292311 -34.129494 2.344731 5.000000
6.292510 -33.786770 2.350189 8.000000
6.403825 -33.794281 2.352099 1.000000
6.061033 -33.719589 2.342821 8.000000
5.923862 -33.561615 2.330540 4.000000
-15.684208 -31.171013 2.386211 4.000000
-15.630439 -30.822617 2.363288 3.000000
-15.556485 -30.439331 2.337636 3.000000
-15.507687 -30.110031 2.316077 10.000000
5.609386 -27.254333 2.389409 3.000000
4.752830 -26.927135 2.348000 4.000000
4.921202 -26.892822 2.347658 6.000000
4.990341 -26.794952 2.340471 8.000000
5.081174 -26.814383 2.343551 4.000000
5.965888 -26.843847 2.361347 32.000000
6.042295 -26.789986 2.358267 56.000000
5.315749 -26.675409 2.335680 23.000000
6.207799 -26.739847 2.357240 37.000000
7.411567 -26.725231 2.381538 4.500000
3.671964 -26.633120 2.308644 1.000000
6.305166 -26.590065 2.346631 45.000000
6.072197 -26.533892 2.337391 50.000000
6.506274 -26.508780 2.343894 31.000000
5.482909 -26.222324 2.300431 3.000000
6.354501 -26.246328 2.318911 55.000000
9.533335 -26.065157 2.383249 5.000000
9.646930 -26.121063 2.391120 4.000000
7.057323 -25.921604 2.306933 9.000000
7.363879 -25.765732 2.301115 5.000000
8.965800 -25.502380 2.321307 2.000000
-14.453670 -23.856453 2.395227 5.000000
-14.416453 -23.627216 2.376747 5.000000
-14.380027 -23.401848 2.358609 4.000000
-14.350716 -23.190496 2.341840 8.000000
-14.294928 -22.938974 2.320964 8.000000
-14.275826 -22.748800 2.306249 5.000000
-14.640073 -22.535128 2.307618 8.000000
-14.498167 -22.548508 2.301971 23.000000
6.224422 -22.308409 2.395038 8.000000
6.049643 -22.220387 2.381460 7.000000
6.098271 -22.124559 2.373232 16.000000
6.154983 -21.794798 2.341962 1.000000
-13.584742 -18.649832 2.385986 6.000000
-13.553864 -18.485134 2.370351 8.000000
-13.536258 -18.340023 2.357185 6.000000
-13.506014 -18.179235 2.341962 9.000000
-13.479660 -18.025192 2.327561 6.000000
-13.454866 -17.874676 2.313572 9.000000
-12.952928 -14.842990 2.385715 8.000000
-12.928746 -14.721663 2.372730 8.000000
-12.950153 -14.583471 2.361910 16.500000
-13.054249 -14.493126 2.362151 0.000000
-12.454068 -11.884743 2.390289 10.000000
-6.354168 -11.870365 2.352277 52.000000
-6.239705 -11.925259 2.351417 85.250000
-6.216976 -11.791548 2.328871 13.000000
-6.100155 -11.839108 2.326806 2.000000
-5.920973 -11.854900 2.315103 1.000000
-12.433586 -11.753820 2.375710 11.000000
-12.404373 -11.579491 2.356181 10.500000
-6.287405 -11.570560 2.300647 3.000000
-6.379826 -11.537904 2.303400 5.333333
-12.373476 -11.405989 2.336652 12.000000
-12.355453 -11.282079 2.323174 11.000000
-12.330565 -11.153325 2.308595 11.000000
8.000051 -10.934723 2.367078 9.500000
8.040980 -10.882644 2.363980 16.000000
8.134421 -10.865471 2.371323 7.666667
-12.041224 -9.434740 2.397672 12.000000
-12.021505 -9.328256 2.384974 13.500000
-11.999886 -9.191255 2.369180 12.000000
-11.981743 -9.058481 2.354314 12.000000
-14.645627 -8.862610 2.376902 1.000000
-11.947814 -8.886309 2.333874 12.000000
-17.407352 -8.774027 2.360708 1.000000
-17.365545 -8.821474 2.358785 2.000000
-14.426895 -8.813125 2.347379 1.000000
-14.242617 -8.782596 2.323357 1.000000
-11.918434 -8.719828 2.314673 14.500000
-11.900900 -8.592717 2.300736 13.000000
-12.291066 -8.299734 2.324583 3.000000
-12.114779 -8.291945 2.301046 14.500000
-11.821530 -6.968911 2.397482 25.666666
-11.751596 -7.027614 2.392204 7.000000
-11.324054 -5.134498 2.396840 23.000000
-11.302444 -5.018021 2.383842 23.000000
-11.284619 -4.946554 2.375135 23.000000
-11.275192 -4.837302 2.365103 24.250000
-11.474434 -4.677612 2.388655 19.571428
-11.366594 -4.750031 2.374757 12.000000
-11.449164 -4.501916 2.371539 0.750000
-11.421168 -4.397937 2.359235 0.000000
-11.175636 -4.194894 2.301087 22.799999
-10.953575 -2.885948 2.390785 19.000000
-10.925382 -2.732157 2.376948 25.250000
-10.903625 -2.581594 2.364971 19.500000
-10.881736 -2.468287 2.355058 19.500000
-10.872187 -2.394388 2.349689 33.500000
-10.856810 -2.301774 2.342392 20.333334
-10.837873 -2.226669 2.335233 20.000000
-10.825192 -2.135647 2.328831 28.500000
-10.803064 -1.990572 2.318506 21.500000
-10.776251 -1.828555 2.306982 28.600000
-10.447979 0.114854 2.399986 33.799999
-10.422283 0.278359 2.394792 37.200001
-10.400889 0.408648 2.390852 34.000000
-10.382574 0.473287 2.387270 32.000000
-10.374435 0.570938 2.386554 39.599998
-10.349033 0.716394 2.382793 33.750000
-10.326953 0.861739 2.380286 41.000000
-10.298180 1.022434 2.377062 35.000000
-10.275568 1.167115 2.375405 43.750000
-10.252793 1.278870 2.373241 35.333332
-10.237301 1.358673 2.372047 35.000000
-10.220884 1.471023 2.371868 40.200001
-10.196025 1.614888 2.371152 35.000000
-10.176847 1.743217 2.371600 41.500000
-9.989647 4.441382 2.307423 1.333333
-9.866929 4.949614 2.329864 2.000000
-12.393468 5.108200 2.341951 0.333333
-9.825489 5.073514 2.333948 11.111111
-12.357529 5.184476 2.341263 0.000000
-9.780800 5.218120 2.339776 37.250000
-12.288456 5.246469 2.334378 2.333333
-9.765606 5.328814 2.348037 46.000000
-9.754183 5.402397 2.353406 46.000000
-9.735125 5.512409 2.361253 46.250000
-9.709039 5.659934 2.371992 46.000000
-9.687489 5.811698 2.384383 45.750000
-9.665726 5.923182 2.392643 47.000000
-11.819815 5.973220 2.313726 0.000000
-9.602789 5.947022 2.383970 7.000000
-9.462167 5.963306 2.360634 30.250000
-9.434101 6.112611 2.372612 31.750000
-9.411112 6.267010 2.386448 30.250000
-10.602928 6.406125 2.388007 3.000000
-9.383285 6.420155 2.399665 29.000000
-9.434544 7.534193 2.327436 0.000000
-9.462870 7.605627 2.340307 0.000000
-9.091843 8.377935 2.383275 20.250000
-9.042280 8.504715 2.392928 23.250000
-9.264535 9.617182 2.333002 4.500000
-9.108902 9.575253 2.308908 20.500000
-8.816710 9.871388 2.312349 18.000000
-8.792625 10.001498 2.326576 17.666666
8.995092 9.983059 2.347687 16.333334
9.080691 9.951600 2.353654 9.000000
-8.772719 10.138279 2.342295 17.500000
8.953436 10.095208 2.357440 7.500000
-8.759501 10.219886 2.351588 18.000000
-8.747792 10.271350 2.357096 17.000000
-8.734831 10.354630 2.366734 16.000000
-8.723835 10.463276 2.380043 11.666667
-9.141068 11.628679 2.318389 2.000000
-9.456158 11.685724 2.356172 0.000000
-9.387211 11.675336 2.348120 2.000000
-9.282884 11.657569 2.335732 2.000000
-9.003794 11.679112 2.311421 3.250000
-8.445395 12.092760 2.311886 12.500000
-5.374504 12.125326 2.317168 13.750000
-5.500532 12.159588 2.331625 10.333333
-5.266390 12.164116 2.315792 10.000000
-8.419816 12.260251 2.331190 12.666667
-5.192648 12.257109 2.325659 6.000000
-8.403317 12.402317 2.348120 12.000000
-8.385456 12.502503 2.359579 13.500000
-8.265491 14.680806 2.339311 0.000000
-8.061728 15.219449 2.391389 17.500000
-7.932670 15.264751 2.388638 13.000000
-9.825226 17.024643 2.380425 0.000000
-9.736155 16.993410 2.371769 3.000000
-9.670944 17.003201 2.368883 3.000000
-9.561514 16.996639 2.361670 3.000000
-9.416027 16.986919 2.352052 2.500000
-9.316781 16.996311 2.347243 1.000000
-7.771127 17.413334 2.309253 12.000000
-7.754952 17.524811 2.320794 11.000000
-7.586298 17.589827 2.319832 4.000000
-7.526574 17.680195 2.327046 2.500000
-7.497094 17.843592 2.343877 1.000000
-7.483743 17.969704 2.357342 1.000000
-7.459074 18.070206 2.367441 1.000000
-7.437428 18.261456 2.387879 0.500000
2.365840 -36.485989 2.500282 4.000000
3.624244 -36.374523 2.499736 10.000000
0.923760 -36.243515 2.479269 7.500000
1.094173 -36.226833 2.478450 16.000000
3.139217 -36.099136 2.477905 17.000000
3.469342 -35.964668 2.470809 17.000000
3.819495 -36.037521 2.478178 7.000000
4.044961 -36.004883 2.477632 8.000000
4.620157 -36.016068 2.483090 3.000000
3.231835 -35.858570 2.462076 10.000000
3.350405 -35.911816 2.466443 18.000000
3.687077 -35.862766 2.465351 12.000000
3.924898 -35.953938 2.473265 6.000000
4.138811 -35.825493 2.466170 22.000000
4.457452 -35.634422 2.455800 2.000000
1.512977 -35.360989 2.420323 14.000000
1.626441 -35.407887 2.423871 21.000000
1.231577 -35.268044 2.413228 8.500000
1.400139 -35.321701 2.417321 16.000000
1.731803 -35.283024 2.415684 22.000000
6.682446 -35.264618 2.454435 1.000000
2.168644 -35.154915 2.408589 7.000000
5.051027 -28.100580 2.451694 2.000000
8.188180 -27.035267 2.425685 1.000000
8.236892 -26.891281 2.415076 1.000000
-14.674523 -25.102386 2.496868 11.000000
-14.627945 -24.843239 2.475650 4.000000
-14.594111 -24.608627 2.456827 4.000000
-14.552819 -24.364212 2.436978 8.000000
-14.503973 -24.110056 2.416103 6.000000
6.040093 -23.338512 2.492963 7.000000
6.603914 -23.106665 2.485145 7.000000
6.773957 -22.883165 2.467865 7.000000
7.231692 -22.838665 2.477328 7.000000
6.807009 -22.732178 2.453875 7.000000
7.279148 -22.740044 2.469099 2.000000
-6.526927 -22.627888 2.435360 26.000000
7.277059 -22.489929 2.444412 24.000000
8.087344 -22.549875 2.477328 4.000000
7.313044 -22.361073 2.432892 2.000000
8.259538 -22.364412 2.465396 1.000000
7.357036 -22.258656 2.424251 9.000000
8.306126 -22.274977 2.458401 3.000000
-13.701522 -19.315586 2.448938 5.000000
-13.669646 -19.142931 2.432480 6.000000
-13.650759 -18.990047 2.418491 6.000000
-13.612385 -18.811686 2.401210 6.000000
-13.310386 -15.745140 2.496801 20.000000
-13.290310 -15.621584 2.483817 21.000000
-13.264425 -15.492278 2.469871 20.000000
-13.243045 -15.369307 2.456887 19.000000
-13.202807 -15.225624 2.440536 16.000000
-12.607340 -12.771339 2.491786 10.000000
-12.582156 -12.626152 2.475008 10.000000
-12.559970 -12.485745 2.459054 11.000000
-12.525568 -12.334653 2.440900 11.000000
-12.509760 -12.203588 2.426597 11.500000
-12.476336 -12.018917 2.405417 12.000000
-12.179262 -10.208811 2.490891 12.000000
-12.150307 -10.055244 2.471999 11.000000
-12.127564 -9.908689 2.454656 12.500000
-12.098845 -9.759105 2.436384 11.500000
-12.078002 -9.617661 2.419970 13.000000
-12.054968 -9.506778 2.406343 11.000000
-13.309677 -8.716243 2.493678 1.000000
-13.189851 -8.697106 2.476335 1.000000
-13.028706 -8.679121 2.453727 1.000000
-11.954810 -6.946700 2.415610 3.000000
-11.422367 -5.707436 2.461449 21.000000
-11.398823 -5.584353 2.446874 21.000000
-11.369468 -5.415712 2.427630 22.333334
-11.344024 -5.272995 2.411478 21.666666
-11.129996 -3.928310 2.491149 20.500000
-11.101861 -3.781592 2.475385 16.666666
-11.080757 -3.638954 2.461618 22.000000
-11.053739 -3.476827 2.445717 17.500000
-11.029097 -3.317348 2.430848 20.750000
-11.006382 -3.197667 2.419077 18.000000
-10.989358 -3.136622 2.412055 18.000000
-10.979622 -3.040862 2.404621 23.500000
-10.746862 -1.650285 2.497410 22.666666
-10.729589 -1.527084 2.489351 30.250000
-10.709270 -1.387122 2.480397 24.750000
-10.681293 -1.230263 2.469651 31.200001
-10.653053 -1.074618 2.459354 26.750000
-10.630766 -0.937576 2.451295 34.250000
-10.602095 -0.784207 2.441892 29.799999
-10.576165 -0.632080 2.433609 34.500000
-10.554068 -0.497734 2.426894 30.750000
-10.537266 -0.414010 2.422193 28.000000
-10.529411 -0.330929 2.419730 37.500000
-10.499281 -0.181482 2.411984 32.400002
-10.475106 -0.032940 2.406075 38.750000
-10.366396 1.900052 2.420760 6.200000
-10.353374 2.059414 2.424700 0.200000
-10.328127 2.223615 2.426670 0.000000
-10.308050 2.372230 2.429580 0.000000
-10.289914 2.521751 2.433475 0.200000
-10.261392 2.669067 2.435400 0.000000
-10.255588 2.771018 2.440102 0.000000
-10.234737 2.851827 2.440400 0.000000
-10.213646 2.967372 2.443012 0.000000
-10.161243 3.082330 2.438982 17.750000
-10.074783 3.128278 2.423088 38.666668
-15.520518 3.236752 2.485006 1.000000
-15.354349 3.277681 2.460850 4.000000
-15.346476 3.351684 2.462089 5.000000
-15.293430 3.390475 2.455275 4.000000
-14.981527 3.420307 2.408614 3.666667
-10.129611 3.432642 2.456667 0.000000
-15.322714 3.599552 2.467044 4.000000
-10.100431 3.564868 2.460249 0.000000
-10.087446 3.560344 2.457115 0.000000
-15.342012 3.693242 2.473392 4.000000
-10.099633 3.654023 2.466965 0.000000
-10.072380 3.733911 2.467413 0.000000
-15.337042 3.858113 2.478812 4.000000
-10.056505 3.872423 2.475248 0.250000
-15.324213 4.008821 2.482735 4.000000
-10.038717 4.011166 2.483083 0.000000
-15.320068 4.162405 2.488310 4.000000
-10.010481 4.164961 2.490426 0.000000
-15.315662 4.316599 2.494091 4.000000
-9.973887 4.322330 2.496813 0.000000
-15.307255 4.444283 2.498323 4.500000
-9.909473 4.455571 2.495620 36.000000
-9.731518 4.467748 2.459578 33.750000
-9.690022 4.615734 2.465353 41.799999
-9.676991 4.752078 2.476278 31.600000
-11.750378 5.106772 2.469777 0.000000
-11.759459 5.154698 2.475077 0.000000
-11.228105 6.427796 2.494005 3.000000
-11.095722 6.421557 2.471292 3.000000
-10.926456 6.415563 2.442520 3.000000
-10.764448 6.411736 2.415263 3.000000
-12.686183 6.486262 2.489269 1.000000
-12.581678 6.482768 2.472748 1.000000
-12.412989 6.469977 2.445556 3.000000
-12.258608 6.463228 2.421117 3.000000
-12.175606 6.468436 2.408726 0.000000
-9.362720 6.580297 2.415359 29.000000
-9.334321 6.714843 2.426924 28.666666
-9.318970 6.860590 2.442413 27.500000
-9.290567 7.021396 2.457901 25.500000
-9.272191 7.169007 2.473733 22.000000
-9.460131 8.430435 2.442672 3.200000
-9.257117 8.370282 2.405799 10.000000
-9.014955 8.654164 2.408954 21.666666
-8.993818 8.798258 2.425359 21.666666
-8.973548 8.945484 2.442520 20.666666
-9.063738 9.149567 2.482649 0.000000
-9.985516 10.171934 2.490302 1.000000
-9.894880 10.175128 2.479632 1.000000
-12.005399 10.282608 2.477573 0.000000
-8.489324 12.787148 2.405724 2.000000
-8.509418 13.128401 2.452178 16.500000
-8.364347 13.129207 2.439997 15.333333
-8.647066 13.158897 2.467973 5.000000
-8.266459 13.203530 2.441648 12.500000
-8.242506 13.351039 2.459301 12.000000
-10.996069 13.501745 2.417795 3.000000
-10.933658 13.511587 2.413394 1.000000
-8.219069 13.502145 2.477573 12.500000
-11.195492 13.614975 2.447502 1.000000
-8.192024 13.650089 2.495226 12.000000
-8.332288 15.282441 2.416878 4.333333
-8.201319 15.250483 2.404317 10.000000
-7.896280 15.430688 2.406792 11.000000
-7.874380 15.568494 2.422471 12.000000
-7.849708 15.702877 2.437599 11.000000
-7.840831 15.809096 2.450252 12.000000
10.390089 34.986519 2.495779 13.500000
10.230115 35.052383 2.497007 7.000000
2.650550 -37.250603 2.553770 13.000000
2.879312 -37.165577 2.549131 10.000000
2.758396 -37.118721 2.545310 14.000000
4.518836 -37.070377 2.553770 27.000000
6.904809 -37.074425 2.578876 6.000000
6.771061 -37.001724 2.572327 4.000000
7.135355 -37.018555 2.578058 5.000000
7.615252 -37.000233 2.583243 8.000000
6.521798 -36.949215 2.565777 11.000000
7.226278 -36.866722 2.569052 9.000000
0.648145 -36.764412 2.514473 8.000000
3.896886 -36.767719 2.528390 14.000000
4.251017 -36.796753 2.533030 3.000000
0.761902 -36.678410 2.508742 4.000000
1.571319 -36.724552 2.513654 3.000000
2.498593 -36.745132 2.518566 12.000000
4.009779 -36.731491 2.526753 17.000000
4.339784 -36.557331 2.517475 48.000000
2.253414 -36.529087 2.502738 8.000000
4.792578 -36.452435 2.514200 41.000000
7.260954 -36.436806 2.540671 9.000000
5.235453 -36.286636 2.507104 5.000000
7.783588 -36.092007 2.524843 7.000000
19.971584 -30.906845 2.516383 8.000000
-10.245917 -28.350412 2.588584 19.000000
-10.034315 -28.320316 2.580028 6.000000
-10.103096 -28.232368 2.574895 5.000000
-9.764658 -28.119268 2.556072 1.000000
-9.837120 -28.043325 2.551966 31.000000
-14.845974 -26.144266 2.581739 11.000000
-14.803371 -25.879557 2.560179 13.000000
-14.765224 -25.625734 2.539646 11.000000
-14.717627 -25.358622 2.517743 11.000000
6.053279 -24.332647 2.592945 4.000000
6.350493 -24.223871 2.589653 1.000000
6.505672 -24.195019 2.590888 8.000000
5.910417 -24.081057 2.564143 5.000000
5.793539 -23.929356 2.546040 1.000000
8.318959 -23.662502 2.593768 3.000000
8.399915 -23.654997 2.595825 19.000000
8.599712 -23.627525 2.600145 3.000000
6.775539 -23.291107 2.508392 8.000000
-13.948737 -20.750092 2.585539 5.000000
-13.915733 -20.561184 2.567435 6.000000
-14.089195 -20.469246 2.569698 26.500000
-13.962337 -20.491058 2.564143 28.000000
-14.307708 -20.441116 2.580190 6.000000
-14.220704 -20.453297 2.576075 7.000000
-13.235083 -16.532043 2.564607 7.000000
-13.203087 -16.333574 2.543448 7.000000
-13.186670 -16.208849 2.530464 7.000000
-13.192335 -16.060574 2.516999 19.000000
-13.298289 -16.034941 2.522769 24.000000
-13.339207 -15.931030 2.516277 23.000000
-12.757448 -13.675998 2.596860 8.000000
-12.736257 -13.524841 2.579531 9.000000
-12.712429 -13.372816 2.561927 10.000000
-12.684844 -13.218395 2.543773 8.000000
-12.657335 -13.066021 2.525894 10.500000
-12.628802 -12.914135 2.508015 10.000000
-6.056027 -11.703331 2.540191 13.000000
-6.237313 -11.603268 2.539434 15.500000
-6.127620 -11.617150 2.531862 27.000000
-12.309413 -10.994365 2.586896 10.000000
-12.283414 -10.833157 2.567076 11.000000
-12.257359 -10.674020 2.547565 11.000000
-12.228302 -10.514346 2.527744 12.000000
-12.205555 -10.395087 2.512879 11.000000
-12.192902 -10.318401 2.503588 11.000000
-11.952526 -8.860613 2.599414 12.000000
-13.865726 -8.772320 2.571721 1.000000
-13.758104 -8.764881 2.556856 1.000000
-13.634044 -8.746180 2.538893 1.000000
-13.482308 -8.728702 2.517421 1.000000
-11.922100 -8.722518 2.580827 15.000000
-11.906392 -8.596687 2.565682 13.000000
-11.877110 -8.434488 2.545030 15.333333
-12.296318 -8.303278 2.592186 3.000000
-12.110596 -8.289116 2.563961 17.000000
-11.962650 -8.326526 2.546407 14.666667
-19.749910 -7.935405 2.577591 1.000000
-19.768599 -7.834934 2.575187 0.500000
-11.288791 -4.906164 2.597916 22.000000
-11.280944 -4.818775 2.589105 21.666666
-11.366055 -4.749805 2.599981 9.500000
-11.436519 -4.465811 2.591307 0.000000
-11.437323 -4.404160 2.586764 0.000000
-11.197585 -4.203198 2.524398 19.600000
-11.154488 -4.075389 2.506500 16.666666
-10.934693 -2.734478 2.588970 28.000000
-10.907489 -2.582507 2.574643 21.500000
-10.880109 -2.432056 2.560763 27.750000
-10.856404 -2.283897 2.548227 22.500000
-10.832613 -2.137102 2.536139 30.250000
-10.808771 -1.991639 2.524498 22.750000
-10.781802 -1.829484 2.511917 29.000000
-10.755569 -1.720837 2.501888 24.000000
-10.448443 0.114860 2.594234 30.200001
-10.422842 0.278369 2.588644 35.000000
-10.402559 0.392345 2.584499 31.500000
-10.390192 0.457279 2.582090 31.000000
-10.372819 0.570832 2.579198 36.799999
-10.349227 0.716424 2.575584 31.500000
-10.327002 0.861726 2.572837 38.799999
-10.300603 1.022677 2.569946 32.799999
-10.274933 1.167031 2.567391 40.750000
-10.253678 1.295330 2.565946 33.250000
-10.238441 1.375195 2.564741 34.000000
-10.224925 1.471612 2.564741 38.799999
-10.203138 1.616009 2.564741 32.750000
-10.181068 1.743939 2.564500 39.000000
-15.855777 3.254727 2.537035 1.000000
-10.010459 4.313254 2.503679 0.000000
-9.990980 4.441981 2.511439 0.666667
-15.299428 4.520279 2.500491 4.000000
-15.306316 4.600869 2.505136 3.500000
-9.899803 4.966114 2.543974 0.000000
-15.280781 5.068446 2.523408 3.500000
-9.877645 5.072098 2.550466 0.000000
-15.279118 5.201478 2.529809 4.000000
-9.846730 5.213589 2.559196 0.000000
-15.270432 5.359644 2.536622 4.000000
-9.828324 5.363098 2.571733 0.000000
-15.261364 5.518541 2.543642 4.000000
-9.809445 5.513852 2.584717 0.000000
-15.255582 5.679602 2.551488 4.000000
-9.773963 5.677221 2.596268 0.000000
-15.249931 5.814248 2.558095 4.000000
-15.255459 5.926412 2.565217 3.000000
-9.595094 5.942256 2.592328 6.000000
-9.469711 5.968072 2.571061 29.750000
-9.443862 6.118926 2.584717 33.250000
-9.417326 6.271157 2.598820 32.250000
-11.541645 6.439760 2.547762 3.000000
-11.362531 6.433779 2.517098 3.000000
-11.824207 6.452047 2.596598 3.000000
-11.685327 6.447988 2.572748 3.000000
-9.416000 7.375130 2.524398 0.000000
-9.433859 7.485232 2.541745 0.000000
-9.423432 7.606554 2.556063 0.000000
-10.990819 9.294542 2.514740 0.000000
-10.911674 9.425454 2.519100 0.000000
-9.239080 9.604095 2.568962 4.666667
-9.091552 9.560408 2.543220 19.000000
-8.974864 9.557194 2.527319 12.000000
-8.865662 9.590904 2.517729 20.666666
-8.834687 9.739977 2.534891 19.000000
-8.810276 9.867661 2.550034 19.000000
-8.790364 10.002444 2.566943 18.333334
8.992802 10.008592 2.593758 25.250000
-10.079091 10.170984 2.501661 1.000000
-8.767510 10.168143 2.588143 19.000000
-12.285334 10.257569 2.508543 1.000000
-8.885711 11.563362 2.547784 0.000000
-8.947376 11.719628 2.576008 4.000000
-8.849318 11.705030 2.563617 5.000000
-8.660710 11.644497 2.535393 17.666666
-8.530518 11.659784 2.524034 16.500000
-8.495004 11.804789 2.540900 14.000000
-8.470376 11.967627 2.561552 14.000000
-8.451415 12.101376 2.578762 12.500000
-8.422215 12.263752 2.599185 13.000000
-8.166462 13.803324 2.513808 12.000000
-8.148282 13.921798 2.528364 12.000000
-8.131473 14.027606 2.541371 8.666667
-7.915252 16.409983 2.529745 15.000000
-7.763782 16.424463 2.522502 11.666667
-8.060959 16.447071 2.543223 5.500000
-7.705026 16.568768 2.537172 6.000000
-7.691104 16.675638 2.549825 6.000000
-7.674938 16.778982 2.561927 5.000000
-7.658190 16.882391 2.574030 5.000000
-7.645753 16.996698 2.587783 6.000000
5.276582 -38.720810 2.672344 6.000000
6.458230 -38.717392 2.684215 17.000000
5.487908 -38.036388 2.627998 1.000000
5.600963 -37.975533 2.624996 4.000000
5.720835 -37.961697 2.625269 3.000000
5.972873 -38.011734 2.631273 1.000000
6.200631 -37.906502 2.626633 2.000000
6.058775 -37.783943 2.616809 11.000000
-8.022723 -30.300543 2.691593 4.000000
-8.086913 -30.159708 2.681326 5.000000
-7.787374 -30.176701 2.676193 6.000000
-7.594698 -30.213438 2.675166 6.000000
-8.354769 -30.024561 2.676193 9.000000
-8.510481 -29.856493 2.665926 17.000000
-9.405157 -29.774977 2.681326 16.000000
-7.201142 -29.834282 2.635468 2.000000
-9.596951 -29.730463 2.682695 52.000000
-7.064924 -29.678413 2.619726 10.000000
-9.972329 -29.615074 2.683380 49.000000
-9.710826 -29.605354 2.675508 51.500000
-8.332366 -29.583868 2.639233 11.000000
-10.151727 -29.532990 2.681669 8.000000
-9.847742 -29.551735 2.674824 51.000000
-10.008838 -29.417589 2.668322 51.000000
-10.587267 -29.294928 2.674824 6.000000
-10.296195 -29.352039 2.671060 5.000000
-10.656021 -29.197878 2.669006 10.000000
-10.717381 -29.081987 2.661478 6.000000
-8.686527 -29.082748 2.606379 4.000000
-10.805913 -29.040703 2.660793 8.000000
-11.072004 -28.918962 2.659082 21.000000
-10.947178 -28.864174 2.650868 17.000000
-10.877473 -28.954380 2.656002 14.000000
-11.551576 -28.808065 2.665242 12.000000
-11.090969 -28.698166 2.641971 19.000000
-11.143416 -28.566648 2.633073 14.000000
-11.335927 -28.529404 2.636153 14.000000
-11.225808 -28.512957 2.631362 10.000000
-15.045431 -27.288513 2.675851 13.000000
-14.995625 -26.997234 2.651895 5.000000
-14.949978 -26.716974 2.628966 6.000000
-14.896842 -26.426857 2.605011 9.000000
5.724223 -25.379738 2.690458 5.000000
6.810551 -25.015209 2.680995 1.000000
5.846439 -24.828936 2.637793 9.000000
19.032667 -24.759090 2.681669 47.000000
19.091684 -24.595112 2.673626 37.500000
6.175409 -24.494839 2.612283 25.000000
6.256271 -24.490738 2.613929 3.000000
6.476597 -24.392233 2.609814 8.000000
6.856772 -24.279837 2.608991 7.000000
19.451174 -24.339914 2.675509 42.000000
19.452612 -24.185522 2.665242 43.000000
19.732565 -24.220400 2.682695 11.000000
19.945236 -24.169710 2.690909 23.000000
8.937828 -23.516640 2.601585 3.000000
9.034468 -23.547878 2.608168 5.000000
-14.037063 -21.312597 2.639027 5.000000
-14.009396 -21.125807 2.621335 7.000000
-13.976275 -20.932785 2.602819 5.000000
-13.438921 -17.737242 2.694929 6.000000
-13.415110 -17.590738 2.679060 10.000000
-13.392934 -17.447706 2.663671 7.000000
-13.369991 -17.304991 2.648283 7.000000
-13.552149 -17.203171 2.652130 29.000000
-13.440407 -17.227665 2.646119 24.500000
-13.586391 -17.135616 2.648283 4.000000
-12.461914 -11.892230 2.699936 9.000000
-12.435917 -11.756031 2.682283 9.500000
-12.414213 -11.588671 2.661843 10.000000
-12.382174 -11.414024 2.639545 11.500000
-12.364385 -11.290234 2.624370 10.000000
-12.338272 -11.160292 2.607646 10.000000
-12.083117 -9.621742 2.698544 14.000000
-12.059698 -9.479878 2.679957 12.000000
-12.028748 -9.333864 2.659994 11.500000
-12.010512 -9.199406 2.643128 12.000000
-11.981112 -9.028539 2.620984 12.333333
-11.809664 -6.959161 2.642404 27.666666
-11.775840 -7.039322 2.644675 0.000000
-11.943825 -6.912512 2.660197 2.000000
-11.422335 -5.685041 2.692911 17.000000
-11.404450 -5.564863 2.678318 19.000000
-11.376305 -5.418973 2.659594 19.333334
-11.353520 -5.277428 2.642522 20.000000
-11.329097 -5.136770 2.625451 20.000000
-11.306604 -4.998655 2.609205 20.666666
-11.659066 -4.679823 2.651609 2.000000
-11.503846 -4.701532 2.622972 14.000000
-11.550063 -4.593994 2.623523 0.000000
-11.106451 -3.783156 2.695006 17.000000
-11.087463 -3.641140 2.680530 22.000000
-11.057961 -3.478150 2.662621 18.500000
-11.038425 -3.376894 2.651428 19.000000
-11.034481 -3.300039 2.645458 24.000000
-11.006412 -3.178962 2.631429 19.666666
-10.986504 -3.042744 2.618520 24.000000
-10.956010 -2.886586 2.602402 20.250000
-10.726899 -1.526692 2.690038 29.000000
-10.707698 -1.386926 2.680641 23.750000
-10.682035 -1.230333 2.669605 29.400000
-10.653789 -1.074700 2.658473 26.250000
-10.639338 -0.972006 2.652449 25.500000
-10.623960 -0.903322 2.647148 40.000000
-10.601795 -0.784175 2.639341 27.600000
-10.578341 -0.632207 2.631004 33.500000
-10.555397 -0.497817 2.623534 28.750000
-10.539653 -0.414104 2.618715 26.000000
-10.527964 -0.330881 2.615101 34.000000
-10.503408 -0.181540 2.608113 29.400000
-10.480701 -0.032949 2.602089 34.750000
-10.368771 1.900494 2.617173 10.800000
-10.362533 2.061193 2.623149 0.000000
-10.331150 2.224221 2.623727 0.000000
-10.309299 2.372525 2.626426 0.000000
-10.286759 2.520963 2.629510 0.200000
-10.257071 2.685143 2.632370 0.000000
-10.241735 2.813367 2.636948 0.000000
-10.207189 2.965488 2.638955 0.000000
-10.147344 3.098404 2.634136 20.000000
-10.040837 3.140833 2.611968 48.000000
-10.101246 3.194606 2.630281 0.000000
-14.845816 3.315686 2.657584 4.000000
-14.802055 3.428212 2.654486 4.000000
-10.123474 3.377448 2.649558 0.000000
-10.124064 3.448497 2.655340 0.000000
-14.941210 3.559502 2.683399 4.000000
-10.109426 3.550199 2.660160 0.000000
-10.094270 3.616257 2.662087 0.000000
-10.096873 3.688936 2.668834 0.000000
-10.079319 3.706507 2.666264 0.000000
-10.097996 3.797596 2.678472 0.000000
-10.059643 3.873629 2.676304 0.250000
-10.027800 4.025052 2.682713 0.000000
-10.003412 4.180447 2.691725 0.000000
-9.981266 4.319312 2.700158 0.000000
-9.910430 4.456001 2.697749 32.000000
-9.728663 4.466426 2.657750 33.250000
-9.689362 4.615425 2.664593 39.400002
-9.678252 4.752687 2.676930 29.200001
-9.759677 5.834195 2.611729 0.333333
-9.797347 5.940498 2.631728 2.000000
-9.682809 5.933633 2.608446 24.000000
-9.389253 6.424229 2.613147 30.500000
-12.419096 6.475921 2.699946 3.000000
-12.259887 6.466637 2.671932 3.000000
-12.170144 6.468258 2.656790 3.000000
-12.066666 6.461956 2.638618 3.000000
-11.966801 6.456939 2.621204 3.000000
-9.365197 6.582055 2.629265 30.500000
-9.347973 6.702385 2.642025 30.000000
-9.336830 6.761220 2.647846 28.000000
-9.321009 6.862100 2.658591 27.750000
-9.295472 7.025104 2.676277 27.250000
-9.276054 7.171989 2.693215 24.333334
-9.370535 8.131333 2.618567 0.000000
-9.466452 8.372267 2.667304 0.000000
-9.263523 8.376062 2.635914 8.000000
-9.095623 8.381399 2.610513 16.000000
-9.460479 8.446720 2.676803 3.500000
-9.046899 8.495639 2.619393 20.000000
-9.029514 8.559710 2.626001 20.000000
-9.019725 8.658743 2.638943 20.000000
-8.991884 8.824112 2.659043 19.000000
-8.972075 8.972101 2.678042 18.500000
9.124817 9.996451 2.609090 5.000000
-11.574924 10.233432 2.699233 1.000000
8.974479 10.147371 2.611362 9.000000
-8.745978 10.272852 2.600762 17.000000
-8.735415 10.359001 2.612119 16.500000
-8.725069 10.468474 2.627009 12.000000
-8.399214 12.438359 2.622131 12.000000
-8.379889 12.565218 2.638653 10.000000
-8.295704 14.698505 2.645429 0.000000
-8.062166 15.220285 2.699626 17.000000
-7.945303 15.230377 2.692503 14.000000
-9.412867 16.988186 2.696708 1.500000
-9.317462 17.004593 2.692307 1.000000
-7.784011 17.598780 2.671952 2.000000
-7.581731 17.587677 2.659299 6.000000
-7.876380 17.657461 2.684605 3.000000
-7.524279 17.683372 2.668376 2.500000
-7.501545 17.862915 2.690106 1.000000
5.560152 -39.412777 2.721874 10.000000
5.768077 -39.108601 2.703317 9.000000
-8.512648 -31.353363 2.789812 2.000000
-6.933165 -31.299328 2.752851 3.000000
-7.125251 -31.235725 2.751140 8.000000
-9.782084 -30.968254 2.788785 15.000000
-7.684908 -30.983700 2.741216 1.000000
-10.864851 -30.664377 2.793576 19.000000
-9.818708 -30.747545 2.771674 45.000000
-9.097130 -30.457460 2.729580 47.000000
-8.998013 -30.474422 2.728553 6.000000
-11.647691 -30.422598 2.797340 8.000000
-8.860916 -30.360989 2.715891 17.000000
