# This PCD file was generated using the MATLAB® pcwrite function
# from Computer Vision Toolbox®.
# .PCD v.7 - Point Cloud Data file format
VERSION .7
FIELDS x y z intensity
SIZE 4 4 4 4
TYPE F F F F
COUNT 1 1 1 1
WIDTH 1218
HEIGHT 1
VIEWPOINT 0 0 0 1 0 0 0
POINTS 1218
DATA ascii
-11.789042 -1.677848 2.735152 0.000000
-19.675055 -1.583016 2.740718 1.000000
-11.777297 -1.525466 2.727765 0.000000
-11.734554 -1.370198 2.713662 0.000000
-11.725683 -1.257278 2.708737 0.000000
-11.756626 -1.185910 2.714109 0.000000
-11.720634 -1.070796 2.703364 0.000000
-19.664442 0.336377 2.730815 3.000000
-19.662613 0.429042 2.730815 5.000000
-19.661238 0.583527 2.731182 5.000000
-11.256712 0.619495 2.798950 42.000000
-19.659388 0.738062 2.731641 5.000000
-11.243289 0.725098 2.797216 36.400002
-19.660299 0.861819 2.732466 5.000000
-11.223443 0.883295 2.795095 37.250000
-19.662407 0.985748 2.733566 4.500000
-11.201792 1.023383 2.792686 35.250000
-11.182691 1.181256 2.791818 38.000000
-11.160674 1.338729 2.790758 33.000000
-11.145691 1.443615 2.790276 33.500000
-11.138323 1.513888 2.790758 44.000000
-11.122546 1.618634 2.790517 36.000000
-11.102154 1.776287 2.791433 35.799999
-11.076165 1.933098 2.791481 32.250000
-11.064348 2.074661 2.794854 37.000000
-11.043200 2.232723 2.797216 34.400002
-11.021166 2.384880 2.799593 37.666668
-11.015509 2.444090 2.801360 36.500000
-10.680568 4.944223 2.703364 24.750000
-10.664312 5.079801 2.713214 30.000000
-10.643663 5.214326 2.722392 25.750000
-10.623392 5.370979 2.734257 26.750000
-10.602592 5.528832 2.746569 22.250000
-10.580355 5.687465 2.759106 28.750000
-10.561873 5.828104 2.770821 22.333334
-10.548658 5.929334 2.779477 25.000000
-10.536595 6.009978 2.786193 29.500000
-10.518024 6.153698 2.799028 22.333332
-10.610291 7.186453 2.704751 0.000000
-10.606483 7.330636 2.721272 0.000000
-10.583848 7.463333 2.733387 0.000000
-10.560585 7.622228 2.748876 0.000000
-10.550610 7.767242 2.765190 0.000000
-10.537471 7.834382 2.771385 0.000000
-10.521486 7.951533 2.783528 8.000000
-10.378972 7.972705 2.762299 27.000000
-10.372453 8.019633 2.767255 13.000000
-10.461488 8.141117 2.797819 0.000000
-10.474113 9.351787 2.706761 2.500000
-10.248619 9.900433 2.746889 0.000000
-10.261799 10.054382 2.769414 0.000000
-10.215458 10.183655 2.780581 0.000000
-10.244837 10.212701 2.788531 0.000000
-10.207077 10.336150 2.800267 0.000000
-11.382113 11.235962 2.794232 1.000000
-11.244390 11.240417 2.777711 1.000000
-11.093236 11.229555 2.757747 1.000000
-10.903877 11.230200 2.734685 1.000000
-10.794177 11.240346 2.722638 1.000000
-9.722991 12.092962 2.710936 1.000000
-9.738873 14.471141 2.734002 6.000000
-9.578559 14.427711 2.714388 11.666667
-9.870323 14.518171 2.751655 4.500000
-9.411034 14.519533 2.712014 12.500000
-9.385595 14.681599 2.731215 12.000000
-9.360615 14.847244 2.751036 11.500000
-9.346027 14.980031 2.767449 11.000000
-9.331326 15.114706 2.784173 11.500000
-9.313618 15.246181 2.800277 11.000000
8.437638 15.469337 2.761875 18.000000
8.553846 15.450570 2.768069 10.000000
8.385309 15.547196 2.768688 6.000000
-9.032636 17.381147 2.719813 9.000000
-9.077341 18.016947 2.801231 18.000000
-8.973787 18.022259 2.795455 16.500000
-8.608899 20.671389 2.711761 1.000000
-8.545372 21.267996 2.775720 0.000000
-8.803010 21.325996 2.793994 1.000000
-8.676954 21.304691 2.785818 1.500000
5.429946 -32.552780 2.833958 10.000000
6.012635 -32.284019 2.819927 4.000000
7.387988 -32.283550 2.843883 7.000000
7.135721 -32.107578 2.824376 13.000000
7.897036 -31.744081 2.808976 4.000000
7.998674 -31.726845 2.809660 3.000000
8.117050 -31.774923 2.816163 13.000000
-8.345872 -26.713387 2.894125 8.000000
-6.290979 -26.612682 2.827881 6.000000
-6.031078 -26.631990 2.823767 4.000000
-8.651274 -26.515621 2.884250 2.000000
-8.462720 -26.501232 2.876844 20.000000
-8.550824 -26.489658 2.878489 8.000000
-6.465752 -26.423357 2.813069 9.000000
-6.546817 -26.395191 2.812247 8.000000
-7.217552 -26.256863 2.815949 8.000000
-10.312582 -26.073074 2.899473 17.000000
-8.951584 -26.041584 2.847631 35.000000
-7.803800 -25.978519 2.805046 18.500000
-10.449852 -25.825352 2.880958 4.000000
-8.932853 -25.723919 2.815949 54.000000
-11.144668 -25.667728 2.893713 12.000000
-10.704310 -25.526884 2.862443 24.000000
-11.355325 -25.492496 2.885896 10.000000
-11.257499 -25.488010 2.881370 24.000000
-10.844189 -25.411547 2.857094 41.000000
-10.747250 -25.405184 2.852568 35.000000
-10.211700 -25.466600 2.837345 12.000000
-9.544296 -25.405643 2.806486 38.000000
-9.800521 -25.359098 2.811424 42.000000
-11.369391 -25.239111 2.862580 8.000000
-10.489676 -25.237068 2.826236 4.000000
-11.578226 -25.138187 2.862032 6.000000
-11.706347 -25.069965 2.861209 9.666667
-14.554403 -23.853304 2.889599 7.000000
-14.525116 -23.637964 2.869026 5.000000
-14.509278 -23.446732 2.851334 12.000000
-14.471340 -23.222063 2.829527 12.000000
4.537866 -23.151091 2.856991 8.000000
5.904932 -23.115391 2.889211 25.000000
6.000401 -23.185144 2.900271 14.000000
-14.444818 -23.018091 2.810189 9.000000
6.869993 -22.942514 2.900271 7.000000
5.311695 -22.879911 2.844487 20.000000
6.929374 -22.879013 2.894981 13.000000
4.902266 -22.731499 2.816115 12.000000
5.360795 -22.766479 2.832465 1.000000
7.055363 -22.778128 2.887768 34.000000
7.091768 -22.154673 2.817076 6.000000
8.843411 -21.811449 2.850258 5.000000
3.360015 -20.563404 2.893102 4.000000
3.592062 -20.560314 2.898053 13.500000
3.051476 -20.491259 2.876598 7.000000
3.332132 -19.997795 2.814985 2.000000
19.379999 -20.089672 2.886581 26.333334
6.837620 -19.657063 2.889801 32.000000
19.654373 -19.640673 2.873346 10.500000
-13.962412 -19.423599 2.896905 6.000000
19.732891 -19.411777 2.862443 15.000000
-13.937231 -19.260609 2.879112 6.000000
6.233050 -19.274897 2.812784 5.000000
-13.918180 -19.107595 2.862761 7.000000
7.194101 -19.119333 2.836439 55.000000
19.603151 -19.163340 2.834876 36.000000
7.727360 -19.068367 2.856794 15.000000
-13.891262 -18.945288 2.844968 6.000000
-13.870531 -18.792925 2.828618 7.000000
-13.858459 -18.653631 2.814191 6.000000
5.501933 -17.578190 2.886992 4.000000
5.767190 -17.551176 2.895664 5.000000
5.849795 -17.523842 2.895664 6.000000
5.883348 -17.441721 2.885134 5.000000
6.201663 -16.801310 2.807091 4.000000
6.607301 -16.756460 2.823195 1.000000
6.862314 -16.707039 2.830937 6.500000
7.396966 -16.629515 2.852719 15.333333
7.459014 -16.581579 2.849829 5.000000
7.191309 -16.397808 2.806471 10.000000
-13.492095 -15.903820 2.895853 8.000000
-13.743422 -15.709966 2.898237 7.333333
-13.597408 -15.724937 2.886501 19.000000
-13.481913 -15.740732 2.877699 20.000000
-13.109615 -13.073054 2.901858 11.000000
-13.097287 -12.978958 2.890089 10.000000
-13.081683 -12.882291 2.877702 10.000000
-13.071250 -12.791379 2.866552 14.000000
-13.049046 -12.649898 2.848590 10.500000
-13.424745 -12.414053 2.865933 5.000000
-13.301131 -12.416435 2.851997 4.000000
-13.169709 -12.449562 2.840538 16.500000
-13.046944 -12.489746 2.830937 12.500000
-12.708381 -10.152228 2.841732 2.000000
-12.698872 -10.047020 2.828997 13.000000
-12.673244 -9.897910 2.809377 13.000000
-13.036772 -9.759848 2.845174 0.000000
-12.896326 -9.749870 2.824522 0.000000
-12.756623 -9.770786 2.807312 15.500000
-12.458670 -8.268236 2.882416 16.666666
-12.434467 -8.112150 2.861974 17.000000
-12.413980 -7.960562 2.842793 17.000000
-12.394212 -7.811130 2.824117 18.000000
-12.376319 -7.691649 2.808974 17.000000
-12.186198 -6.281686 2.893640 19.000000
-12.174170 -6.179053 2.881525 18.666666
-12.153557 -6.025208 2.863077 20.666666
-12.132302 -5.872882 2.844904 20.000000
-12.110443 -5.722052 2.827006 21.000000
-12.091560 -5.574349 2.810210 20.666666
-19.724779 -4.510327 2.809483 1.000000
-19.725582 -4.380319 2.805632 2.000000
-17.871826 -4.204962 2.877702 0.000000
-11.897531 -4.136173 2.893199 26.000000
-11.886328 -4.048795 2.884245 28.000000
-11.869662 -3.918669 2.871112 29.666666
-11.846664 -3.767164 2.855367 29.750000
-11.828698 -3.618697 2.841263 31.333334
-11.845591 -3.522282 2.838577 19.000000
-12.119646 -3.445461 2.894095 3.000000
-11.992898 -3.484232 2.868574 27.500000
-12.008745 -3.063226 2.846636 0.000000
-11.951742 -2.829694 2.821115 0.000000
-11.953935 -2.731259 2.816489 0.000000
-11.934948 -2.582590 2.804848 0.000000
-13.652851 -1.160863 2.891988 2.500000
-11.450787 -0.837896 2.850515 37.250000
-11.432417 -0.737315 2.844250 47.333332
-11.415571 -0.610272 2.838226 47.500000
-11.398096 -0.465790 2.832202 48.500000
-11.376856 -0.321775 2.825697 50.500000
-11.361563 -0.178503 2.821119 50.750000
-11.339616 -0.017832 2.815336 52.599998
-11.500022 0.132583 2.855334 22.833334
-11.539838 0.290089 2.865936 0.000000
-11.513945 0.434262 2.860635 0.000000
-11.499460 0.560390 2.858387 1.333333
-10.998934 2.549419 2.803127 32.000000
-10.981203 2.672889 2.805938 36.250000
-10.966491 2.815732 2.810998 34.750000
-10.943156 2.975254 2.815528 35.000000
-10.921683 3.135889 2.821119 30.500000
-10.900002 3.278477 2.825938 34.750000
-10.881090 3.422468 2.831962 29.750000
-10.864883 3.568021 2.839190 33.500000
-10.850450 3.695920 2.845857 31.666666
-10.835161 3.785933 2.849551 27.500000
-10.824505 3.897096 2.856298 35.250000
-10.798312 4.041653 2.862563 26.250000
-10.781045 4.190392 2.871719 32.250000
-10.763536 4.340065 2.881358 27.250000
-10.743975 4.489932 2.890996 32.500000
-10.711231 4.615205 2.895654 24.666666
-10.687985 4.685023 2.897261 26.000000
-10.665841 4.775558 2.901357 35.500000
-10.503661 6.278898 2.810818 25.333334
-10.482143 6.423545 2.823802 19.500000
-10.465404 6.572610 2.838577 20.666666
-10.450256 6.654986 2.845741 22.000000
-10.473753 8.230238 2.811449 0.000000
-10.435427 8.360397 2.822187 0.000000
-10.438963 8.471363 2.837469 0.000000
-10.433253 8.714287 2.869134 0.000000
-10.379509 8.836777 2.877120 0.000000
-10.411135 8.920274 2.893640 0.000000
-10.375577 9.003464 2.899423 0.000000
-10.090526 9.327583 2.900249 20.000000
-10.167877 10.393979 2.802917 0.000000
-10.173504 10.465297 2.813517 0.000000
-10.216667 10.609325 2.839260 0.000000
-10.133688 10.791215 2.853645 12.500000
-10.295194 10.860256 2.884688 4.000000
-10.020287 10.805711 2.840774 12.000000
-9.897772 10.809118 2.825253 18.000000
-9.878380 10.925003 2.839260 18.000000
-9.855751 11.073656 2.857683 16.666666
-9.844851 11.202209 2.874845 13.000000
-14.258496 11.260613 2.847764 0.000000
-14.082994 11.242305 2.824434 1.000000
-13.942187 11.237814 2.806781 1.000000
-11.530075 11.239864 2.813164 0.500000
-9.881099 13.285526 2.892674 6.000000
-9.713529 13.232901 2.867892 17.666666
-9.586237 13.233135 2.854812 15.000000
-9.567350 13.339012 2.867892 13.000000
-9.545958 13.487303 2.886823 13.000000
-9.304609 15.339563 2.812046 13.000000
-9.313939 18.060883 2.821586 8.000000
-9.222855 18.023043 2.811134 5.000000
-9.150047 18.020132 2.806182 27.000000
-8.929877 18.147911 2.808383 8.000000
-8.916275 18.264885 2.822136 8.000000
-8.902017 18.381952 2.835889 8.000000
-8.887119 18.499109 2.849642 7.000000
-8.871573 18.616352 2.863395 9.000000
-8.857061 18.737265 2.877699 7.000000
-8.841887 18.858265 2.892002 6.000000
2.679578 -28.721449 2.982997 16.000000
2.774763 -28.764374 2.988346 13.000000
3.415042 -28.767523 2.995752 10.000000
3.688043 -28.749846 2.997398 3.000000
3.777821 -28.734173 2.996987 1.000000
3.587826 -28.682329 2.989169 11.000000
-10.202588 -26.154791 2.903177 8.000000
-10.695263 -25.961521 2.903588 5.000000
-11.306651 -25.818464 2.914697 2.000000
-14.710896 -24.984118 2.998221 14.000000
-14.673629 -24.742710 2.974768 12.000000
-14.655396 -24.535946 2.955430 11.000000
4.307083 -24.401760 3.000778 7.000000
-14.617551 -24.298857 2.932389 5.000000
4.418856 -24.147663 2.972886 28.000000
4.892138 -24.153492 2.984428 3.000000
-14.586601 -24.075863 2.910994 7.000000
4.560144 -24.064800 2.966154 13.000000
4.634221 -24.042555 2.965192 14.000000
5.737571 -24.027981 2.991641 0.000000
5.819565 -24.036854 2.995007 13.000000
5.003167 -23.927929 2.960383 13.000000
4.283257 -23.829216 2.932010 10.000000
4.437987 -23.829161 2.935376 13.000000
4.750267 -23.837715 2.943552 4.000000
5.293112 -23.816654 2.954612 0.000000
5.452392 -23.825508 2.959902 11.000000
4.117183 -23.761755 2.920469 4.000000
5.769161 -23.505533 2.931048 8.000000
-7.496673 -23.476032 2.984428 8.000000
6.136652 -23.408173 2.930568 10.000000
-8.181017 -23.322163 2.993084 13.000000
-7.552092 -23.395679 2.977214 5.000000
-7.388197 -23.389658 2.970482 5.000000
-7.597220 -23.285011 2.966154 4.000000
5.867230 -23.272444 2.906523 7.000000
-9.138152 -22.998211 2.996931 26.000000
3.604596 -21.221539 2.988824 18.000000
3.777130 -21.034538 2.967369 10.000000
4.358746 -21.028965 2.981947 15.000000
4.174475 -20.967379 2.968469 9.000000
2.871919 -20.857220 2.923359 8.000000
3.299701 -20.809853 2.925560 9.000000
5.055026 -20.894981 2.984973 95.000000
3.841820 -20.648142 2.916207 14.000000
4.391568 -20.696228 2.937662 2.000000
3.759120 -20.562675 2.902454 6.000000
19.233959 -20.532297 2.909348 39.000000
19.268349 -20.439922 2.904822 40.000000
19.436520 -20.488981 2.920457 17.000000
-14.079500 -20.250206 2.986832 10.000000
6.943518 -20.165445 2.961318 35.000000
19.691933 -20.115765 2.910994 26.000000
-14.047411 -20.069237 2.966635 6.000000
-14.034910 -19.917887 2.950765 7.000000
6.553284 -19.943489 2.914832 0.500000
19.809532 -19.983160 2.909760 8.000000
6.959759 -19.807432 2.915107 14.000000
7.388592 -19.824945 2.937662 0.000000
-14.005515 -19.744139 2.931529 5.000000
7.021953 -19.785469 2.915107 10.000000
7.893318 -19.655069 2.940963 17.000000
-13.989012 -19.590170 2.915179 6.000000
6.724589 -17.702608 2.968133 3.000000
-6.118887 -17.521700 2.908981 9.000000
-5.967642 -17.529922 2.902477 21.666666
7.433273 -17.545738 2.986715 4.000000
7.049898 -17.396633 2.942118 5.000000
7.396316 -17.157568 2.928492 5.000000
-13.584763 -16.692226 2.988274 1.000000
-13.572637 -16.517857 2.968469 7.500000
-13.549221 -16.331709 2.946464 8.000000
-13.529362 -16.203907 2.931061 8.000000
-13.513927 -16.082460 2.916757 11.000000
5.750333 -16.042416 2.977348 5.000000
5.902638 -15.991203 2.978036 16.000000
-13.210396 -13.809507 2.995386 9.000000
-13.193039 -13.661791 2.976804 8.000000
-16.767056 -13.568005 2.994875 2.000000
-16.633354 -13.575436 2.981122 2.000000
-16.439781 -13.561546 2.959117 1.000000
-16.354412 -13.577700 2.951415 1.000000
-13.178059 -13.560760 2.963797 10.000000
-13.162572 -13.459965 2.950790 10.000000
-13.146586 -13.359396 2.937783 10.000000
-13.124390 -13.211817 2.918891 10.000000
-12.886293 -11.293040 2.993526 14.000000
-13.030823 -10.680806 2.943616 0.000000
-12.667366 -9.052229 3.001287 0.000000
-12.546320 -8.876763 2.962673 14.000000
-12.516725 -8.709184 2.939454 16.333334
-12.499434 -8.552179 2.919516 14.500000
-12.484563 -8.427322 2.903616 16.500000
-12.298093 -7.066034 2.993592 17.000000
-12.280442 -6.928228 2.975970 18.333334
-12.257405 -6.751188 2.953529 17.500000
-12.230892 -6.599502 2.933291 19.666666
-12.216672 -6.468422 2.917596 18.000000
-12.198077 -6.360774 2.903553 18.500000
-12.009895 -4.952630 2.983938 23.333334
-11.994541 -4.814516 2.968716 25.000000
-11.978177 -4.699051 2.955433 23.500000
-11.965672 -4.629171 2.946926 24.000000
-11.953161 -4.538237 2.936778 25.333334
-11.931234 -4.380465 2.919391 26.500000
-11.912895 -4.225643 2.903348 27.666666
-11.871252 -2.283906 3.001354 0.000000
-11.791873 -2.129532 2.974969 27.500000
-11.824928 -1.910937 2.973885 0.000000
-11.824835 -1.815771 2.970190 0.000000
-11.819635 -1.701201 2.964729 0.000000
-11.760912 -1.617317 2.947380 0.000000
-11.789555 -1.564691 2.952681 0.000000
-11.770264 -1.486955 2.945452 0.000000
-11.753812 -1.372473 2.937982 0.000000
-11.759513 -1.223554 2.935332 0.000000
-11.725089 -1.077458 2.923284 0.000000
-11.659822 -0.954506 2.904490 0.000000
-11.205363 0.740326 3.001261 48.000000
-11.187470 0.880473 2.999196 47.250000
-11.167827 1.020280 2.997130 47.500000
-11.150280 1.160137 2.996097 48.250000
-11.140894 1.247682 2.996097 48.000000
-11.125885 1.334561 2.994806 48.000000
-11.106320 1.474015 2.994290 47.500000
-11.082612 1.630613 2.993825 47.599998
-11.066888 1.788481 2.996097 47.750000
-11.047345 1.928082 2.997130 48.000000
-11.027944 2.067809 2.998679 47.250000
-11.007035 2.225420 3.001261 46.599998
-10.641091 4.925942 2.911236 43.750000
-10.623001 5.080633 2.923525 44.000000
-10.600090 5.234344 2.935091 44.750000
-10.581461 5.370631 2.946095 44.000000
-10.572859 5.450049 2.953163 44.000000
-10.562436 5.528979 2.959909 42.333332
-10.546356 5.647841 2.970190 43.000000
-10.539137 5.729432 2.978222 42.000000
-10.524283 5.828974 2.986897 42.500000
-10.503323 5.991047 3.002077 43.250000
-10.662548 6.884763 2.915287 0.000000
-10.643842 7.015700 2.928122 0.000000
-10.615312 7.165538 2.941777 0.000000
-10.609930 7.333027 2.962447 0.000000
-10.580691 7.461172 2.973790 0.000000
-10.551453 7.624004 2.990057 0.000000
-10.384072 9.183825 2.925856 0.000000
-10.151710 9.295738 2.905205 12.000000
-10.476418 9.353857 2.964267 2.500000
-10.304257 9.317085 2.932052 7.500000
-10.077355 9.433613 2.913465 18.666666
-10.060681 9.597509 2.934667 14.333333
-15.676505 10.048688 2.918581 4.000000
-15.667082 10.147177 2.925704 4.000000
-15.672874 10.312469 2.940632 4.000000
-15.674824 10.505312 2.957603 4.000000
-15.670617 10.645781 2.969372 4.000000
-15.675033 10.793324 2.982998 4.000000
-15.667712 10.921859 2.993528 4.000000
-10.418730 10.921640 2.909673 2.000000
-15.432386 11.245245 2.992909 2.000000
-15.280584 11.245153 2.973707 2.000000
-15.132245 11.246397 2.955126 2.000000
-14.992272 11.240092 2.936957 2.000000
-12.839890 11.244356 2.981822 2.000000
-12.723266 11.248685 2.967022 1.000000
-12.637820 11.244071 2.955319 1.000000
-10.771230 11.220368 2.998258 1.000000
-9.816625 11.433077 2.904878 14.333333
-9.798460 11.545835 2.919137 16.500000
-9.781218 11.673406 2.935794 15.000000
-9.770040 11.772249 2.949044 16.000000
-9.762997 11.839246 2.958130 15.000000
-9.750295 11.976531 2.977058 14.333333
-9.729097 12.104883 2.993715 1.000000
-9.978435 13.299683 2.904836 4.000000
-9.524200 13.637467 2.906098 13.000000
-9.508739 13.799254 2.927783 13.500000
-11.810356 15.024399 2.995386 1.000000
-11.652737 15.017132 2.979282 1.000000
-11.500462 15.014774 2.964417 1.000000
-11.357039 15.022116 2.951719 0.500000
-9.531446 16.582310 2.997864 5.500000
-9.408255 16.548067 2.983618 5.000000
-9.295323 16.530182 2.972469 18.500000
-9.182735 16.511673 2.961320 18.000000
-9.136181 16.611904 2.971539 11.500000
-9.117331 16.764120 2.991050 10.000000
-11.056417 18.422733 2.983322 1.000000
-10.905132 18.432171 2.973695 1.000000
-10.751170 18.435307 2.963243 1.000000
-8.819347 18.964987 2.904104 1.000000
-10.032267 21.831696 2.909648 1.000000
-9.908740 21.833570 2.903637 0.000000
4.462229 -29.609978 3.096557 19.000000
4.349445 -29.490019 3.082568 4.000000
4.911061 -29.442043 3.086682 1.000000
5.470954 -29.375540 3.089974 11.000000
5.748328 -29.326578 3.090385 17.000000
3.167949 -29.019924 3.018793 16.000000
3.257771 -28.997969 3.017559 13.000000
3.902592 -28.978470 3.023731 14.000000
-14.828427 -25.923359 3.088328 7.000000
-14.798559 -25.683590 3.065287 5.000000
-14.783308 -25.471792 3.045537 10.000000
-14.752811 -25.236307 3.022908 13.000000
-7.289237 -24.404579 3.084454 2.000000
-7.905370 -23.973795 3.057043 4.000000
-9.225815 -23.650789 3.074355 9.000000
-9.543135 -23.584526 3.081087 7.000000
-9.421700 -23.496447 3.065699 6.000000
-10.111245 -23.489342 3.096957 2.000000
-9.230245 -23.444332 3.051272 0.000000
-10.379697 -23.106663 3.067622 8.000000
2.759380 -22.090748 3.091147 0.000000
3.157750 -21.913248 3.074093 3.000000
3.640144 -21.846331 3.075193 11.000000
3.542742 -21.681704 3.050437 17.000000
5.521028 -21.628298 3.099399 7.000000
3.317174 -21.577070 3.031183 6.000000
4.663014 -21.476746 3.051538 11.000000
5.112578 -21.427168 3.058689 49.000000
4.738452 -21.338514 3.035034 27.000000
4.844631 -21.341042 3.038610 20.000000
5.256583 -21.336510 3.051171 34.333332
4.938452 -21.289051 3.034484 8.000000
6.661790 -21.283834 3.096648 1.000000
-14.196115 -21.118090 3.081568 19.000000
4.983533 -21.180872 3.021281 15.000000
5.746695 -21.122200 3.039435 2.000000
6.946506 -21.140465 3.089771 51.500000
7.094008 -21.030834 3.081795 55.000000
7.160040 -21.008446 3.081795 42.000000
-14.175587 -20.945129 3.062813 8.000000
6.996540 -20.959066 3.068042 68.000000
-14.158585 -20.779072 3.045020 11.000000
-14.120464 -20.583858 3.022899 9.000000
-14.108336 -20.428301 3.006549 9.000000
8.774430 -20.179808 3.055389 6.000000
5.801924 -18.742994 3.075288 23.000000
5.696749 -18.609982 3.050512 0.000000
5.849234 -18.483881 3.038744 12.000000
6.311887 -18.331053 3.038744 0.000000
8.893210 -17.623831 3.094118 11.800000
9.228701 -17.488991 3.099444 4.000000
6.420513 -16.282757 3.057891 15.000000
7.347762 -16.063713 3.086116 4.000000
7.227265 -15.932419 3.056515 5.000000
-13.320952 -14.598533 3.097586 6.000000
-13.297159 -14.435354 3.076217 8.000000
-13.277646 -14.278450 3.056087 14.000000
-13.255465 -14.120672 3.035647 8.000000
-13.232222 -13.963366 3.015207 10.000000
-16.858999 -13.554989 3.003677 2.000000
-12.954692 -11.904107 3.073725 13.000000
-12.939651 -11.815524 3.061333 11.000000
-12.927099 -11.729801 3.049630 12.000000
-12.907459 -11.601604 3.032076 12.000000
-12.884315 -11.435274 3.009703 12.000000
-13.295660 -11.215809 3.038960 3.000000
-13.199169 -11.241317 3.028978 5.000000
-13.030795 -11.239886 3.006490 11.333333
-12.680864 -9.868233 3.097443 14.000000
-12.723927 -9.773922 3.092900 14.333333
-12.403282 -7.816854 3.094370 15.500000
-12.385491 -7.670458 3.074820 15.333333
-12.362381 -7.522388 3.054307 16.500000
-12.350666 -7.409335 3.039851 17.500000
-12.338356 -7.323069 3.028286 16.000000
-12.317614 -7.206567 3.012040 18.000000
-12.132732 -5.849553 3.093780 20.000000
-12.119516 -5.726339 3.078856 22.000000
-12.095057 -5.575956 3.059156 21.333334
-12.080702 -5.431874 3.042441 23.333334
-12.056375 -5.284918 3.023637 22.000000
-12.033291 -5.117840 3.003563 24.250000
-16.803379 -4.799252 3.053072 0.000000
-16.768627 -4.675607 3.041369 3.750000
-16.845247 -4.526299 3.047393 4.500000
-16.870783 -4.381957 3.045270 4.000000
-16.897980 -4.200613 3.042058 5.000000
-17.058084 -4.126784 3.066152 1.000000
-11.864151 -3.875511 3.098700 28.000000
-11.852509 -3.769022 3.087857 26.750000
-11.833571 -3.620179 3.072356 29.666666
-11.842454 -3.521366 3.067376 18.500000
-11.946492 -3.491136 3.090026 8.000000
-11.867912 -2.516106 3.011956 0.000000
-11.881519 -2.382804 3.008583 0.000000
-11.463825 -0.866006 3.072523 23.000000
-11.439610 -0.755834 3.064003 44.000000
-11.423121 -0.610688 3.057290 44.250000
-11.401901 -0.465945 3.049802 45.500000
-11.379816 -0.321863 3.042572 46.750000
-11.364609 -0.178549 3.037667 47.250000
-11.343349 -0.017854 3.031625 48.200001
-11.430458 0.089777 3.054966 12.000000
-11.534836 0.155868 3.083058 20.600000
-11.550750 0.290336 3.088015 0.000000
-19.668947 0.336454 3.083340 2.000000
-19.669096 0.429187 3.083650 5.000000
-11.530743 0.434878 3.083884 0.000000
-19.665735 0.583669 3.083753 6.000000
-11.503425 0.560596 3.078031 0.666667
-11.244694 0.636523 3.010040 36.500000
-19.665852 0.738296 3.084579 5.500000
-19.660824 0.861854 3.084579 5.000000
-19.655022 0.985377 3.084579 4.500000
-10.984900 2.383062 3.004101 46.500000
-10.965385 2.523516 3.007200 47.250000
-10.943773 2.682001 3.011383 47.599998
-10.924254 2.841506 3.016753 50.750000
-10.905391 2.983398 3.021659 54.500000
-10.885612 3.125527 3.026823 65.750000
-10.863981 3.267634 3.031986 87.250000
-10.848018 3.393343 3.037753 66.666664
-10.832708 3.482178 3.041023 74.000000
-10.816770 3.589906 3.045929 75.000000
-10.800021 3.735651 3.054191 66.250000
-10.784040 3.882524 3.063228 60.250000
-10.764256 4.028911 3.071748 57.500000
-10.742495 4.175407 3.080269 59.750000
-10.722332 4.323427 3.089822 61.500000
-10.714195 4.437971 3.099375 52.500000
-10.484603 6.134107 3.015811 46.666668
-10.461411 6.276000 3.028823 79.750000
-10.444180 6.422832 3.044084 70.000000
-10.430064 6.573368 3.060870 40.000000
-10.547496 7.803371 3.013637 0.000000
-10.549811 7.946969 3.033785 0.000000
-10.470090 7.968124 3.022144 21.428572
-10.375099 8.021679 3.012294 11.000000
-10.497524 8.169160 3.055276 0.000000
-10.243279 9.895274 3.005983 0.000000
-10.240202 9.954689 3.014243 0.000000
-10.273227 10.049756 3.033242 0.000000
-10.230019 10.166021 3.043981 0.000000
-10.218698 10.315545 3.064632 0.000000
-10.194813 10.454304 3.081979 0.000000
-9.902348 10.814135 3.094783 17.000000
-15.667212 11.080732 3.007774 4.000000
-15.666309 11.191175 3.017684 4.000000
-15.578174 11.239367 3.010871 2.500000
-13.723465 11.240530 3.099195 2.000000
-13.591406 11.239739 3.081297 2.000000
-13.468712 11.245625 3.065464 2.000000
-13.326344 11.245639 3.046418 2.000000
-13.168955 11.243317 3.025192 2.000000
-13.011618 11.251094 3.005228 2.000000
-11.500197 11.250036 3.101228 1.000000
-11.378599 11.236446 3.082679 1.000000
-11.239723 11.239681 3.064129 1.000000
-11.063873 11.238904 3.040153 1.000000
-10.889599 11.237139 3.016429 1.000000
-9.728289 14.455416 3.044123 6.000000
-9.577733 14.426437 3.025307 12.666667
-9.444417 14.421589 3.011768 17.000000
-9.872774 14.521776 3.067873 4.500000
-9.410593 14.518847 3.022783 13.000000
-9.388153 14.685587 3.045156 13.500000
-9.366096 14.855946 3.068217 13.000000
-9.348182 14.983484 3.085427 12.000000
-12.078823 15.023026 3.021401 1.000000
-11.962381 15.022535 3.009942 1.000000
-9.340496 15.076417 3.098507 13.000000
8.439652 15.472992 3.079232 26.000000
8.560591 15.462733 3.087837 10.500000
8.389101 15.554227 3.087492 14.000000
-9.096191 16.914797 3.010252 11.000000
-9.079521 17.076099 3.031311 10.000000
-9.057716 17.230640 3.051132 10.500000
-9.040276 17.395849 3.072810 9.000000
-9.028990 20.156204 3.066666 3.000000
-8.897843 20.117031 3.054288 9.000000
-8.818692 20.108601 3.048787 9.000000
-8.709641 20.117193 3.043836 6.000000
-8.661473 20.267332 3.060340 2.000000
-8.644128 20.403883 3.076844 2.000000
-8.626010 20.540527 3.093347 1.000000
1.904706 -30.876343 3.199008 17.000000
1.999124 -30.830502 3.194893 19.000000
3.161335 -30.749081 3.196539 19.000000
2.572236 -30.696152 3.185430 8.000000
3.248696 -30.651951 3.187487 8.000000
3.833764 -30.648439 3.194070 6.000000
3.720608 -30.522099 3.179669 3.000000
2.746120 -30.469358 3.163623 13.000000
3.324684 -30.455694 3.168149 3.000000
3.613444 -30.438814 3.169795 7.000000
-5.326242 -30.299364 3.181315 8.000000
3.028030 -30.390657 3.158274 4.000000
-6.103300 -30.241753 3.190367 2.000000
4.151205 -30.109100 3.143051 37.000000
-5.819076 -30.048483 3.165063 1.000000
-5.376523 -30.031828 3.154983 3.000000
4.237996 -30.040754 3.137290 10.000000
-5.554228 -29.938772 3.148811 8.000000
-5.463711 -29.975645 3.150868 4.000000
-5.927676 -29.854906 3.147577 5.000000
-5.634973 -29.850800 3.141405 5.000000
5.759342 -29.879732 3.146754 2.000000
6.199328 -29.882952 3.156011 5.500000
6.341337 -29.859278 3.156628 6.000000
6.426725 -29.800318 3.152514 5.000000
4.773857 -29.770893 3.117952 18.000000
6.797137 -29.701691 3.150868 2.000000
6.876019 -29.618179 3.144285 3.000000
-14.911431 -26.452740 3.140171 5.000000
-14.882476 -26.208549 3.116718 7.000000
-5.784168 -25.729172 3.193616 4.000000
-6.263371 -25.596292 3.191212 10.000000
-6.022767 -25.658052 3.191693 8.000000
-5.689567 -25.685184 3.185922 1.000000
-6.344710 -25.580343 3.191693 4.000000
-6.113551 -25.563055 3.183037 17.000000
-8.710732 -24.832256 3.186884 22.000000
-8.807641 -24.734797 3.179671 48.500000
-8.989412 -24.631308 3.175343 56.000000
-9.091614 -24.551395 3.170534 41.500000
-9.349638 -24.420317 3.166686 27.000000
-8.501107 -24.480623 3.138314 6.000000
-10.040535 -24.372246 3.192174 7.000000
-9.409134 -24.346376 3.160916 57.000000
-10.280721 -24.231621 3.187685 11.000000
3.119293 -22.138840 3.104350 10.000000
6.088678 -22.104815 3.183568 6.000000
-14.323444 -22.047750 3.183999 8.000000
6.217763 -22.031803 3.178617 1.000000
6.108079 -21.906204 3.157712 8.000000
-14.294821 -21.853100 3.162358 5.000000
6.946291 -21.713255 3.165413 12.000000
-14.273850 -21.672113 3.142642 5.000000
6.346686 -21.578186 3.123054 34.000000
6.439247 -21.517693 3.118653 39.000000
-14.236525 -21.468311 3.119559 8.000000
-14.224519 -21.304588 3.102247 10.000000
8.457057 -21.251648 3.175866 3.000000
8.551833 -21.294830 3.186318 2.000000
7.684331 -21.124062 3.121129 16.500000
7.810575 -21.160114 3.131856 20.000000
8.788527 -21.020107 3.163488 3.500000
2.502937 -20.037739 3.165100 8.000000
3.304394 -20.025379 3.181204 6.000000
3.955122 -20.029951 3.200096 5.000000
2.937763 -19.942671 3.159525 17.000000
3.036172 -19.957882 3.164171 21.500000
3.169888 -19.991096 3.172533 18.500000
4.169886 -19.960129 3.196070 3.000000
2.415621 -19.845442 3.133511 2.000000
2.762342 -19.830057 3.138156 10.500000
2.863828 -19.873575 3.147138 24.000000
3.763529 -19.879868 3.171294 15.000000
3.604434 -19.716530 3.141563 8.000000
4.004420 -19.788399 3.164481 36.000000
4.387827 -19.759558 3.172533 3.000000
7.430402 -19.018747 3.200405 25.000000
6.666673 -18.973310 3.152093 0.000000
-13.827792 -18.363434 3.191819 7.000000
-13.806440 -18.215704 3.173665 7.000000
-13.786695 -18.071444 3.156061 7.000000
8.595344 -18.036711 3.131653 11.000000
-14.077233 -17.805626 3.151660 7.500000
-13.900479 -17.810959 3.137082 24.000000
-13.773707 -17.879175 3.133781 14.000000
-14.193103 -17.779392 3.158812 3.000000
9.184711 -17.538902 3.103161 6.000000
9.487388 -17.444544 3.112452 1.000000
5.912029 -17.346626 3.201768 17.000000
8.348506 -16.314411 3.201768 3.000000
-13.068895 -12.749038 3.189721 13.500000
-13.056636 -12.617455 3.172166 12.000000
-13.420611 -12.410231 3.193507 5.000000
-13.298647 -12.414112 3.178362 4.500000
-13.164522 -12.444670 3.164938 16.500000
-13.051870 -12.494488 3.156677 14.000000
-12.706133 -10.049160 3.122807 13.500000
-12.696183 -9.944348 3.108800 14.000000
-13.037569 -9.756894 3.139085 0.000000
-12.864517 -9.722313 3.108421 0.000000
-12.506843 -8.557241 3.198452 14.000000
-12.495216 -8.463076 3.185235 15.000000
-12.482773 -8.397566 3.175322 15.000000
-12.472154 -8.277174 3.159352 16.666666
-12.442868 -8.117630 3.135672 15.500000
-12.424919 -7.967571 3.115296 15.333333
-12.239136 -6.603950 3.194369 20.000000
-12.222338 -6.471417 3.176609 19.000000
-12.206436 -6.340800 3.159446 20.000000
-12.192882 -6.236729 3.145716 20.000000
-12.180363 -6.158107 3.134971 19.500000
-12.158455 -6.027641 3.117062 21.000000
-12.154111 -5.930579 3.106317 20.000000
-11.976862 -4.676872 3.192192 23.000000
-19.759672 -4.583682 3.179346 0.000000
-11.953979 -4.517122 3.172674 24.000000
-11.932173 -4.359516 3.153960 24.666666
-11.912969 -4.225673 3.138217 26.333334
-17.346920 -4.139021 3.115717 5.000000
-11.898128 -4.115464 3.125688 24.500000
-11.883304 -4.026927 3.115086 26.000000
-11.875214 -3.941165 3.106411 27.500000
-12.206784 -3.442670 3.148819 0.000000
-12.044895 -3.458338 3.111230 24.000000
-12.090391 -3.368873 3.116049 0.000000
-11.764307 -1.561374 3.171670 0.000000
-11.759718 -1.379396 3.164441 0.000000
-13.655825 -1.161125 3.147955 2.500000
-11.709438 -1.162568 3.144818 0.000000
-11.718553 -0.977858 3.142752 0.000000
-10.695878 4.539057 3.105314 69.000000
-10.681960 4.642461 3.112802 66.333336
-10.662853 4.774244 3.122355 60.000000
-10.641465 4.926132 3.133974 75.000000
-10.621434 5.079877 3.146625 48.500000
-10.601806 5.235188 3.160051 43.500000
-10.585969 5.393875 3.175285 42.750000
-10.566574 5.531150 3.187506 42.333332
-10.548185 5.670191 3.200588 41.750000
-10.660259 6.883280 3.150426 0.000000
-10.640281 7.013372 3.163919 0.000000
-10.624992 7.186723 3.184674 0.000000
-10.429007 8.683043 3.117062 0.000000
-10.396312 8.794902 3.127807 0.000000
-10.393139 9.191843 3.186907 0.000000
-10.308806 9.321211 3.192280 8.500000
-10.114960 9.350176 3.163924 17.000000
-10.080089 9.465868 3.176162 19.000000
-10.067026 9.573344 3.190937 19.000000
-10.227962 10.621102 3.112130 0.000000
-10.133953 10.791512 3.124520 14.500000
-10.291036 10.855870 3.157149 4.000000
-10.022049 10.807611 3.110890 11.500000
-10.427750 10.931096 3.188539 2.000000
-9.884081 10.931294 3.110477 16.000000
-9.864212 11.083151 3.131542 15.666667
-14.446348 11.238083 3.197637 2.000000
-14.352027 11.237256 3.184558 2.000000
-14.209296 11.233831 3.164594 2.000000
-14.038465 11.242851 3.142221 2.000000
-13.907187 11.245751 3.124666 2.000000
-13.813725 11.242127 3.111587 2.000000
-11.629979 11.234862 3.117128 1.000000
-11.558012 11.235756 3.107285 1.000000
-9.848732 11.206626 3.148889 14.000000
-9.832125 11.402695 3.177800 5.000000
-9.809238 11.521879 3.193771 16.666666
-9.882272 13.291948 3.192842 6.000000
-9.711853 13.235461 3.164576 19.333334
-9.587769 13.240111 3.151200 15.000000
-9.566416 13.342612 3.164828 14.000000
-9.547047 13.493835 3.186406 13.500000
-9.326117 15.159388 3.109522 12.000000
-9.313933 15.300784 3.129485 13.000000
-9.315230 18.063389 3.185540 7.000000
-9.224228 18.025724 3.173772 4.000000
-9.116013 18.023113 3.165720 22.500000
-8.978783 18.032293 3.157358 15.000000
-8.938209 18.164843 3.173152 8.000000
-8.924441 18.281612 3.188637 7.000000
-8.619290 20.706522 3.114252 1.000000
-8.670784 21.300121 3.193195 1.500000
-8.542978 21.272770 3.183017 0.000000
2.271514 -31.230480 3.238095 9.000000
3.508744 -31.231926 3.250027 2.000000
5.507844 -31.204666 3.276771 2.000000
2.120266 -31.181334 3.231923 16.000000
3.598163 -31.145655 3.242209 2.000000
5.398235 -31.155172 3.269777 12.000000
5.595988 -31.132387 3.271011 10.000000
2.455843 -31.066860 3.222666 14.000000
5.885452 -31.058716 3.268954 48.000000
-7.564656 -30.914207 3.291172 11.000000
2.690024 -30.933678 3.210939 15.000000
-7.200229 -30.674250 3.258256 7.000000
5.594932 -30.574549 3.214231 41.000000
-6.316732 -30.315765 3.202299 4.000000
-8.744914 -25.702713 3.287872 1.000000
-8.656519 -25.707479 3.284986 53.000000
-8.583246 -25.757153 3.287872 53.000000
-5.961825 -25.761959 3.202273 24.000000
-7.395678 -25.639717 3.231607 6.000000
-6.450213 -25.660418 3.204196 7.000000
-7.275903 -25.525345 3.214295 8.000000
-9.724476 -25.399355 3.293642 9.000000
-7.511647 -25.440405 3.212371 6.000000
-7.430573 -25.460068 3.211890 7.000000
-9.895418 -25.367350 3.297490 25.000000
-9.573832 -25.363129 3.283063 45.500000
-7.661011 -25.358492 3.208043 1.000000
-7.726717 -25.288729 3.202273 2.000000
-10.258127 -25.124233 3.286429 6.000000
-10.645262 -24.945396 3.284505 7.000000
-10.001043 -24.941248 3.254209 29.000000
-10.400783 -24.803053 3.257094 9.000000
-10.321285 -24.831938 3.256613 15.000000
-14.467175 -23.053719 3.296047 10.000000
-14.439828 -22.850380 3.273445 11.000000
4.405260 -22.876204 3.234729 1.000000
-14.404952 -22.637390 3.249400 11.000000
5.910833 -22.562843 3.238580 10.000000
-14.379592 -22.441568 3.227760 10.000000
5.964415 -22.479061 3.229228 5.000000
6.420782 -22.480747 3.246282 3.000000
-14.350993 -22.242792 3.205639 5.000000
9.396781 -21.065931 3.202822 16.000000
9.500006 -21.030418 3.204197 4.500000
4.496325 -20.553057 3.297650 20.000000
4.127858 -20.073769 3.212174 56.000000
4.837536 -19.995985 3.224562 7.000000
5.398829 -19.843605 3.223323 0.000000
6.154704 -19.663736 3.229517 3.000000
7.165064 -19.600655 3.271016 5.000000
7.672486 -19.280109 3.252434 3.000000
-13.931970 -19.119514 3.284790 7.000000
7.550994 -19.149715 3.226420 49.000000
7.873461 -19.083542 3.235711 7.000000
-13.912294 -18.967030 3.266086 6.000000
7.871111 -18.909132 3.210316 1.000000
-13.887093 -18.808485 3.246282 7.000000
8.109667 -18.812359 3.210935 10.000000
-13.870483 -18.663010 3.228678 6.000000
-13.845980 -18.508303 3.209423 7.000000
6.037602 -17.899021 3.300210 39.000000
5.473813 -17.881701 3.267166 1.000000
5.905377 -17.752138 3.268543 20.666666
6.478734 -17.723139 3.296767 9.000000
6.279784 -17.694290 3.280246 18.000000
5.747447 -17.584339 3.232057 23.000000
6.062636 -17.517769 3.238597 12.000000
6.355962 -17.558153 3.262347 19.000000
6.874059 -17.594742 3.300210 1.000000
6.651919 -17.346937 3.245826 11.000000
7.171407 -17.381916 3.285064 2.000000
6.566605 -17.286713 3.230681 5.000000
8.145744 -16.820309 3.265101 51.000000
8.172619 -16.741520 3.254775 14.000000
8.226914 -16.719297 3.255463 6.000000
-13.519688 -16.089314 3.293934 9.000000
-13.503255 -15.916965 3.271636 8.000000
-13.802402 -15.710944 3.277830 4.000000
-13.597178 -15.724657 3.258319 20.000000
-13.483068 -15.742081 3.248718 17.000000
-13.700999 -15.694689 3.265442 10.000000
-13.174842 -13.514992 3.297456 10.000000
-13.161054 -13.374098 3.278181 13.000000
-13.142009 -13.271088 3.263036 11.000000
-13.130791 -13.176705 3.249956 11.000000
-13.116321 -13.079741 3.236188 15.000000
-13.104167 -12.985776 3.223108 12.000000
-13.088747 -12.889248 3.209340 12.000000
-13.045606 -10.689117 3.251141 0.000000
-12.673444 -9.056572 3.287664 0.000000
-12.548206 -8.878094 3.244297 15.000000
-12.529140 -8.717828 3.221581 15.666667
-12.323315 -7.209912 3.279437 19.000000
-12.305809 -7.070471 3.259886 17.500000
-12.284515 -6.930530 3.239738 18.666666
-12.265091 -6.767989 3.217651 18.000000
-12.083183 -5.432981 3.289217 22.000000
-12.062737 -5.287694 3.269940 21.666666
-12.048038 -5.168793 3.254840 22.000000
-12.035563 -5.074139 3.242792 23.500000
-12.016986 -4.955545 3.227211 22.666666
-11.995904 -4.815081 3.209219 23.333334
-17.881477 -4.207233 3.209340 0.000000
-11.841947 -3.521218 3.301800 17.000000
-11.904798 -2.387476 3.244998 0.000000
-11.858450 -2.262103 3.226408 0.000000
-11.806676 -2.126353 3.206211 23.333334
-10.529349 5.831771 3.216854 41.750000
-10.511389 5.973759 3.231227 41.666668
-10.494718 6.095856 3.243621 41.333332
-10.484005 6.178014 3.252227 43.000000
-10.469027 6.280563 3.262813 41.000000
-10.453419 6.428524 3.279768 41.333332
-10.434627 6.576235 3.296378 37.250000
-10.611328 7.346308 3.204239 0.000000
-10.576011 7.467881 3.214360 0.000000
-10.558481 7.645971 3.236527 0.000000
-10.538483 7.732792 3.245202 0.000000
-10.538361 7.817939 3.257732 0.000000
-10.533390 7.960524 3.277972 8.200000
-10.390523 7.981578 3.252913 31.000000
-10.377684 8.023678 3.256768 9.000000
-10.455786 8.202839 3.299417 0.000000
-10.498170 9.343672 3.228098 2.000000
-10.468765 9.376605 3.228098 4.000000
-10.062611 9.659819 3.203921 7.000000
-10.281759 9.932446 3.283616 0.000000
-15.680900 10.051505 3.254086 1.000000
-10.255215 10.032358 3.295256 0.000000
-15.677965 10.154226 3.263380 2.000000
-15.679385 10.330898 3.280475 2.000000
-15.680202 10.508905 3.297800 1.500000
-15.113755 11.232656 3.289883 0.000000
-14.967705 11.233913 3.269576 0.500000
-12.845522 11.253269 3.292027 2.000000
-12.682013 11.251652 3.268177 1.500000
-10.784572 11.234267 3.286839 1.000000
-9.785534 11.678552 3.215798 14.000000
-9.770594 11.810669 3.235210 14.500000
-9.763234 11.915609 3.251318 14.000000
-9.750095 12.014672 3.265774 14.000000
-9.743671 12.123015 3.282708 0.000000
-9.980164 13.292328 3.204199 3.500000
-9.528400 13.648560 3.208742 14.000000
-9.510408 13.806816 3.231834 14.500000
-11.374424 15.028746 3.292866 0.666667
-9.181059 16.508657 3.300210 18.000000
-8.906574 18.391365 3.202883 7.000000
-8.884544 18.568600 3.226420 7.500000
-8.861198 18.746016 3.249957 6.000000
-8.847561 18.870365 3.266680 6.000000
-8.824888 18.976902 3.280307 0.000000
-8.800505 21.330484 3.203922 0.000000
5.264940 -32.186314 3.372638 11.000000
6.508273 -32.132687 3.390331 21.000000
-7.205787 -32.052826 3.397326 6.000000
-7.279895 -31.913658 3.384982 8.000000
6.373857 -31.985189 3.372638 17.000000
-7.371150 -31.851866 3.380867 5.000000
-8.815685 -31.680960 3.400617 4.000000
-8.587269 -31.628206 3.389096 4.000000
-7.537046 -31.661711 3.365644 3.000000
4.965025 -31.597731 3.307630 40.000000
-7.608471 -31.521843 3.353301 5.000000
-8.217352 -31.434425 3.359884 9.000000
-6.969956 -31.465418 3.332728 4.000000
-6.861737 -31.444403 3.328202 5.000000
-6.757900 -31.442463 3.325733 7.000000
-8.046982 -31.182701 3.330259 3.000000
-8.191826 -30.939217 3.309687 4.000000
-7.889071 -30.972633 3.305161 3.000000
-8.111186 -26.848604 3.396554 39.000000
-8.362678 -26.767178 3.396073 30.000000
-8.238397 -26.762726 3.391104 38.666668
-9.023115 -26.249680 3.361449 14.000000
-7.315511 -26.289778 3.304703 5.000000
-11.232234 -25.430809 3.366738 51.000000
-11.137947 -25.433231 3.362410 47.000000
-11.064316 -25.482668 3.364334 32.000000
-11.876239 -25.158466 3.369143 6.000000
-10.802075 -25.094202 3.308550 1.000000
-14.571391 -23.881144 3.387897 5.000000
-14.548633 -23.676235 3.365296 5.000000
-14.528912 -23.478458 3.343655 12.000000
-14.489191 -23.250708 3.317687 12.000000
5.992689 -23.172014 3.323299 1.000000
4.747869 -21.067965 3.384985 4.000000
5.453920 -20.818712 3.373216 6.000000
5.533486 -20.854950 3.381888 3.000000
5.091301 -20.619404 3.328929 7.000000
5.206305 -20.666092 3.340388 5.000000
5.314927 -20.685320 3.347511 7.000000
7.536488 -20.221777 3.382507 5.000000
19.328228 -20.247051 3.389821 1.000000
7.137303 -20.110487 3.344724 37.000000
19.510263 -20.182308 3.399439 12.000000
6.979644 -20.065357 3.329859 0.000000
7.193776 -20.069366 3.341627 37.000000
-14.052233 -19.935078 3.386563 11.000000
19.393593 -19.935902 3.368181 39.000000
19.403345 -19.820965 3.359044 31.000000
19.788408 -19.836817 3.393188 13.000000
-14.016198 -19.751894 3.362908 6.000000
7.566852 -19.732906 3.312516 11.000000
19.498960 -19.793856 3.364815 12.000000
19.608574 -19.780441 3.372990 10.000000
-13.999882 -19.598150 3.344204 6.000000
19.757439 -19.558443 3.366738 11.000000
-13.973480 -19.431841 3.323299 6.000000
-13.960116 -19.285147 3.305695 6.000000
2.775174 -19.258360 3.399340 5.000000
3.183084 -19.103285 3.383506 17.000000
19.873081 -19.064260 3.334999 3.000000
3.406171 -18.968699 3.366985 3.000000
3.462204 -18.938522 3.363543 15.000000
6.309069 -17.955570 3.324992 6.000000
6.953872 -17.965340 3.365608 8.000000
7.579304 -17.890432 3.394521 44.000000
7.641644 -17.726667 3.372492 26.000000
7.506949 -17.565798 3.337383 7.000000
8.357337 -17.396330 3.371804 20.000000
8.668317 -17.340452 3.386948 3.000000
8.422962 -16.982828 3.311912 7.000000
9.150990 -16.700787 3.327057 0.000000
-13.594389 -16.597277 3.362686 7.000000
-13.578596 -16.472155 3.345963 7.000000
-13.564676 -16.350338 3.329859 8.000000
-13.537461 -16.213608 3.310658 7.000000
-13.262951 -14.128648 3.385571 8.500000
-13.242716 -13.974440 3.363543 15.000000
-13.218472 -13.817948 3.340825 9.000000
-13.204128 -13.673275 3.320862 12.000000
-16.858555 -13.554631 3.390559 2.000000
-16.757524 -13.560292 3.378791 2.000000
-16.620996 -13.565340 3.362686 1.666667
-16.452173 -13.571770 3.342866 2.000000
-16.336481 -13.562813 3.328001 1.000000
-16.189661 -13.555799 3.309625 1.000000
-12.959879 -11.867306 3.387426 12.500000
-12.942987 -11.740099 3.368497 12.000000
-12.930206 -11.654678 3.355626 13.000000
-12.914096 -11.566830 3.341998 13.000000
-12.905245 -11.449821 3.325719 13.000000
-13.230320 -11.228012 3.345026 4.500000
-13.036612 -11.240915 3.318274 12.333333
-12.894222 -11.296028 3.304520 14.500000
-13.319153 -11.195912 3.354112 2.000000
-12.691543 -9.876543 3.394224 13.000000
-12.725396 -9.775083 3.386790 14.333333
-12.428836 -7.942501 3.387936 15.500000
-12.405936 -7.818522 3.368236 16.500000
-12.391230 -7.674006 3.347790 17.000000
-12.372353 -7.528460 3.326597 17.000000
-12.349628 -7.382402 3.304808 18.333334
-12.189943 -6.162948 3.391222 19.000000
-12.168939 -6.032852 3.372106 20.666666
-12.147223 -5.880109 3.350580 20.000000
-12.126053 -5.729427 3.329697 20.666666
-12.105475 -5.580759 3.309457 21.000000
-16.787497 -4.666332 3.358806 3.600000
-16.848225 -4.538124 3.363576 4.750000
-16.879105 -4.362099 3.360674 5.000000
-11.934015 -4.338928 3.393718 24.000000
-16.904621 -4.227336 3.359033 5.000000
-11.915485 -4.226574 3.378915 25.333334
-16.936970 -4.131886 3.360674 4.000000
-11.895720 -4.065913 3.359808 25.000000
-11.874669 -3.920313 3.342079 26.666666
-11.853483 -3.769341 3.324264 26.250000
-11.836058 -3.620944 3.307997 27.666666
-12.232725 -3.449986 3.396816 1.000000
-12.062040 -3.442791 3.352407 4.000000
-11.988161 -3.482837 3.336399 26.000000
-13.652636 -1.139248 3.401342 1.000000
-10.666595 6.839947 3.386488 0.000000
-10.602921 7.036563 3.400948 0.000000
-10.418178 8.674005 3.365680 0.000000
-10.388896 8.901219 3.396523 0.000000
-10.245400 10.181203 3.317643 0.000000
-10.221241 10.318180 3.335999 0.000000
-10.199825 10.459561 3.355699 0.000000
-10.197376 10.600331 3.378533 1.333333
-15.669262 10.644878 3.309503 2.000000
-15.671854 10.791150 3.324304 1.500000
-10.110747 10.800797 3.398233 34.000000
-10.022648 10.808257 3.385697 13.500000
-9.907091 10.819319 3.369579 17.500000
-15.676443 10.940147 3.339793 1.000000
-9.887286 10.934849 3.386145 16.500000
-15.679783 11.089617 3.355282 1.500000
-9.873399 11.023417 3.399129 16.000000
-15.654634 11.220049 3.364920 1.500000
-15.509060 11.226685 3.344956 0.000000
-15.422758 11.238229 3.333941 1.000000
-15.269683 11.237143 3.312256 1.000000
-13.552441 11.247462 3.394997 2.000000
-13.465795 11.247178 3.382126 2.000000
-13.348103 11.256021 3.365848 2.000000
-13.177061 11.254217 3.340483 2.000000
-13.005095 11.249418 3.314741 2.000000
-11.481842 11.232080 3.390094 1.000000
-11.388259 11.234239 3.376327 1.000000
-11.241438 11.241362 3.355400 1.000000
-11.064048 11.239058 3.328691 1.000000
-10.890526 11.238081 3.302946 1.000000
-9.736252 14.472701 3.362440 6.000000
-9.644916 14.434634 3.346540 6.000000
-9.549717 14.438940 3.337076 18.000000
-9.441760 14.423022 3.323069 17.000000
-9.868415 14.520809 3.384397 5.000000
-9.414210 14.529993 3.337455 13.500000
-9.394644 14.701384 3.363197 13.500000
-9.375697 14.825152 3.381369 13.000000
-9.362494 14.907755 3.393483 13.000000
-12.088310 15.034825 3.370427 1.000000
-11.964582 15.025300 3.355626 1.000000
-11.810261 15.024298 3.338760 1.000000
-11.652830 15.017262 3.320862 1.000000
-11.505536 15.021360 3.305717 1.000000
8.442570 15.471934 3.397647 20.000000
8.525841 15.450907 3.401811 13.000000
-9.533312 16.585571 3.342202 5.500000
-9.406347 16.544712 3.324992 4.000000
-9.293526 16.526997 3.312601 19.500000
-9.140118 16.619076 3.313633 12.500000
-9.119185 16.767530 3.334630 12.000000
-9.102524 16.926580 3.357691 12.000000
-9.084694 17.085829 3.380753 11.000000
-9.071433 17.190950 3.395898 12.000000
-11.061396 18.431046 3.369190 1.000000
-10.913185 18.445759 3.359280 1.000000
-10.748289 18.430336 3.344105 1.000000
-10.150854 21.828239 3.342553 1.000000
-10.030534 21.837982 3.336777 1.000000
-9.893944 21.811083 3.325500 1.000000
5.056391 -32.851902 3.437236 3.000000
-6.237483 -28.158714 3.492733 2.000000
-6.143908 -28.154896 3.489847 12.000000
-10.768482 -26.374195 3.449933 30.000000
-10.672165 -26.374765 3.445605 14.000000
-10.476909 -26.367493 3.435987 1.000000
-11.648776 -25.823200 3.430697 7.000000
-11.915295 -25.657574 3.425888 7.000000
-11.709299 -25.634409 3.412904 5.000000
-11.786453 -25.590282 3.411942 8.000000
-14.703623 -24.793285 3.490809 10.000000
-14.663336 -24.549238 3.462917 10.000000
-14.638040 -24.332914 3.438872 5.000000
-14.609465 -24.113602 3.414347 7.000000
6.489431 -24.151426 3.472383 3.000000
-7.016112 -24.024351 3.475133 1.000000
-7.071341 -23.933798 3.465231 0.000000
-8.396185 -23.295515 3.438275 7.666667
-8.737439 -23.025684 3.419571 9.000000
18.216827 -22.359934 3.492733 43.000000
3.930804 -21.890343 3.485946 2.000000
18.716417 -21.645056 3.465322 34.000000
5.787661 -21.539679 3.495856 9.000000
18.727652 -21.430130 3.446567 6.000000
6.227738 -21.297209 3.477894 4.000000
18.852066 -21.368399 3.450895 26.000000
19.109430 -21.320259 3.467245 15.000000
4.707363 -21.198509 3.403566 3.000000
6.422459 -21.218657 3.474797 14.000000
6.756803 -21.197510 3.487185 1.000000
18.907661 -21.228956 3.442719 34.000000
19.237677 -21.193888 3.466283 7.000000
6.912527 -21.037037 3.470771 33.000000
7.167037 -21.028975 3.482229 3.000000
6.759241 -20.902073 3.443208 4.000000
7.043981 -20.991301 3.470461 18.000000
19.109491 -20.832378 3.423484 31.666666
19.377653 -20.882118 3.449933 17.500000
19.532909 -20.851425 3.460032 17.000000
-14.174754 -20.795000 3.494388 14.000000
8.316198 -20.708078 3.497714 0.000000
-14.145858 -20.613163 3.471282 10.000000
7.113416 -20.658865 3.424626 60.000000
8.363405 -20.637901 3.490282 1.000000
-14.122716 -20.441492 3.449827 11.000000
8.585359 -20.443735 3.475416 3.000000
9.213755 -20.311609 3.495856 2.000000
