# This PCD file was generated using the MATLAB® pcwrite function
# from Computer Vision Toolbox®.
# .PCD v.7 - Point Cloud Data file format
VERSION .7
FIELDS x y z intensity
SIZE 4 4 4 4
TYPE F F F F
COUNT 1 1 1 1
WIDTH 1213
HEIGHT 1
VIEWPOINT 0 0 0 1 0 0 0
POINTS 1213
DATA ascii
-12.180626 11.188895 3.490872 24.000000
-11.936197 13.035261 3.407111 15.500000
-11.926496 13.190123 3.427933 15.500000
-11.912706 13.342437 3.447997 11.500000
-16.123268 15.279033 3.481610 2.000000
-16.075191 15.329608 3.481610 1.000000
-11.714788 15.597048 3.407945 43.500000
-11.705880 15.739017 3.426876 44.000000
-11.696948 15.882854 3.446151 46.000000
-11.678011 16.067587 3.470245 41.000000
-11.668962 16.215183 3.490209 32.000000
-11.513102 18.453468 3.409141 26.000000
-11.502945 18.566807 3.423387 30.000000
-11.486499 18.737057 3.444756 35.000000
-11.472952 18.914289 3.467364 45.000000
-11.464450 19.034868 3.482849 43.000000
-11.459359 19.162361 3.499573 27.000000
-13.901736 24.441668 3.405210 1.000000
-13.822923 24.481768 3.404729 1.000000
-11.174886 26.596985 3.493694 5.000000
-11.079053 26.602638 3.489847 4.000000
-10.984823 26.611614 3.486481 3.000000
6.490393 -19.043617 3.514992 2.000000
-18.056746 -18.234097 3.563153 4.000000
-18.115238 -18.140503 3.559669 18.000000
-17.496084 -18.146187 3.500026 17.500000
-18.288673 -17.953381 3.558477 4.500000
-5.228735 -17.892464 3.593367 4.000000
-4.448385 -17.908064 3.557024 32.000000
4.940790 -17.949667 3.588824 22.000000
-4.143108 -17.874926 3.537086 6.333333
4.427555 -17.824203 3.540367 20.000000
4.842130 -17.809706 3.557781 13.000000
-5.610253 -17.739458 3.586553 1.000000
-4.303552 -17.680752 3.507811 13.500000
-4.221114 -17.704672 3.508568 16.000000
5.357331 -17.710810 3.566867 18.000000
5.483592 -17.725578 3.576710 1.000000
5.789388 -17.723131 3.594124 0.000000
-6.023455 -17.593044 3.584660 7.000000
4.253569 -17.676683 3.504782 11.333333
4.725041 -17.597231 3.512353 20.000000
-6.262951 -17.482124 3.579738 7.000000
-5.739384 -17.570057 3.563082 9.000000
-6.536776 -17.381594 3.579738 17.000000
-6.427434 -17.422323 3.579738 7.000000
6.113942 -17.409956 3.557024 2.000000
-6.774678 -17.349300 3.590338 3.000000
-6.679041 -17.264267 3.568381 5.000000
-6.114773 -17.238892 3.525982 30.000000
-6.362859 -17.081827 3.513868 4.000000
-6.534810 -17.050444 3.519925 4.000000
-7.673310 -16.923573 3.582010 0.000000
-8.196887 -16.599621 3.568760 9.000000
-3.535830 -16.677715 3.598258 11.000000
-8.454847 -16.529335 3.578981 4.000000
-3.451434 -16.535492 3.565216 10.000000
7.972997 -16.339830 3.504782 4.000000
-4.971291 -16.250210 3.586693 10.000000
-4.149012 -16.265356 3.542913 5.000000
8.119620 -16.249907 3.501753 10.000000
8.845049 -16.270235 3.569896 12.000000
-4.292300 -16.086376 3.514001 1.500000
-5.187710 -15.994610 3.548970 25.000000
-5.714102 -15.950092 3.575955 1.000000
5.192843 -15.896921 3.529696 21.000000
5.879073 -15.935921 3.585041 2.000000
-9.270429 -15.845381 3.538853 1.000000
5.934997 -15.781444 3.558608 27.000000
6.030233 -15.808125 3.570998 2.000000
7.055760 -15.179521 3.533000 3.000000
7.848057 -15.108150 3.593302 3.000000
-4.758347 -14.882959 3.588964 9.000000
-5.220878 -14.718803 3.587173 24.000000
5.509725 -14.650625 3.595232 10.000000
5.438612 -14.544740 3.566757 18.400000
-5.970693 -14.350731 3.570160 2.000000
-5.644827 -14.322893 3.536133 6.000000
-5.582786 -14.296980 3.525387 18.000000
-6.741748 -14.039658 3.577323 0.000000
-6.364754 -13.979257 3.528073 8.500000
6.742343 -14.003305 3.569861 7.333333
-6.263702 -13.930862 3.508373 4.000000
6.861722 -13.951008 3.571055 2.000000
-6.723200 -13.778603 3.521507 11.333333
-6.525162 -13.810328 3.508373 1.000000
-6.445558 -13.828950 3.504493 3.333333
6.869155 -13.856032 3.552251 0.000000
-5.723834 -13.284205 3.591215 4.000000
-5.754704 -13.241237 3.584469 4.000000
-5.839723 -13.097770 3.560373 4.000000
-5.920934 -12.950355 3.535314 19.000000
-5.834426 -12.939875 3.524069 2.666667
-11.044020 -12.646626 3.543739 6.000000
-7.184543 -12.549998 3.590252 16.000000
-6.887041 -12.574230 3.559409 1.000000
-13.833691 -12.429773 3.585038 15.500000
-7.402707 -12.295854 3.563265 41.000000
-7.192047 -12.292925 3.535956 62.000000
-13.833656 -12.273533 3.564974 14.000000
-7.297003 -12.250534 3.540133 47.500000
-13.822062 -12.147251 3.547182 13.000000
-13.813921 -12.025276 3.530524 16.000000
-13.796876 -11.858868 3.507053 14.000000
-7.344434 -11.219199 3.583750 3.000000
-7.744006 -10.981854 3.591323 57.000000
7.163811 -11.018668 3.512488 2.000000
7.554369 -11.004012 3.567225 0.000000
-7.531776 -10.897571 3.540373 1.000000
7.381299 -10.972117 3.534176 10.000000
7.697010 -10.951799 3.577553 2.500000
-7.948867 -10.832952 3.590979 55.000000
-7.449386 -10.851089 3.517652 52.000000
-7.643602 -10.696177 3.513520 14.000000
8.079716 -10.726038 3.588914 3.000000
-8.061975 -10.632827 3.566192 61.333332
7.945266 -10.478893 3.514553 33.000000
-13.684578 -10.174187 3.599084 12.000000
-13.677176 -10.068999 3.584628 12.000000
8.588922 -10.024405 3.527980 6.000000
-13.668926 -9.931109 3.566042 17.000000
-13.655249 -9.823138 3.550347 13.000000
-13.645567 -9.718960 3.535892 14.500000
9.014737 -9.690831 3.537275 12.000000
-13.676855 -9.644389 3.532174 0.000000
9.211300 -9.595375 3.554832 13.500000
9.192604 -9.575915 3.547602 16.000000
9.282217 -9.548450 3.558963 46.000000
9.329149 -9.491703 3.556897 33.000000
9.366006 -9.395474 3.545537 4.000000
9.472280 -9.266230 3.541406 8.000000
9.562807 -9.122463 3.532111 3.000000
-13.507705 -7.931296 3.597919 16.000000
-13.510033 -7.818932 3.585382 18.000000
-13.491889 -7.667664 3.564488 14.000000
-13.489993 -7.554763 3.551355 24.000000
-13.477673 -7.464675 3.538819 14.000000
-13.466133 -7.348099 3.523596 14.000000
-13.458076 -7.207177 3.506583 18.666666
-13.321568 -5.542557 3.582220 27.000000
-13.313247 -5.392464 3.566156 26.000000
-13.300029 -5.290036 3.553626 27.000000
-13.297683 -5.216678 3.546398 29.000000
-13.292892 -5.094732 3.534350 27.666666
19.824245 -5.053137 3.574194 1.000000
-13.282110 -4.947544 3.518929 28.333334
19.836357 -4.956748 3.572129 41.500000
-13.266090 -4.799691 3.502543 28.000000
19.816011 -4.808687 3.562491 37.666668
19.885281 -4.671373 3.568687 7.000000
19.934406 -4.616882 3.574883 24.000000
-13.605110 -4.515242 3.558927 0.500000
-13.456775 -4.536549 3.525675 11.000000
19.806677 -4.521784 3.549412 37.000000
19.840008 -4.463863 3.552854 32.000000
-13.121451 -2.846592 3.588397 35.750000
-13.107207 -2.692928 3.576176 37.666668
-13.101665 -2.563345 3.567914 39.666668
-13.124597 -2.460904 3.568774 21.500000
-13.323833 -1.960385 3.599241 0.000000
-13.294149 -1.821151 3.586159 0.333333
-13.285761 -1.657171 3.578242 0.000000
-13.281211 -1.487385 3.571701 0.000000
-13.266000 -1.401334 3.565160 0.000000
-13.197297 -1.352170 3.545537 0.000000
-13.100708 0.948257 3.510422 0.500000
-13.093355 1.092579 3.511455 0.000000
-13.084860 1.029792 3.507840 0.500000
-13.097779 1.175857 3.514553 0.000000
-13.070815 1.201043 3.508013 0.000000
-13.036671 1.345983 3.502676 0.500000
-12.971384 2.131149 3.513176 0.666667
-12.973198 2.232787 3.518168 0.250000
-12.980176 2.391676 3.527463 0.000000
-12.961418 2.557032 3.530820 0.000000
-12.938178 2.658182 3.530045 0.000000
-12.955746 2.725473 3.538307 0.000000
-12.940020 2.871079 3.542439 0.000000
-12.931244 2.997313 3.547602 0.000000
-12.943785 3.129040 3.558963 0.000000
-12.884277 3.157495 3.545330 16.000000
-12.648737 3.438978 3.503193 44.333332
-12.656710 3.548143 3.513004 20.500000
-12.746717 3.724980 3.549151 0.000000
-12.720407 3.979018 3.562061 0.000000
-12.734791 4.248650 3.587881 0.000000
-12.744426 4.341035 3.598209 0.000000
-12.602316 4.403358 3.567742 27.500000
-12.561844 4.500281 3.566192 39.000000
-12.552318 4.653260 3.577811 36.250000
-12.542839 4.807233 3.589946 37.333332
-12.399055 6.740602 3.503829 28.000000
-12.390397 6.887964 3.519571 29.333334
-12.377810 7.034483 3.534671 27.666666
-12.364777 7.156105 3.546879 29.000000
-12.361099 7.231929 3.555554 28.000000
-12.353190 7.331919 3.566477 26.333334
-12.345655 7.459163 3.581095 26.500000
-12.341872 7.536465 3.590252 27.000000
-12.217454 9.143232 3.505090 22.333334
-12.204085 9.313945 3.526283 21.000000
-12.197835 9.430958 3.541505 20.000000
-12.189680 9.485994 3.547773 22.000000
-12.196650 9.553087 3.558519 21.000000
-12.183573 9.635858 3.567921 20.000000
-12.176033 9.754873 3.583591 19.500000
-12.175425 9.848913 3.597023 1.000000
-12.401820 11.178415 3.523914 3.000000
-14.186498 12.001262 3.582010 0.000000
-14.133775 12.033036 3.578224 2.000000
-12.078117 13.977792 3.561062 13.333333
-11.936627 13.975931 3.543017 15.000000
-11.846518 14.003584 3.535825 37.000000
-11.825213 14.067788 3.542639 30.000000
-11.818725 14.150089 3.553996 30.000000
-11.809452 14.275240 3.571410 31.000000
-11.799350 14.400600 3.588824 33.000000
-11.655231 16.358257 3.509140 26.500000
-11.647360 16.511187 3.530136 25.000000
-11.640658 16.612232 3.543905 25.000000
-11.631178 16.710171 3.556984 25.000000
-11.623444 16.811447 3.570752 25.000000
-11.612950 16.909597 3.583832 24.000000
-11.447319 19.348808 3.523729 26.500000
-11.431948 19.532125 3.547266 25.000000
-11.424140 19.660194 3.563989 23.000000
-11.415639 19.788406 3.580713 22.000000
-11.393367 19.942419 3.599914 15.333333
-11.619715 22.706919 3.541698 7.000000
-11.521419 22.690317 3.533446 7.000000
-11.376181 22.668179 3.521619 28.500000
-11.241927 22.666567 3.513092 16.000000
-11.226631 22.815533 3.530696 7.000000
-11.215735 22.975302 3.549950 8.000000
-11.349096 26.659079 3.508842 1.500000
5.377464 -18.401417 3.695580 18.000000
-5.046040 -18.220070 3.644474 13.500000
-4.958570 -18.237986 3.643338 8.000000
-4.825760 -18.200445 3.629709 4.000000
-4.875785 -18.158642 3.624409 3.000000
6.640867 -18.000854 3.698609 4.000000
6.800463 -17.911764 3.693309 0.000000
-6.250587 -17.799067 3.636523 1.000000
-5.931707 -17.779552 3.613052 7.000000
-5.879514 -17.809288 3.615324 4.000000
-5.974987 -17.723610 3.605481 1.000000
-7.175630 -17.557058 3.656209 9.000000
-6.925639 -17.572760 3.641066 3.000000
-6.387507 -17.568680 3.603588 1.500000
-7.460032 -17.388952 3.647502 11.500000
-7.178346 -17.407343 3.629709 1.000000
-4.006507 -17.041691 3.694905 10.000000
-4.648045 -16.886124 3.696558 19.000000
-4.436474 -16.946983 3.697383 4.000000
-3.833970 -16.780369 3.632952 1.000000
-3.673981 -16.808111 3.631300 2.000000
-4.789165 -16.679735 3.662689 19.000000
5.340261 -16.523912 3.665168 14.000000
5.704253 -16.575754 3.699862 3.000000
-9.728636 -16.391409 3.674380 2.000000
-9.845616 -16.353512 3.679680 7.000000
-9.555023 -16.331768 3.647502 9.500000
-5.972540 -16.189280 3.642038 23.000000
-5.749009 -16.207724 3.629648 3.000000
-6.164299 -16.083715 3.635430 1.000000
5.901505 -16.152822 3.629648 22.000000
-6.556459 -16.042093 3.657733 3.000000
-6.196440 -16.016819 3.624691 9.000000
-3.222210 -15.683484 3.677614 0.000000
-3.102311 -15.725504 3.681643 3.500000
7.699952 -15.717643 3.694079 8.500000
-3.926749 -15.598474 3.694627 16.000000
-3.154381 -15.601823 3.656123 26.000000
7.212857 -15.645895 3.636256 1.000000
7.430774 -15.599956 3.646995 0.000000
7.786468 -15.583163 3.676732 22.000000
-4.124448 -15.555435 3.696418 14.000000
7.442475 -15.498916 3.628822 7.000000
7.683583 -15.498847 3.651125 5.000000
-4.660565 -15.407377 3.697314 5.000000
-4.341818 -15.394929 3.674032 4.000000
-4.167688 -15.424787 3.670002 14.000000
7.463843 -15.419096 3.615605 15.000000
-4.276689 -15.348406 3.659705 0.000000
7.717438 -15.324426 3.621387 3.000000
-8.546312 -15.260537 3.691601 4.000000
-4.714765 -15.156256 3.645825 8.000000
8.004025 -15.116924 3.610236 4.000000
8.181224 -15.139728 3.632126 13.200000
8.310246 -15.116236 3.640799 16.500000
-4.756237 -15.039082 3.622991 6.000000
-4.588058 -14.997498 3.602396 23.000000
-5.142816 -14.944299 3.630155 12.000000
-5.879982 -14.783255 3.654332 5.000000
-5.193864 -14.864683 3.616723 4.000000
5.761182 -14.685553 3.623439 3.500000
5.892051 -14.679020 3.633140 10.666667
6.008726 -14.701920 3.648064 4.000000
6.303276 -14.629018 3.658809 4.000000
-6.211347 -14.541194 3.631946 3.000000
6.249755 -14.380316 3.601500 11.000000
6.312617 -14.359911 3.602993 19.666666
7.147894 -14.305178 3.673136 4.000000
7.238979 -14.225755 3.666271 9.000000
-7.753472 -13.981676 3.672241 14.333333
-7.880607 -13.968715 3.683882 19.000000
-5.760650 -13.724157 3.695309 14.000000
-5.653588 -13.709836 3.681815 3.000000
-5.725710 -13.462855 3.632178 8.000000
-6.135497 -13.308922 3.638443 8.000000
-13.895995 -13.172986 3.691037 14.000000
-13.880562 -13.034781 3.670595 15.500000
-13.867110 -12.899654 3.650909 14.000000
-13.861261 -12.772966 3.633495 14.000000
-9.784443 -12.737521 3.689255 51.000000
-13.852642 -12.604996 3.610403 14.000000
-10.278857 -12.306462 3.682986 3.000000
-10.364203 -12.096395 3.658809 41.000000
-10.408508 -11.918895 3.634632 10.000000
-10.302867 -11.948627 3.623887 7.000000
-10.197262 -11.977507 3.613141 18.000000
-8.611351 -11.891746 3.645190 10.000000
-8.537100 -11.906946 3.637479 35.000000
-7.173201 -11.719376 3.672225 14.666667
-10.955712 -11.412544 3.633737 24.000000
-7.243062 -11.413252 3.612668 7.000000
-7.666852 -11.268806 3.642618 36.000000
-9.718836 -11.129144 3.668322 12.000000
-9.427427 -11.108503 3.617239 8.000000
-8.122910 -10.997540 3.653979 29.000000
-8.060479 -11.057729 3.657077 1.000000
-7.693985 -11.057837 3.600274 49.000000
-9.795754 -10.936735 3.645190 1.000000
-9.769094 -10.976153 3.648081 10.000000
-8.152486 -10.893689 3.636421 57.000000
-13.723438 -10.783816 3.683754 15.000000
-8.055968 -10.835516 3.608536 61.000000
-8.561713 -10.686711 3.659659 36.000000
-13.712062 -10.636212 3.662689 17.000000
-13.704038 -10.492748 3.642864 15.000000
-8.679955 -10.525798 3.646233 12.500000
-13.690077 -10.346258 3.621800 16.000000
-8.678066 -10.323809 3.604405 13.000000
8.993651 -10.364265 3.667405 6.000000
-13.693285 -10.247611 3.609823 20.000000
-9.264922 -10.022738 3.647782 1.000000
9.414865 -10.057424 3.681864 1.000000
9.872642 -9.597371 3.679798 1.000000
-13.561000 -8.635985 3.692836 17.000000
-13.550391 -8.539782 3.678957 18.000000
-13.544179 -8.417437 3.662839 17.500000
-13.529418 -8.261714 3.641199 19.000000
-13.531944 -8.089172 3.621200 17.000000
19.332830 -7.897455 3.648542 9.000000
19.375809 -7.844073 3.651984 22.000000
19.553949 -7.844785 3.680897 26.000000
19.261902 -7.587464 3.616875 39.000000
19.267290 -7.519751 3.613433 27.000000
19.401073 -7.501815 3.634085 23.000000
19.539925 -7.414717 3.651296 8.000000
19.404522 -7.293682 3.621694 42.000000
19.386721 -7.217561 3.614122 46.000000
19.479544 -7.182519 3.627201 21.000000
19.809757 -7.092922 3.676078 23.000000
19.799362 -6.740253 3.654049 36.000000
19.667341 -6.626436 3.625825 6.000000
-13.392885 -6.431175 3.688562 23.000000
-13.391043 -6.430360 3.688080 23.000000
-13.379734 -6.296037 3.671213 23.000000
-13.375843 -6.166402 3.656756 25.000000
-13.355469 -6.005044 3.635551 23.333334
-13.345100 -5.849816 3.617560 25.000000
-13.335378 -5.696336 3.600211 25.666666
-13.158682 -3.400616 3.632290 30.000000
-13.153505 -3.311285 3.625061 32.333332
-13.142107 -3.155193 3.612151 33.750000
-13.132724 -3.000588 3.600274 34.666668
-13.438313 -2.410667 3.648815 0.000000
-13.319112 -2.403616 3.617143 19.333334
-13.338344 -2.252407 3.615250 0.000000
-13.323264 -2.097353 3.604612 0.000000
-12.818421 4.411235 3.622995 0.000000
-12.532924 4.939411 3.600274 35.333332
-12.518083 5.093300 3.611893 36.000000
-12.504421 5.248703 3.624372 34.000000
-12.496986 5.384669 3.636766 34.333332
-12.485241 5.543204 3.650880 33.500000
-12.472791 5.702628 3.665339 32.000000
-12.463981 5.841243 3.678766 30.333334
-12.454821 5.980761 3.692536 31.666666
-12.332714 7.637726 3.601496 26.333334
-12.317055 7.789586 3.618203 25.333334
-12.307230 7.946744 3.637158 25.333334
-12.296617 8.105109 3.656434 25.000000
-12.284104 8.263978 3.675711 23.333334
-12.277605 8.400381 3.693381 23.500000
-12.233768 12.505810 3.692427 3.000000
-12.095739 12.481760 3.668472 14.500000
-11.985267 12.485029 3.652777 17.000000
-11.972103 12.589597 3.666820 16.000000
-11.957075 12.733034 3.686645 15.500000
-11.794415 14.533827 3.608131 49.500000
-11.782681 14.707266 3.632738 70.000000
-11.765568 14.876509 3.656209 60.500000
-11.753510 15.005987 3.674380 37.000000
-11.756968 15.107930 3.690280 69.000000
-17.761580 15.407275 3.685390 2.000000
-17.620798 15.382441 3.666189 3.000000
-11.607293 17.073307 3.606894 24.500000
-11.598268 17.234047 3.629267 25.000000
-11.588945 17.396744 3.651984 25.500000
-11.574150 17.553120 3.673325 25.000000
-11.564283 17.658617 3.687781 60.000000
-11.144219 24.162586 3.694633 13.000000
-18.682016 -19.838741 3.783753 6.000000
-18.135273 -19.687389 3.716638 4.500000
-19.229660 -19.055929 3.758997 1.000000
4.675634 -18.822906 3.738737 1.000000
4.814131 -18.749416 3.731544 10.500000
4.695434 -18.651962 3.707694 0.000000
5.368670 -18.588026 3.729651 2.000000
5.455291 -18.452230 3.709209 1.000000
6.199583 -18.389826 3.741008 0.000000
7.045057 -18.381762 3.794765 1.000000
7.391749 -18.249350 3.795522 2.000000
6.251101 -18.164814 3.703151 1.000000
-7.492500 -18.008436 3.759937 4.000000
-7.495222 -17.804321 3.723847 21.666666
8.212049 -17.522886 3.730408 5.000000
4.264427 -17.283474 3.757272 3.500000
4.798889 -17.118380 3.752316 3.000000
-4.754241 -16.993376 3.724368 26.666666
5.008769 -16.941891 3.728773 5.000000
-6.433876 -16.787142 3.794444 9.000000
5.349112 -16.730728 3.707296 3.000000
-6.051946 -16.645748 3.738273 3.500000
-6.146327 -16.500523 3.716383 0.000000
6.595656 -16.283890 3.708122 32.000000
6.905105 -16.235916 3.723817 20.000000
7.092813 -16.043625 3.702340 14.000000
7.190266 -15.991605 3.700688 9.000000
-4.117025 -15.726714 3.734027 35.000000
-4.023910 -15.638091 3.708954 12.333333
-8.821980 -15.410283 3.747772 18.000000
-8.862530 -15.368929 3.744468 14.000000
-8.673732 -15.299528 3.711977 11.666667
6.802417 -15.002850 3.783724 3.500000
6.910472 -14.989971 3.791336 1.000000
3.864514 -14.715075 3.777234 16.750000
-7.233286 -14.419356 3.705373 10.500000
-6.795182 -13.599292 3.774342 49.000000
-6.738733 -13.646816 3.778680 61.000000
-8.865496 -13.542740 3.717909 38.000000
-7.174869 -13.499651 3.795547 4.000000
-6.881082 -13.557426 3.774664 42.000000
-9.107728 -13.447005 3.730445 7.000000
-8.971377 -13.457067 3.714924 18.000000
-13.909288 -13.352519 3.716780 14.000000
-13.900013 -13.259954 3.703151 13.000000
-10.024715 -12.965789 3.764472 2.000000
-7.896597 -12.931630 3.761813 37.000000
-7.833794 -12.919857 3.751210 37.000000
-6.903980 -12.419301 3.797535 1.000000
-7.040315 -12.297937 3.787208 47.500000
-7.282742 -12.183046 3.793404 24.000000
-6.992299 -12.214187 3.761388 59.000000
-6.886664 -12.251876 3.756224 54.500000
-7.271151 -12.077339 3.767585 17.000000
-9.105089 -11.878834 3.715870 39.666668
-9.037294 -11.919147 3.713621 4.000000
-7.214889 -11.899130 3.719044 2.000000
-13.785914 -11.551422 3.796096 13.500000
-13.778299 -11.398474 3.774206 14.500000
-13.761750 -11.239870 3.750250 15.000000
-13.743743 -11.081942 3.726295 15.000000
-10.456244 -11.064869 3.779644 34.500000
-13.738083 -10.935646 3.706057 17.000000
-8.762123 -10.785701 3.713880 4.666667
-13.622679 -9.320721 3.791336 16.500000
-13.603761 -9.151805 3.765965 15.000000
-13.588568 -8.987303 3.742086 16.500000
-13.577840 -8.858068 3.723729 17.500000
-13.567663 -8.730389 3.705820 17.500000
19.746975 -8.725926 3.771766 21.000000
19.767073 -8.660686 3.770390 21.000000
19.809467 -8.568172 3.770734 4.000000
19.804331 -8.455436 3.762129 5.000000
19.965059 -8.450001 3.787600 10.000000
19.628157 -8.234799 3.718759 50.000000
19.659452 -8.139158 3.717382 36.000000
19.875086 -7.901222 3.736658 35.000000
-13.465561 -7.211170 3.792334 18.000000
-13.450377 -7.040739 3.769202 16.000000
-13.430485 -6.896433 3.748319 21.000000
-13.422933 -6.759912 3.731292 22.666666
-13.407085 -6.594269 3.709445 22.000000
-18.554520 -6.190259 3.770537 1.000000
-18.727234 -6.139111 3.799056 8.333333
-18.741758 -5.992100 3.792998 8.000000
-18.750156 -5.832858 3.785301 8.000000
-18.760130 -5.706928 3.780001 8.000000
-18.767294 -5.548464 3.772556 8.000000
-18.762508 -5.387185 3.762965 6.500000
-18.739262 -5.253274 3.751608 5.000000
-13.285275 -4.948736 3.788929 28.000000
-13.270766 -4.801383 3.771716 27.333334
-13.257097 -4.655595 3.755191 29.666666
-13.461082 -4.538002 3.796503 10.000000
-13.304279 -4.555004 3.758290 18.500000
-15.836530 4.736129 3.796709 0.000000
-15.649924 4.733932 3.755518 0.000000
-15.538048 4.753427 3.732236 0.000000
-15.442863 4.804018 3.714775 0.500000
-15.440520 4.883197 3.719700 0.000000
-14.391169 4.851553 3.770487 0.000000
-12.441676 6.143730 3.708458 29.750000
-12.431710 6.309745 3.725929 30.333334
-12.418558 6.450975 3.740044 29.333334
-12.406121 6.593719 3.754847 29.000000
-12.397748 6.739882 3.771372 28.000000
-12.388841 6.887099 3.788240 28.666666
-12.263255 8.532773 3.709124 24.000000
-12.254045 8.698908 3.730970 23.333334
-12.240684 8.864115 3.752174 21.666666
-12.227013 9.001390 3.769523 22.000000
-12.219086 9.144458 3.789121 21.333334
-12.402999 12.520450 3.719687 3.000000
-12.338896 12.534250 3.712252 5.000000
-11.950010 12.886837 3.709361 16.000000
-11.937519 13.036720 3.730838 15.500000
-11.928877 13.192746 3.753968 15.000000
-11.918335 13.334671 3.774756 14.000000
-11.747889 15.194505 3.702394 70.000000
-11.743160 15.287406 3.716023 70.000000
-18.002094 15.418771 3.715121 2.000000
-17.881731 15.413324 3.700256 2.000000
-11.730385 15.420736 3.734951 70.500000
-18.397730 15.459422 3.766531 0.000000
-11.713436 15.600932 3.760694 48.000000
-11.703122 15.741046 3.781137 70.000000
-11.558159 17.770836 3.703614 52.000000
-11.549311 17.879873 3.718759 25.000000
-11.544148 17.995665 3.735281 26.000000
-11.530942 18.162987 3.758687 25.500000
-11.516568 18.330547 3.782092 40.000000
-11.506899 18.443525 3.797926 58.000000
-19.733253 18.936743 3.797506 1.000000
-11.623380 21.212948 3.791307 0.000000
-11.510513 21.323816 3.798120 42.000000
-11.436005 21.345936 3.795642 14.000000
-11.527080 24.188738 3.720489 6.000000
-11.378393 24.169258 3.709211 15.000000
-11.236774 24.163385 3.700134 16.000000
-11.112757 24.294756 3.709486 5.000000
-11.717958 24.391682 3.757347 0.000000
-11.103476 24.477484 3.732041 4.000000
-11.091543 24.656773 3.754046 4.000000
-11.078580 24.836233 3.776051 4.000000
-11.069417 25.026718 3.799706 3.000000
6.902126 30.112013 3.741194 22.333334
6.777951 30.149740 3.742316 14.000000
-19.438997 -20.129669 3.885526 5.000000
-18.970348 -19.893005 3.816760 6.000000
-18.880507 -19.923746 3.811259 25.000000
5.866796 -19.177462 3.865936 5.000000
-19.681282 -19.019270 3.800256 9.000000
5.179090 -19.049070 3.805365 2.000000
-7.356670 -18.411612 3.822022 10.000000
-8.062646 -18.083508 3.816722 3.000000
-8.542137 -18.042446 3.848143 5.500000
-8.150995 -18.052452 3.818236 8.500000
8.266227 -17.930828 3.806122 2.000000
-8.568954 -17.844805 3.815965 15.000000
-17.592350 -17.543287 3.894126 14.000000
-5.778935 -17.504631 3.890678 44.000000
-17.671124 -17.401867 3.887313 3.500000
5.937344 -17.430868 3.886548 11.000000
-17.817076 -17.326345 3.895365 20.000000
-6.084503 -17.326128 3.875809 2.000000
-17.471338 -17.205040 3.843336 14.000000
-6.366737 -17.257795 3.882418 4.000000
6.799862 -17.095985 3.883244 5.000000
-6.417183 -17.063593 3.847724 13.000000
6.792306 -16.921989 3.848550 5.000000
6.941042 -16.831896 3.842768 5.000000
7.048179 -16.791559 3.843594 24.000000
-7.671648 -16.641090 3.867549 0.000000
-3.153691 -16.674482 3.897894 6.000000
7.730486 -16.631104 3.870853 16.000000
-7.780417 -16.534275 3.856810 3.000000
-3.077067 -16.553993 3.867449 1.000000
-3.955802 -16.251915 3.841929 18.000000
-5.215095 -16.136608 3.895208 20.000000
-4.002722 -16.113937 3.813722 7.000000
5.153935 -16.033421 3.868345 2.000000
5.445285 -15.986279 3.879090 27.000000
5.499538 -15.819186 3.846854 1.000000
5.549209 -15.801831 3.846854 7.000000
5.744308 -15.877137 3.878194 19.000000
5.689810 -15.573397 3.808349 11.000000
6.858007 -15.125409 3.814617 3.000000
-5.495004 -14.681427 3.891929 9.500000
-4.766453 -14.695976 3.835706 0.666667
-4.668407 -14.761367 3.843738 5.000000
-5.574024 -14.543587 3.866870 14.000000
5.662471 -14.501042 3.864942 22.000000
5.594474 -14.460831 3.849521 9.000000
5.689492 -14.436231 3.852412 4.000000
5.720469 -14.382212 3.842774 14.000000
5.771373 -14.248834 3.816751 1.000000
-6.552007 -14.095757 3.859159 14.000000
-6.598513 -13.965666 3.834822 10.000000
-7.171990 -13.806623 3.862693 10.000000
-6.734807 -13.802289 3.812896 28.000000
-7.212115 -13.673211 3.837955 18.000000
-7.327740 -13.479180 3.809040 0.000000
-10.477706 -13.120499 3.856704 1.000000
-10.550131 -13.042281 3.853122 22.000000
-10.365010 -12.896081 3.800290 53.000000
-7.173717 -12.350456 3.817158 2.000000
-13.837616 -12.238182 3.898939 13.000000
-11.195282 -12.187576 3.801186 1.000000
-13.831802 -12.117395 3.881179 16.000000
-13.819320 -11.991796 3.861767 13.000000
-13.810333 -11.870436 3.843594 13.000000
-13.801088 -11.712523 3.820464 17.000000
-10.148141 -11.769185 3.858195 8.000000
-10.523916 -11.529198 3.875544 6.000000
-10.837555 -11.218698 3.872653 25.000000
-10.848392 -11.159542 3.863978 42.000000
-10.614111 -11.126457 3.817714 9.000000
-9.710488 -10.615708 3.845043 19.333334
-9.526336 -10.568934 3.802699 17.000000
-13.672282 -9.933548 3.881776 17.500000
-13.653639 -9.789516 3.858942 12.000000
-13.653563 -9.692327 3.845958 18.000000
19.950766 -9.003918 3.824085 17.000000
19.975000 -8.901800 3.820643 28.000000
-13.514435 -7.963863 3.894499 14.333333
-13.508169 -7.789613 3.871367 16.333334
-13.497304 -7.670649 3.854340 14.000000
-13.490904 -7.611043 3.845665 14.000000
-13.487480 -7.497877 3.831208 17.666666
-13.471031 -7.350779 3.810004 14.000000
-13.353613 -5.853542 3.896682 25.000000
-13.341850 -5.699096 3.877404 25.000000
-13.330748 -5.546381 3.858814 26.000000
-13.321540 -5.395832 3.841256 26.000000
-13.309486 -5.245479 3.823355 27.333334
-13.296988 -5.096301 3.805798 26.000000
-13.612511 -4.517698 3.833166 0.500000
-16.303690 4.708905 3.897894 0.000000
-16.150366 4.719638 3.864763 0.000000
-16.004612 4.731666 3.833422 0.000000
-14.816705 4.788525 3.865906 0.000000
-14.701952 4.802499 3.839883 0.000000
-14.546708 4.802413 3.803257 0.000000
-12.380500 7.036007 3.805798 27.000000
-12.365986 7.182789 3.821978 28.333334
-12.354236 7.332544 3.839535 26.666666
-12.347019 7.459983 3.855371 26.500000
-12.338140 7.534186 3.863633 25.000000
-12.335386 7.639390 3.877748 25.666666
-12.322721 7.793169 3.896682 25.666666
-12.204371 9.314162 3.811610 21.666666
-12.193260 9.458101 3.831208 22.000000
-12.194432 9.551351 3.845665 21.000000
-12.182753 9.635205 3.856267 19.500000
-12.176502 9.755259 3.873616 18.500000
-12.175706 9.849141 3.888074 0.000000
-12.393899 11.171276 3.832526 3.000000
-12.251738 11.148184 3.804768 30.500000
-12.187577 11.195281 3.801186 17.000000
-12.077131 13.976646 3.898664 13.333333
-11.973484 13.974640 3.884070 16.000000
-11.865702 13.981651 3.870440 27.500000
-11.827852 14.115959 3.886961 52.000000
-16.133812 15.289024 3.883288 3.000000
-16.082851 15.336913 3.882599 0.000000
-19.152912 15.487597 3.860679 1.000000
-11.688128 15.876696 3.800444 30.000000
-11.681499 16.025209 3.822779 28.000000
-11.670156 16.169266 3.843979 28.000000
-11.654918 16.363842 3.872750 45.500000
-11.647903 16.518076 3.896221 68.000000
-11.498710 18.559973 3.814447 60.000000
-11.484150 18.733223 3.838886 60.000000
-11.474492 18.916828 3.865389 60.000000
-19.702169 19.026161 3.803007 1.000000
-19.650826 19.096241 3.804657 0.000000
-11.463800 19.033789 3.881911 60.000000
-19.644552 19.210520 3.815110 1.000000
-19.671650 19.358286 3.832164 1.000000
-19.638884 19.447874 3.837665 1.000000
-19.625458 19.618603 3.853068 0.500000
-11.601988 21.332682 3.806172 7.000000
-13.750910 24.453735 3.895428 0.500000
-13.606628 24.466370 3.887176 1.000000
-13.508630 24.470844 3.881125 0.000000
-13.022148 24.491104 3.851418 2.000000
-12.886333 24.513573 3.845367 1.500000
-12.640735 24.511953 3.829413 1.000000
-12.746905 24.528370 3.838215 1.000000
-11.057577 25.213760 3.822812 3.000000
-11.046236 25.404613 3.846467 3.000000
-19.719540 -20.678633 3.967494 6.000000
8.060129 -18.706427 3.926507 15.000000
8.139532 -18.648418 3.922342 2.000000
8.396688 -18.518988 3.919692 0.000000
-5.222283 -18.188210 3.993934 1.000000
-4.468771 -18.234795 3.962544 6.000000
4.107084 -18.239420 3.946023 14.000000
4.576569 -18.179787 3.956762 27.000000
4.655910 -18.252544 3.975761 21.000000
5.099484 -18.190504 3.987326 8.500000
4.211884 -18.171314 3.936937 21.000000
4.328699 -18.155912 3.939415 0.000000
5.244310 -18.157454 3.988978 17.000000
-4.896853 -18.010986 3.939415 2.000000
4.250142 -18.077984 3.919590 3.000000
4.359963 -18.035707 3.916286 13.000000
5.760307 -18.016848 3.992282 11.000000
5.814470 -17.991215 3.990630 11.000000
-5.840580 -17.879850 3.969979 2.000000
-4.645659 -17.976366 3.918764 8.000000
6.048844 -17.942688 3.996412 3.000000
-5.706672 -17.849092 3.955110 2.000000
-17.584566 -17.646055 3.904656 8.000000
-5.560090 -17.645119 3.904721 26.333334
6.058301 -17.604568 3.929502 26.000000
6.123859 -17.615021 3.936111 9.000000
6.772186 -17.669794 3.993934 1.000000
-7.409002 -17.195244 3.951806 6.000000
-7.350749 -17.258497 3.959240 0.666667
-6.796349 -17.244703 3.912155 8.000000
-7.184506 -17.116348 3.917938 19.000000
-3.368502 -16.934612 3.965949 12.000000
-3.843301 -16.821211 3.963262 6.000000
-3.452873 -16.806189 3.940876 18.000000
8.130592 -16.796494 3.938589 0.000000
8.356331 -16.855871 3.970805 6.000000
8.608475 -16.829678 3.989804 0.000000
-3.769887 -16.741924 3.941772 47.000000
-3.675050 -16.687138 3.924758 43.500000
-3.488927 -16.715118 3.922071 24.000000
-3.228714 -16.687897 3.904162 2.000000
-4.248428 -16.655098 3.948040 7.000000
-3.910553 -16.633545 3.924758 1.000000
-3.561108 -16.667976 3.914908 18.500000
-3.887253 -16.534815 3.901476 20.500000
5.484153 -16.438061 3.980276 22.000000
-4.799453 -16.328043 3.909088 38.000000
-9.693658 -16.101109 3.966675 6.000000
-9.661100 -16.161718 3.974109 1.000000
6.455012 -16.155090 3.995946 21.500000
-5.729902 -15.994196 3.902372 4.000000
6.489387 -16.021526 3.970426 19.000000
6.597353 -15.998456 3.974903 10.000000
6.733958 -16.042959 3.996394 10.000000
-6.388193 -15.915206 3.939085 2.000000
-4.522731 -15.122986 3.918916 4.000000
-5.394003 -14.908905 3.936265 30.000000
-5.356307 -14.951359 3.943012 3.000000
6.302735 -14.755147 3.983493 3.000000
6.463339 -14.744868 3.996986 21.000000
-6.401318 -14.479495 3.930482 8.000000
6.325688 -14.555035 3.940120 1.000000
-6.416739 -14.391946 3.912169 25.000000
6.435707 -14.434494 3.923735 15.000000
-6.903386 -14.376267 3.959397 0.000000
-4.129408 -14.297299 3.977239 1.000000
-4.085531 -14.313918 3.978272 5.000000
-6.906230 -14.267152 3.935301 51.000000
-4.498384 -14.120637 3.960715 16.333334
-5.345208 -13.946566 3.991698 9.000000
-13.754047 -12.956627 3.988152 43.000000
-13.878422 -12.829082 3.988978 15.000000
-13.866776 -12.737761 3.974109 14.000000
-13.864359 -12.615664 3.956349 13.500000
-13.852478 -12.485970 3.936111 14.000000
-13.842076 -12.397999 3.922068 17.000000
-13.845876 -12.323227 3.912155 14.000000
-10.526007 -12.130151 3.987348 21.000000
-8.637313 -11.901255 3.930076 40.666668
-8.567816 -11.949796 3.929731 24.500000
-10.472621 -11.841344 3.924699 7.000000
-10.981023 -11.730472 3.989275 83.000000
-9.037332 -11.764922 3.964846 51.000000
-10.576324 -11.659969 3.908314 4.000000
-8.965518 -11.595842 3.917338 59.000000
-10.220345 -10.917878 3.996862 41.000000
-10.085009 -10.705693 3.930764 27.000000
-13.715466 -10.638857 3.986992 17.500000
-13.707752 -10.495588 3.965501 15.000000
-13.693418 -10.382572 3.947144 16.000000
-13.688598 -10.311357 3.936399 16.000000
-13.695958 -10.249612 3.929235 20.000000
-13.684289 -10.173972 3.916699 12.000000
-13.680241 -10.071255 3.901924 12.000000
-13.569655 -8.641498 3.994095 17.000000
-13.564217 -8.548485 3.980601 17.000000
-13.548414 -8.420065 3.960361 16.500000
-13.536766 -8.266211 3.937871 17.333334
-13.534182 -8.119349 3.918434 18.500000
-13.410995 -6.570001 3.991182 20.500000
-13.401146 -6.435218 3.973108 22.000000
-13.390792 -6.430170 3.970010 22.000000
19.549953 -6.420129 3.966635 24.000000
-13.386660 -6.299306 3.954002 23.500000
19.621122 -6.341232 3.974963 26.000000
19.581091 -6.260421 3.962849 42.000000
19.672176 -6.187495 3.975342 36.500000
-13.375436 -6.166218 3.936272 24.000000
-13.365990 -6.009779 3.916649 23.000000
-16.475853 4.702598 3.935503 0.000000
-15.239100 4.766881 3.964216 0.000000
-15.101900 4.776106 3.932410 0.000000
-14.972191 4.786874 3.902531 0.000000
-12.310399 7.948800 3.916305 24.666666
-12.298397 8.106287 3.936616 24.333334
-12.286654 8.265683 3.957616 23.333334
-12.274019 8.397931 3.974657 23.500000
-12.265473 8.505708 3.989116 22.500000
-14.204969 12.016888 3.927024 0.000000
-14.134369 12.033543 3.917938 2.000000
-12.083742 12.469381 3.988335 13.500000
-11.984328 12.484051 3.974903 17.000000
-11.976368 12.594072 3.991917 16.000000
-11.814990 14.236279 3.904721 55.000000
-11.809856 14.367393 3.925372 57.000000
-11.794561 14.534008 3.950567 58.000000
-11.784985 14.710152 3.978239 52.500000
-11.766674 14.829893 3.995586 51.000000
-16.470518 15.316071 3.929411 2.000000
-16.367657 15.316581 3.916331 0.000000
-16.585117 15.325753 3.945244 3.000000
-11.629450 16.658142 3.916285 50.000000
-11.618999 16.811291 3.939378 63.000000
-11.610582 16.912474 3.954521 27.000000
-11.604650 17.075840 3.979885 43.000000
-11.458554 19.161015 3.900498 60.000000
-11.448589 19.281626 3.917708 60.000000
-11.439988 19.405748 3.935606 60.000000
-11.430712 19.530014 3.953505 62.000000
-11.418796 19.650997 3.970715 60.000000
-11.412139 19.782337 3.989990 56.000000
-11.611294 22.690462 3.995087 6.000000
-11.514909 22.677496 3.986416 6.000000
-11.372492 22.660820 3.974028 29.000000
-11.246242 22.675264 3.967214 13.000000
-11.229029 22.820404 3.986416 7.000000
-13.893397 24.436930 3.903130 1.000000
-10.977965 26.608170 3.996651 3.000000
4.244567 -18.577448 4.022020 27.000000
4.536777 -18.512287 4.022846 21.000000
4.614727 -18.577707 4.040193 21.000000
4.768064 -18.450027 4.022020 8.000000
5.768505 -18.441156 4.078191 5.000000
-6.270104 -18.282192 4.079292 2.333333
-5.324386 -18.219778 4.006325 1.000000
-5.144996 -18.242781 4.000543 3.000000
6.471745 -18.154320 4.067865 4.000000
5.956844 -18.043520 4.010455 16.000000
-18.293537 -17.901850 4.011811 9.000000
-7.314521 -17.896923 4.080669 4.000000
-7.177188 -17.880867 4.066626 2.000000
-6.349555 -17.900795 4.008803 2.000000
6.731921 -17.731230 4.003021 2.000000
-7.018279 -17.645124 4.007977 6.000000
-4.863595 -16.839283 4.025944 17.000000
5.559587 -16.840212 4.073402 47.000000
5.106963 -16.693710 4.009826 2.000000
5.996804 -16.739222 4.084148 22.000000
5.606756 -16.631321 4.031316 17.000000
5.764529 -16.581423 4.032212 2.000000
5.998962 -16.580996 4.050121 4.000000
9.239959 -16.621401 4.013759 19.000000
-6.461965 -16.548473 4.080566 3.000000
5.704797 -16.577333 4.026839 31.000000
6.398136 -16.234308 4.008035 30.000000
6.984746 -16.071486 4.025048 11.000000
-4.356258 -15.697503 4.044535 9.333333
4.922186 -15.735583 4.093369 1.000000
5.077431 -15.710659 4.099152 4.000000
-4.607275 -15.583863 4.034575 6.000000
5.314815 -15.603244 4.092405 14.000000
-4.673629 -15.450562 4.007588 7.000000
5.471536 -15.425462 4.063490 0.000000
5.526512 -15.426470 4.068309 10.000000
8.535897 -15.469131 4.058180 1.000000
-6.239953 -14.866048 4.002769 7.000000
3.865024 -14.716845 4.066575 13.250000
6.633855 -14.754112 4.016263 4.000000
6.768970 -14.743868 4.027828 10.500000
7.003432 -14.702806 4.043250 2.000000
-4.870081 -14.446128 4.074321 0.000000
-4.651314 -14.340731 4.029222 18.333334
-5.654719 -14.024151 4.041272 2.500000
-5.991227 -13.904788 4.046435 18.000000
-6.610856 -13.822691 4.094976 69.000000
-6.716975 -13.765668 4.093599 25.666666
-8.964571 -13.647311 4.053852 18.000000
-9.098251 -13.570242 4.056262 25.000000
-9.007353 -13.572567 4.044214 32.000000
-13.913663 -13.356718 4.070756 14.000000
-13.907413 -13.267014 4.056714 13.000000
-7.672538 -13.209240 4.082583 30.000000
-13.843931 -13.123631 4.026150 17.000000
-7.875087 -13.080474 4.080517 10.000000
-7.676922 -13.121696 4.062960 44.000000
-10.089556 -13.049652 4.095296 12.000000
-7.738809 -13.057401 4.056557 36.200001
-13.867865 -12.941059 4.003433 28.500000
-9.942699 -11.678502 4.099107 12.000000
-9.934083 -11.594387 4.080517 13.000000
-13.771377 -11.247742 4.084148 15.500000
-13.749214 -11.086356 4.056837 15.000000
-13.742355 -10.939039 4.034451 17.000000
-13.726519 -10.786240 4.009826 15.000000
-13.614395 -9.158944 4.073771 14.333333
-13.594763 -8.991388 4.046623 16.000000
-13.584333 -8.862309 4.026865 16.500000
-13.576088 -8.735817 4.008070 16.500000
19.864389 -7.399342 4.086262 8.000000
-13.474313 -7.215870 4.084993 18.333334
-13.450428 -7.040761 4.057452 16.333334
19.800491 -7.058447 4.052191 11.000000
-13.434314 -6.898399 4.036108 19.500000
19.666801 -6.906488 4.018120 34.000000
19.610495 -6.817586 4.002220 41.000000
19.817513 -6.819847 4.040077 8.000000
19.954096 -6.796815 4.063548 36.000000
-13.425913 -6.761400 4.017518 21.333334
-13.419727 -6.652853 4.003059 21.000000
-18.902718 -2.993904 4.039367 1.000000
-18.915905 -2.843886 4.037302 2.000000
-18.932793 -2.603567 4.033584 2.000000
-18.942299 -2.226881 4.025530 3.000000
-18.952744 -2.092397 4.024498 2.500000
-18.967464 -1.973483 4.024911 2.000000
-19.084341 3.145704 4.082321 2.500000
-19.085415 3.269191 4.086864 5.500000
-19.098732 3.364184 4.093060 7.000000
-19.096466 3.487636 4.097190 7.000000
-19.091921 3.424856 4.093886 7.000000
-15.695808 4.747812 4.071201 0.000000
-15.524898 4.749404 4.030720 0.000000
-15.409766 4.767173 4.004697 0.000000
-14.564512 4.808291 4.099107 0.000000
-14.171041 4.826972 4.000993 0.000000
-12.264843 8.591125 4.002026 24.000000
-12.254663 8.699352 4.016485 22.333334
-12.238899 8.862817 4.038517 20.333334
-12.233276 9.006002 4.059862 20.000000
-12.222968 9.147347 4.080173 19.333334
-12.207182 9.285948 4.099108 19.500000
-12.213224 12.484809 4.011617 3.000000
-12.409405 12.526916 4.050121 3.000000
-12.334437 12.529721 4.038480 5.000000
-11.959715 12.735859 4.012959 16.000000
-11.951028 12.887934 4.037137 16.500000
-11.940899 13.040401 4.061314 16.000000
-11.929325 13.193243 4.085491 15.000000
-11.765522 14.972896 4.019128 48.000000
-11.750376 15.148577 4.046388 58.000000
-11.737326 15.279811 4.066626 69.000000
-17.626205 15.387162 4.087744 2.000000
-17.506735 15.380042 4.071222 2.000000
-17.384525 15.369721 4.054012 2.000000
-17.211987 15.362185 4.030606 2.500000
-17.033989 15.348248 4.005824 2.000000
-11.727933 15.417507 4.088516 49.500000
-11.588793 17.226458 4.002220 64.000000
-11.582525 17.393677 4.028341 25.500000
-11.575073 17.561190 4.054462 25.000000
-11.565026 17.666475 4.070363 63.000000
-11.550981 17.827927 4.094969 36.500000
-11.400844 19.906998 4.007889 25.000000
-11.384990 20.024923 4.024411 0.000000
-11.216227 22.976309 4.007475 7.000000
-11.172547 26.604422 4.006553 5.000000
-11.075202 26.606472 4.001602 5.000000
-11.381516 26.632069 4.021406 1.000000
-11.285433 26.638506 4.017005 2.000000
-18.354256 -19.126272 4.154891 16.000000
5.045264 -18.789818 4.106277 30.000000
5.151833 -18.793325 4.112885 5.000000
7.806006 -17.807905 4.103798 1.000000
-8.536906 -17.778067 4.162447 3.000000
-6.254375 -17.118652 4.186229 41.000000
-6.334596 -17.005953 4.168320 26.000000
6.026296 -16.989452 4.140561 6.000000
-6.110373 -16.888933 4.125339 25.000000
-7.601371 -16.420732 4.156232 7.000000
7.686110 -16.400639 4.160261 7.000000
7.386042 -16.289995 4.108325 27.000000
7.585249 -16.318647 4.133398 46.000000
7.692630 -16.281240 4.136084 20.000000
8.091646 -16.321966 4.184438 8.000000
-4.314498 -16.203688 4.163085 34.333332
8.092442 -16.132044 4.145486 4.500000
8.270627 -16.086004 4.154590 1.666667
-4.926130 -16.012766 4.159390 29.000000
-5.442493 -15.978073 4.190715 1.000000
-4.765219 -15.933809 4.129030 0.000000
8.266665 -15.914003 4.119071 1.000000
8.361815 -15.974304 4.141457 2.000000
-9.146163 -15.746271 4.182648 5.000000
-6.219772 -15.637546 4.178185 4.000000
-5.746525 -15.652241 4.139632 24.500000
-6.621458 -15.501292 4.184932 27.000000
6.517920 -15.528273 4.181077 23.000000
-5.325923 -14.720734 4.183795 43.000000
-5.001416 -14.683158 4.145583 19.000000
-5.798539 -14.578496 4.193090 44.000000
6.147198 -14.266783 4.151779 2.000000
-9.072906 -14.100115 4.162764 49.500000
-9.109686 -14.011623 4.149271 36.000000
-6.549341 -13.918169 4.110984 41.500000
-13.815496 -11.874872 4.184439 13.500000
-13.808086 -11.718473 4.159813 16.500000
-10.152152 -11.773838 4.154878 23.000000
-13.791806 -11.556358 4.132950 12.500000
-10.302517 -11.539060 4.134222 3.000000
-13.784540 -11.403627 4.109221 16.000000
-10.392898 -11.457750 4.134222 1.000000
-10.580800 -11.374349 4.151779 0.000000
-10.838977 -11.079997 4.142484 50.000000
-10.626868 -11.139831 4.114599 3.000000
-13.676558 -9.903936 4.192322 16.000000
-13.653850 -9.724871 4.161800 14.500000
-13.631270 -9.326587 4.100597 16.000000
-13.521370 -7.967949 4.194468 15.333333
-13.516630 -7.794487 4.170025 16.333334
-13.497902 -7.642993 4.145582 13.500000
-13.495534 -7.502359 4.126648 18.666666
-13.478899 -7.355075 4.103755 14.000000
-18.577896 -6.198058 4.133536 1.000000
-18.747679 -6.145798 4.164100 7.000000
-18.747440 -5.993925 4.154187 8.000000
-18.760349 -5.836026 4.146752 8.000000
-18.768562 -5.709499 4.140557 8.000000
-18.774624 -5.550640 4.132159 8.000000
-18.782578 -5.392920 4.124450 8.000000
-18.785204 -5.297977 4.119493 8.000000
-18.794216 -5.236830 4.117841 6.000000
-19.552504 1.507928 4.139043 5.666667
-19.556997 1.662882 4.142622 6.000000
-19.563702 1.787332 4.146339 6.000000
-19.569143 1.942919 4.150608 5.333333
-19.108644 3.583006 4.103385 7.000000
-19.116360 3.740120 4.111233 7.000000
-19.122871 3.897554 4.119081 7.000000
-19.130550 4.055893 4.127478 7.000000
-19.137646 4.214702 4.136014 7.000000
-19.148956 4.343518 4.144275 7.500000
-19.143551 4.437239 4.147579 8.000000
-19.079988 4.485711 4.136840 3.000000
-19.134327 4.561973 4.151709 4.000000
-18.910671 4.571480 4.106277 2.000000
-16.157204 4.721636 4.179149 0.000000
-15.974763 4.722841 4.135777 0.000000
-15.825948 4.732965 4.101079 0.000000
-14.951498 4.780258 4.195156 0.000000
-14.811383 4.786805 4.160041 0.000000
-14.708113 4.804512 4.135255 0.000000
-12.202097 9.434342 4.122173 20.666666
-12.193509 9.581606 4.144549 18.500000
-12.187607 9.670175 4.157976 18.000000
-12.182585 9.760127 4.171918 19.000000
-12.174045 9.847797 4.184828 0.000000
-12.382325 11.160844 4.138669 3.000000
-12.246330 11.143264 4.110718 32.000000
-12.179382 11.187754 4.105898 10.000000
-11.921482 13.352279 4.111459 14.000000
-15.544588 15.254217 4.198318 2.000000
-15.388793 15.244440 4.175604 3.000000
-15.276851 15.228930 4.158190 2.000000
-15.151983 15.231497 4.141533 1.333333
-17.991896 15.410036 4.138686 2.000000
-17.807339 15.397923 4.112870 2.000000
-18.371639 15.437499 4.192381 2.000000
-11.717770 15.606699 4.119080 47.000000
-11.708369 15.748103 4.141797 70.000000
-11.691973 15.881914 4.162448 29.500000
-11.683924 16.028536 4.186403 27.000000
-11.540056 17.996214 4.121090 25.000000
-11.534101 18.111887 4.139262 25.000000
-11.519753 18.279030 4.165004 41.500000
-11.506304 18.449741 4.191504 61.000000
-11.515996 24.165482 4.195771 5.000000
-11.374226 24.160448 4.185551 14.500000
-11.232737 24.154701 4.175331 15.000000
-11.140250 24.153982 4.169137 11.000000
-11.120207 24.311043 4.190196 4.000000
-18.254965 -20.259968 4.274434 34.000000
-18.286671 -20.167387 4.267001 5.000000
-18.807135 -19.971605 4.299829 6.000000
-18.989515 -19.296906 4.243464 3.000000
-18.848671 -19.274534 4.225502 8.000000
-18.952723 -19.138874 4.221785 5.000000
-9.253070 -17.950550 4.262399 4.000000
-8.909131 -17.970949 4.233488 6.000000
-8.828445 -17.949680 4.221923 2.000000
-5.634366 -17.815701 4.291893 13.000000
-4.893707 -17.778603 4.235479 37.000000
-4.427524 -17.824083 4.218465 7.000000
-5.067102 -17.682634 4.225032 15.000000
4.993674 -17.706230 4.225629 2.000000
-5.864739 -17.671356 4.276670 9.000000
-4.977800 -17.649950 4.212197 6.000000
6.527832 -17.524715 4.295474 0.000000
5.691864 -17.424580 4.210406 25.000000
6.567757 -17.463984 4.285624 2.000000
6.658467 -17.291786 4.256074 23.000000
6.761170 -17.314707 4.269506 17.000000
7.514186 -16.924681 4.253388 1.500000
7.619396 -16.946018 4.267715 32.000000
-3.093139 -16.787178 4.237943 8.000000
-4.130212 -16.777199 4.289668 1.000000
-3.992999 -16.747885 4.274568 0.000000
-3.934144 -16.733892 4.267821 1.000000
7.691302 -16.752747 4.234136 32.500000
5.365441 -16.425299 4.289989 1.000000
8.588384 -16.282431 4.228315 18.000000
8.740212 -16.320938 4.252492 24.000000
9.031248 -16.366747 4.293683 22.400000
8.643154 -16.262255 4.230106 4.000000
8.741461 -16.200764 4.228315 20.000000
-5.054308 -16.157965 4.203245 2.000000
8.753208 -16.101295 4.209511 15.000000
-5.349211 -16.075983 4.206378 3.000000
-6.393689 -15.785261 4.228304 6.000000
6.361421 -15.848504 4.239871 45.000000
-4.168289 -15.459269 4.279156 9.333333
-4.224271 -15.346576 4.254025 6.000000
-8.128106 -15.177931 4.274568 26.000000
-5.554740 -15.056783 4.289139 11.000000
-5.366975 -14.981135 4.252992 5.000000
-5.761276 -14.891989 4.267451 49.000000
-5.594825 -14.876902 4.247828 32.000000
6.497718 -14.390882 4.219943 0.000000
-13.857387 -12.569515 4.297265 13.000000
-13.849720 -12.444166 4.276670 16.000000
-13.850012 -12.326908 4.258761 12.000000
-13.827346 -12.229099 4.239956 12.000000
-13.821772 -12.146996 4.226524 13.000000
-13.821472 -12.031836 4.209064 17.000000
-11.006561 -11.610662 4.275713 20.000000
-10.654002 -11.561964 4.201869 4.500000
-10.981894 -11.296873 4.210648 40.000000
-11.030968 -11.205618 4.202385 0.000000
-13.708866 -10.496442 4.286616 16.000000
-13.687824 -10.344563 4.259629 15.000000
-13.693432 -10.214248 4.241316 17.000000
-13.685431 -10.075076 4.219148 14.500000
-13.566204 -8.639299 4.298434 17.000000
-13.559334 -8.545403 4.283459 18.500000
-13.557525 -8.396294 4.261942 18.666666
-13.544979 -8.241982 4.237500 18.500000
-13.540155 -8.122929 4.219943 18.000000
-17.029099 1.232586 4.238906 0.500000
-17.018854 1.366321 4.238906 1.000000
-17.011501 1.500281 4.239871 1.000000
-18.415033 1.711555 4.248015 0.000000
-16.997869 1.633722 4.239549 1.000000
-18.378523 1.766412 4.240852 0.000000
-16.996336 1.741412 4.241798 1.000000
-18.566853 1.843396 4.285624 0.000000
-17.016787 2.832385 4.282921 3.000000
-17.028841 2.999612 4.292881 3.333333
-18.415470 3.035456 4.286967 2.500000
-17.036451 3.111410 4.299627 2.000000
-18.417168 3.154734 4.291893 4.500000
-18.413637 3.243507 4.294579 6.000000
-18.273983 3.964328 4.295026 0.500000
-18.216013 4.161983 4.291893 0.000000
-16.339792 4.719332 4.222521 0.000000
-15.235721 4.765823 4.266418 0.000000
-15.117506 4.781042 4.237500 0.000000
-19.222803 5.617500 4.226879 0.000000
-19.238842 5.687846 4.234313 0.000000
-19.228672 5.783492 4.238031 0.000000
-14.214940 12.025323 4.276670 0.000000
-14.135536 12.034536 4.264133 3.000000
-11.985181 12.484941 4.296736 17.000000
-12.070708 13.969237 4.240553 12.666667
-11.967279 13.967398 4.224734 16.000000
-11.864744 13.980513 4.211750 30.500000
-11.824192 14.111601 4.228763 48.000000
-11.813635 14.234647 4.248911 47.000000
-11.807027 14.363955 4.270849 59.000000
-11.797099 14.490469 4.291893 73.000000
-16.136456 15.296876 4.286146 3.000000
-16.022959 15.285137 4.268732 2.000000
-15.857414 15.270502 4.243747 2.000000
-15.703575 15.265735 4.221790 2.000000
-19.027489 15.485285 4.286004 3.000000
-18.893389 15.475079 4.266729 3.000000
-18.762590 15.466684 4.248142 3.000000
-18.563843 15.450237 4.219573 2.500000
-11.676924 16.178631 4.211185 65.500000
-11.657900 16.368046 4.241335 47.500000
-11.649498 16.520336 4.266530 64.000000
-11.635308 16.666523 4.290071 27.500000
-19.840504 18.449848 4.246561 1.000000
-19.805531 18.533686 4.251516 0.000000
-11.491709 18.555923 4.207404 61.000000
-19.839264 18.682514 4.271337 1.000000
-11.484103 18.740492 4.236932 60.500000
-11.471085 18.918655 4.264946 61.000000
-19.730738 18.934328 4.286202 1.000000
-19.719486 19.042883 4.296731 1.000000
