# This PCD file was generated using the MATLAB® pcwrite function
# from Computer Vision Toolbox®.
# .PCD v.7 - Point Cloud Data file format
VERSION .7
FIELDS x y z intensity
SIZE 4 4 4 4
TYPE F F F F
COUNT 1 1 1 1
WIDTH 1254
HEIGHT 1
VIEWPOINT 0 0 0 1 0 0 0
POINTS 1254
DATA ascii
-16.331444 -6.624874 -0.019686 4.000000
-16.151764 -6.492965 -0.019445 4.000000
-15.982565 -6.366699 -0.019217 3.000000
-15.805293 -6.238624 -0.018980 4.000000
-15.634830 -6.114633 -0.018752 4.000000
-15.474929 -5.996118 -0.018538 4.000000
-15.314445 -5.878661 -0.018323 4.000000
-15.168330 -5.767968 -0.018127 4.000000
-15.006698 -5.652610 -0.017912 4.000000
-14.855739 -5.542513 -0.017711 4.000000
-14.711739 -5.436202 -0.017519 4.000000
-14.563466 -5.329469 -0.017323 4.000000
-14.425949 -5.227817 -0.017139 4.000000
-14.302997 -5.132486 -0.016974 4.000000
-14.153209 -5.028599 -0.016777 4.000000
-14.025549 -4.933675 -0.016608 4.000000
-13.897435 -4.839596 -0.016438 4.000000
-13.772650 -4.747682 -0.016273 4.000000
-13.643641 -4.655308 -0.016103 5.000000
-13.471996 -4.526095 -0.015875 4.500000
-13.288152 -4.394633 -0.015634 4.000000
-13.172636 -4.310571 -0.015482 8.000000
-13.009996 -4.189692 -0.015267 5.000000
-12.846611 -4.070251 -0.015053 5.000000
-12.748644 -3.995180 -0.014923 5.000000
-12.650331 -3.920771 -0.014794 7.000000
-12.536380 -3.842331 -0.014646 5.000000
-12.441205 -3.770440 -0.014521 6.000000
-12.338037 -3.696896 -0.014387 5.000000
-12.242204 -3.626303 -0.014262 5.000000
-12.153726 -3.558604 -0.014146 5.000000
-12.053417 -3.488160 -0.014016 6.000000
-11.964325 -3.421676 -0.013900 7.000000
-11.824316 -3.321526 -0.013719 6.000000
-11.655928 -3.195344 -0.013500 7.000000
-11.526043 -3.101333 -0.013333 7.000000
-11.395463 -3.008770 -0.013165 7.000000
-11.241764 -2.892735 -0.012966 9.500000
-11.127312 -2.807377 -0.012819 9.000000
-11.123981 -2.732290 -0.012795 50.333332
-11.153928 -2.665473 -0.012810 57.000000
-11.214331 -2.568352 -0.012851 52.400002
-11.278326 -2.452884 -0.012893 51.500000
-11.313084 -2.386101 -0.012915 52.000000
-11.378174 -2.269369 -0.012960 48.000000
-11.458515 -2.136074 -0.013020 49.166664
-12.065929 -1.946652 -0.013652 3.000000
-11.536849 -1.982345 -0.013076 44.750000
-12.155251 -1.814369 -0.013728 3.000000
-12.237527 -1.669754 -0.013796 3.000000
-12.311133 -1.522474 -0.013857 3.000000
-12.388927 -1.374271 -0.013924 3.000000
-12.443036 -1.222195 -0.013966 3.000000
-12.405514 -1.120256 -0.013913 8.000000
-12.284714 -1.031610 -0.013771 61.000000
-12.155608 -0.905472 -0.013616 28.666666
-12.186983 -0.811586 -0.013643 35.000000
-12.239756 -0.737878 -0.013697 32.500000
-12.294046 -0.624869 -0.013750 33.250000
-12.380869 -0.473388 -0.013840 31.500000
-12.466813 -0.319849 -0.013930 31.750000
-12.556841 -0.164295 -0.014027 29.250000
-13.051921 -0.027252 -0.014579 2.000000
-13.119877 0.054960 -0.014655 4.000000
-13.161893 0.137903 -0.014703 2.333333
-0.073593 0.203076 -0.000241 1.000000
-13.219755 0.242325 -0.014769 2.500000
-13.273954 0.326735 -0.014832 2.000000
-0.160618 0.343570 -0.067483 1.000000
-13.299603 0.431890 -0.014864 2.000000
-0.036412 0.442908 -0.053218 39.838474
-13.359110 0.538920 -0.014934 2.000000
-0.084937 0.593922 -0.015533 79.609375
-13.425839 0.657836 -0.015015 3.000000
-0.100956 0.688459 -0.040463 73.428574
-13.343010 0.748288 -0.014928 14.500000
0.073692 0.715895 -0.011779 37.555557
-13.292134 0.829243 -0.014876 34.000000
-13.168938 0.904688 -0.014745 22.000000
-0.097601 0.880200 -0.087357 93.629631
0.068651 0.871707 -0.063250 60.312500
0.106814 0.830217 -0.009242 2.285714
-0.167765 0.972228 -0.001102 13.000000
-13.229221 1.055211 -0.014824 25.000000
-8.179124 1.094235 -0.009218 0.000000
-7.605627 1.066195 -0.008579 29.000000
-7.477798 1.084184 -0.008440 39.000000
-13.307052 1.187682 -0.014923 25.000000
-8.179609 1.120466 -0.009222 29.000000
-7.421183 1.111753 -0.008382 44.000000
-7.332061 1.192607 -0.008298 53.285713
-13.365026 1.298695 -0.014999 24.500000
-7.262075 1.298800 -0.008241 61.666668
-13.402549 1.366109 -0.015048 23.000000
-7.239030 1.365212 -0.008229 60.333332
-13.469838 1.480070 -0.015137 24.000000
-7.230020 1.469717 -0.008241 63.000000
-13.530393 1.594245 -0.015218 23.000000
-13.574324 1.664339 -0.015276 23.000000
-7.310311 1.630265 -0.008366 52.666668
-13.617934 1.734835 -0.015334 24.000000
-7.419427 1.748416 -0.008515 33.333332
9.004336 1.766580 -0.010250 1.000000
-14.228203 1.880789 -0.016031 2.000000
7.752222 2.007749 -0.008945 35.000000
7.858721 1.982709 -0.009053 27.250000
7.700537 2.074586 -0.008908 35.700001
7.107222 2.166125 -0.008299 33.000000
7.204044 2.121707 -0.008389 36.000000
7.311417 2.153303 -0.008514 29.000000
7.643126 2.172859 -0.008876 12.500000
9.138967 2.194069 -0.010498 15.333333
9.268500 2.276562 -0.010661 45.000000
7.518131 2.369026 -0.008805 26.666666
9.602876 2.390706 -0.011054 8.000000
7.451087 2.464211 -0.008766 22.000000
7.611117 2.437802 -0.008927 16.000000
9.657421 2.468827 -0.011134 5.000000
6.758091 2.557745 -0.008072 0.500000
7.078489 2.514970 -0.008391 11.000000
7.154275 2.516611 -0.008471 2.000000
7.518773 2.539182 -0.008865 28.000000
7.621153 2.573689 -0.008985 20.000000
7.291673 2.651076 -0.008667 21.333334
7.345393 2.635819 -0.008717 10.000000
7.513453 2.616462 -0.008887 35.000000
7.623741 2.628041 -0.009008 34.000000
8.659079 2.624227 -0.010107 0.000000
10.752393 2.641041 -0.012368 1.000000
6.261433 2.762009 -0.007644 19.250000
6.497639 2.734604 -0.007875 19.857143
6.271934 2.895384 -0.007716 0.000000
10.239026 2.858766 -0.011875 3.666667
6.250916 3.005676 -0.007748 17.000000
7.256352 2.943504 -0.008747 14.666667
6.350085 3.020807 -0.007855 3.333333
9.842997 3.144115 -0.011542 10.750000
6.030114 3.282340 -0.007669 23.200001
5.753556 3.366181 -0.007446 19.433334
5.837207 3.321388 -0.007502 46.000000
6.029944 3.397715 -0.007731 30.333334
6.476341 3.381486 -0.008161 41.000000
6.836603 3.347079 -0.008503 9.750000
10.260591 3.357642 -0.012059 1.000000
-14.600623 3.472977 -0.016764 9.000000
5.524396 3.420463 -0.007258 27.200001
5.906290 3.409998 -0.007618 26.000000
6.228245 3.466596 -0.007962 62.000000
6.332805 3.412645 -0.008036 44.833332
10.264116 3.448295 -0.012095 2.500000
-14.650973 3.582464 -0.016847 18.000000
5.423097 3.554185 -0.007243 1.000000
5.784603 3.536482 -0.007573 60.000000
5.805943 3.524519 -0.007587 13.000000
8.896708 3.583068 -0.010713 25.799999
10.508646 3.512066 -0.012376 5.000000
5.220228 3.611962 -0.007091 0.000000
7.740323 3.617606 -0.009544 9.000000
8.865686 3.661415 -0.010714 12.000000
-14.730368 3.724654 -0.016972 16.000000
7.578949 3.777073 -0.009459 6.500000
7.746954 3.725027 -0.009602 15.000000
9.707973 3.796697 -0.011644 1.000000
10.661696 3.787999 -0.012639 8.333333
-14.817366 3.870770 -0.017107 18.333334
7.399944 3.829205 -0.009307 25.000000
7.504482 3.849524 -0.009421 16.600000
9.681115 3.821303 -0.011626 8.000000
10.545532 3.878011 -0.012551 10.500000
-14.879112 3.986846 -0.017206 16.000000
9.047085 3.962904 -0.011033 3.750000
-14.933449 4.076964 -0.017291 16.500000
5.171839 4.028987 -0.007323 2.500000
5.570476 4.065041 -0.007703 1.000000
5.797029 4.092385 -0.007926 4.000000
5.819682 4.081042 -0.007940 7.000000
6.373836 4.035603 -0.008427 4.000000
6.445328 4.038412 -0.008496 25.000000
8.914999 4.098508 -0.010960 13.500000
10.776075 4.046135 -0.012858 41.333332
-14.998060 4.196043 -0.017396 15.500000
5.548911 4.162609 -0.007748 1.000000
8.742838 4.136455 -0.010804 22.000000
8.912617 4.165470 -0.010989 15.500000
10.809590 4.162281 -0.012939 15.833333
6.463562 4.236023 -0.008632 6.333333
8.588305 4.212962 -0.010685 15.500000
10.797308 4.261883 -0.012966 3.000000
-15.069457 4.318282 -0.017510 15.500000
7.303779 4.402444 -0.009526 10.000000
7.576038 4.405820 -0.009789 0.000000
7.957547 4.331392 -0.010120 5.000000
8.086836 4.336123 -0.010250 12.000000
8.551085 4.345722 -0.010714 28.000000
8.730836 4.368228 -0.010905 27.666666
10.185968 4.319491 -0.012359 1.000000
-15.425287 4.498983 -0.017948 0.000000
7.558466 4.459476 -0.009803 24.500000
8.049185 4.480118 -0.010290 0.000000
-15.495480 4.572323 -0.018046 0.000000
7.717016 4.552929 -0.010008 36.000000
10.048569 4.543411 -0.012318 9.000000
7.409108 4.691027 -0.009795 9.000000
8.328143 4.669714 -0.010665 1.000000
9.585329 4.646120 -0.011898 4.000000
11.150850 4.687387 -0.013511 1.000000
6.254349 4.747310 -0.008771 1.000000
-15.631719 4.826870 -0.018274 0.000000
6.043824 4.851143 -0.008657 26.625000
7.539932 4.840550 -0.010008 18.000000
8.052076 4.819068 -0.010482 6.000000
-15.696441 4.955097 -0.018386 0.000000
5.275025 4.912160 -0.008051 4.000000
-16.000893 5.106536 -0.018761 2.000000
5.605817 5.090180 -0.008458 0.000000
8.265059 5.035092 -0.010810 5.500000
-17.675072 5.185273 -0.020575 5.000000
-16.007614 5.164145 -0.018788 7.000000
7.933857 5.199723 -0.010596 26.500000
-17.546364 5.267468 -0.020464 3.500000
-15.841846 5.220744 -0.018632 25.000000
-15.748110 5.299824 -0.018560 18.000000
8.068884 5.216001 -0.010732 2.000000
-17.467804 5.333773 -0.020401 4.000000
-17.369602 5.403345 -0.020319 4.000000
-15.694248 5.391788 -0.018536 16.333334
4.541440 5.408490 -0.007889 24.799999
4.618903 5.385152 -0.007925 6.666667
6.888283 5.401093 -0.009778 18.000000
7.606768 5.405848 -0.010424 27.000000
8.030913 5.353989 -0.010781 6.500000
-17.306137 5.463250 -0.020272 4.000000
-17.246973 5.504211 -0.020222 3.000000
5.490182 5.410276 -0.008610 31.000000
7.589747 5.429719 -0.010424 24.000000
7.619163 5.505274 -0.010500 16.500000
8.144976 5.485586 -0.010969 0.000000
-15.806203 5.597270 -0.018730 16.000000
-15.755763 5.523768 -0.018650 14.000000
5.488976 5.564240 -0.008731 17.500000
5.538110 5.526629 -0.008739 8.500000
7.599628 5.545809 -0.010509 35.000000
7.873109 5.521005 -0.010741 18.000000
-15.847368 5.696092 -0.018810 16.000000
5.501854 5.630090 -0.008793 5.000000
5.719399 5.707433 -0.009025 2.000000
6.071372 5.618217 -0.009240 13.000000
6.103714 5.612652 -0.009262 12.000000
8.297607 5.693098 -0.011240 12.500000
-15.914335 5.804927 -0.018922 15.000000
6.794814 5.754271 -0.009946 39.000000
8.224984 5.806389 -0.011246 25.000000
-15.956075 5.877020 -0.018994 19.000000
6.174083 5.871148 -0.009517 31.666666
6.892467 5.836953 -0.010089 48.500000
7.080518 5.895040 -0.010291 38.666668
7.283408 5.897987 -0.010469 3.000000
-16.006851 5.981585 -0.019087 13.500000
6.158472 5.985522 -0.009593 37.000000
7.171973 5.920532 -0.010388 15.000000
7.924928 5.956723 -0.011074 23.500000
-16.075771 6.093775 -0.019204 15.000000
6.412305 6.085051 -0.009874 65.000000
7.071250 6.065078 -0.010406 7.000000
8.181779 6.010114 -0.011340 34.000000
8.230399 6.085730 -0.011434 23.000000
9.558554 6.094161 -0.012662 9.000000
-16.112587 6.165689 -0.019271 18.000000
7.514490 6.150542 -0.010847 31.000000
8.178764 6.208020 -0.011469 20.000000
-16.176537 6.277776 -0.019382 13.000000
6.506616 6.252713 -0.010080 39.000000
8.164884 6.278842 -0.011505 13.333333
8.394139 6.247687 -0.011688 11.000000
6.256824 6.392539 -0.009992 13.750000
8.207395 6.393885 -0.011621 5.000000
-16.270693 6.432217 -0.019543 16.500000
6.959616 6.460452 -0.010607 8.500000
9.610664 6.450889 -0.012929 12.250000
9.997086 6.462455 -0.013297 11.000000
-16.348692 6.582133 -0.019686 15.000000
7.350000 6.569422 -0.011011 16.000000
9.522723 6.588929 -0.012935 23.000000
9.641154 6.603806 -0.013053 18.000000
7.127559 6.679192 -0.010911 4.000000
7.662701 6.698735 -0.011369 23.000000
9.207130 6.674652 -0.012703 1.000000
9.567620 6.664539 -0.013024 6.000000
-16.438400 6.738591 -0.019845 15.000000
7.419399 6.747782 -0.011202 11.000000
9.394438 6.743155 -0.012917 3.000000
10.485218 6.731390 -0.013918 3.000000
-16.536022 6.900256 -0.020015 19.500000
6.134181 6.899387 -0.010312 3.000000
7.275329 6.860720 -0.011170 16.000000
8.196387 6.853243 -0.011934 1.000000
6.085400 6.931769 -0.010303 13.000000
6.958643 6.976950 -0.011007 24.750000
7.043816 6.985051 -0.011081 18.000000
5.801765 7.088372 -0.010232 24.000000
5.806202 7.048499 -0.010201 9.000000
6.846851 7.095076 -0.011014 18.000000
7.196164 7.047005 -0.011251 1.000000
5.778452 7.174211 -0.010290 10.500000
6.832833 7.125213 -0.011027 12.000000
9.074510 7.161474 -0.012913 2.000000
9.265252 7.124906 -0.013056 13.000000
6.343061 7.317467 -0.010817 9.000000
6.761273 7.556762 -0.011326 0.000000
-17.574127 7.692561 -0.021429 3.000000
7.099610 7.616024 -0.011630 15.250000
-17.478762 7.760090 -0.021362 9.333333
-17.347588 7.789034 -0.021241 12.000000
-17.264423 7.865975 -0.021192 32.000000
8.332998 7.808801 -0.012756 2.000000
8.922540 7.849686 -0.013275 9.000000
9.086964 7.843657 -0.013409 15.000000
-18.701408 7.942101 -0.022695 4.000000
-18.610512 8.007248 -0.022631 4.000000
-17.143120 7.957572 -0.021111 22.000000
8.860973 7.970029 -0.013313 13.000000
-18.541334 8.069685 -0.022587 3.666667
-17.195887 8.080851 -0.021223 13.500000
-18.468348 8.153219 -0.022550 3.000000
-17.280479 8.220162 -0.021375 19.000000
-17.355022 8.356222 -0.021516 13.500000
-17.432371 8.494802 -0.021661 19.000000
-17.484581 8.588326 -0.021759 14.000000
-17.536379 8.682255 -0.021858 14.000000
-17.587755 8.776603 -0.021956 19.000000
-17.649435 8.876742 -0.022068 14.000000
-17.707090 8.975545 -0.022175 17.000000
-17.780212 9.118272 -0.022320 14.500000
-17.880907 9.276497 -0.022501 20.000000
-17.955587 9.422985 -0.022651 14.000000
-18.029398 9.570266 -0.022800 20.000000
-9.374714 9.648653 -0.015027 20.000000
-18.135584 9.736534 -0.022993 15.500000
-18.947287 10.287539 -0.024083 1.000000
-19.041206 10.416116 -0.024244 1.000000
-19.102974 10.528018 -0.024364 1.000000
-19.136251 10.624868 -0.024449 8.000000
-19.036451 10.647830 -0.024364 20.000000
-18.947147 10.676169 -0.024293 20.000000
-18.882713 10.757381 -0.024275 36.500000
-18.781816 10.856853 -0.024232 21.000000
-18.887455 11.076874 -0.024458 12.000000
-19.007154 11.267686 -0.024681 11.000000
-19.060959 11.380654 -0.024798 18.000000
-19.121096 11.498194 -0.024923 13.000000
-19.201204 11.628665 -0.025075 18.000000
-19.277271 11.757660 -0.025222 12.000000
-19.342487 11.880976 -0.025356 17.000000
3.508984 13.969991 -0.016089 59.333332
3.643958 13.949175 -0.016104 56.333332
3.751839 14.002052 -0.016192 51.000000
3.385252 14.100639 -0.016198 26.000000
3.430684 14.030655 -0.016134 57.000000
3.812567 14.051964 -0.016264 40.000000
-15.990743 18.291832 -0.027139 28.000000
-15.933202 18.341974 -0.027139 17.000000
16.075069 20.457064 -0.029062 34.000000
16.286484 20.548429 -0.029288 22.000000
15.919407 20.612173 -0.029091 7.000000
18.644642 21.103601 -0.031455 6.000000
16.246616 21.173000 -0.029811 9.000000
15.991030 21.251665 -0.029708 47.000000
16.106016 21.265097 -0.029797 39.000000
16.213968 21.268473 -0.029873 12.000000
18.315329 21.263489 -0.031348 23.000000
18.475693 21.246323 -0.031451 21.500000
18.710197 21.312370 -0.031678 8.000000
19.270950 21.402557 -0.032170 15.000000
16.017591 21.426746 -0.029882 32.000000
17.104277 21.441504 -0.030637 35.000000
15.681151 21.535789 -0.029757 50.000000
15.822035 21.586433 -0.029896 37.000000
16.002666 21.547609 -0.029981 38.000000
17.661182 21.577747 -0.031147 5.000000
15.676716 21.672455 -0.029878 41.000000
15.956266 21.626745 -0.030021 12.000000
17.354361 21.615358 -0.030964 11.000000
15.199235 21.868832 -0.029748 16.000000
15.297674 21.863583 -0.029806 14.000000
15.699584 21.848282 -0.030052 7.000000
14.839853 22.234606 -0.029860 1.000000
15.188360 22.298729 -0.030137 11.000000
15.274173 22.273994 -0.030168 16.000000
14.699859 22.327406 -0.029860 12.000000
14.836232 22.381138 -0.029994 13.000000
15.822367 22.462914 -0.030691 3.000000
15.241509 22.528549 -0.030383 16.000000
14.929547 22.832129 -0.030472 24.000000
18.137503 22.883835 -0.032617 1.000000
14.879530 22.912466 -0.030517 28.000000
17.867020 22.984282 -0.032518 11.000000
14.846498 23.019606 -0.030597 10.000000
17.241423 23.063868 -0.032165 5.000000
17.787388 23.030802 -0.032505 16.000000
16.524500 23.303875 -0.031911 140.000000
16.625517 23.290913 -0.031964 54.000000
14.733563 23.324215 -0.030816 34.000000
14.992008 23.406334 -0.031048 18.000000
16.210539 23.323906 -0.031728 12.000000
14.911961 23.443190 -0.031035 17.000000
15.893756 23.492638 -0.031683 12.000000
15.522506 23.576914 -0.031531 15.000000
16.266718 23.562351 -0.031982 12.000000
17.400145 23.583742 -0.032737 16.000000
15.450549 23.628910 -0.031535 23.000000
15.651750 23.611383 -0.031643 6.000000
17.004381 23.664101 -0.032550 10.000000
15.301780 23.725521 -0.031535 24.000000
14.455017 23.868071 -0.031169 2.000000
14.813994 23.948490 -0.031455 11.000000
16.856613 23.931225 -0.032697 48.000000
14.438053 24.181658 -0.031459 3.000000
15.020287 24.112333 -0.031732 13.000000
15.127847 24.115852 -0.031799 38.000000
16.132206 24.170942 -0.032460 36.000000
16.896008 24.147934 -0.032921 2.000000
14.382409 24.261307 -0.031504 4.000000
14.804866 24.273314 -0.031759 40.000000
15.777095 24.294594 -0.032358 13.000000
15.040158 24.485718 -0.032098 5.000000
9.904346 35.188683 -0.040833 19.000000
10.010464 35.142006 -0.040816 2.000000
-0.048318 0.271547 0.041336 7.651757
-0.005357 0.433400 0.005817 112.413483
0.033642 0.578013 0.003391 88.640717
0.105409 0.759187 0.003070 1.000000
-11.838167 -3.325417 0.199607 5.500000
-11.662113 -3.197040 0.196296 6.000000
-11.532256 -3.103004 0.193861 6.000000
-11.456908 -3.044166 0.192433 6.000000
-11.358096 -2.979738 0.190615 6.000000
-11.249973 -2.894850 0.188570 8.000000
-11.133609 -2.808965 0.186395 7.000000
-11.123818 -2.732245 0.185941 51.000000
-11.156356 -2.666053 0.186200 61.000000
-11.213639 -2.568196 0.186746 53.200001
-11.309773 -2.403959 0.187694 54.333332
-11.274947 -2.470706 0.187369 48.000000
-11.380604 -2.269851 0.188382 48.400002
-11.453081 -2.135061 0.189122 51.000000
-12.100520 -1.923020 0.198893 3.000000
-12.030160 -1.970017 0.197887 2.000000
-11.541248 -1.983104 0.190096 45.250000
-12.147525 -1.832774 0.199423 3.000000
-12.163321 -0.906050 0.197995 28.666666
-12.186105 -0.830767 0.198276 37.000000
-12.226974 -0.756359 0.198860 33.333332
-12.299425 -0.625137 0.199915 33.250000
-8.362498 1.060778 0.136837 15.666667
-8.237514 1.102047 0.134911 21.000000
-7.865501 1.077439 0.128873 18.000000
-7.576904 1.062169 0.124198 43.000000
-7.457026 1.081179 0.122316 41.500000
-7.404388 1.109237 0.121537 46.000000
-7.304444 1.182718 0.179269 52.923077
-7.248121 1.272822 0.119459 48.000000
-7.210955 1.341852 0.187432 61.230770
9.480133 1.384695 0.155524 8.000000
-7.200015 1.487220 0.182957 60.000000
9.436461 1.508754 0.155128 21.200001
-7.296764 1.635218 0.142845 47.500000
9.465429 1.687754 0.156076 1.500000
-7.435536 1.768654 0.124069 9.000000
-7.390438 1.733411 0.123225 43.000000
9.226062 1.855255 0.152765 27.000000
9.356375 1.835647 0.154777 43.000000
9.627473 1.832292 0.159088 31.799999
7.219473 1.930707 0.185793 13.000000
8.584192 1.994245 0.143059 2.000000
8.680430 1.959404 0.144455 1.000000
8.862226 1.971200 0.147376 25.000000
9.075435 1.988722 0.150817 36.000000
9.319072 1.919712 0.154453 51.000000
9.536132 1.995676 0.158153 21.000000
7.230472 2.018784 0.121861 10.000000
8.648469 2.009380 0.144130 2.000000
9.665448 2.070293 0.160458 33.500000
8.659472 2.184752 0.144974 1.000000
6.207811 2.286477 0.145544 6.000000
7.382554 2.250038 0.125286 3.250000
7.536632 2.292614 0.127877 59.333332
6.201570 2.313738 0.107448 25.000000
7.345951 2.403990 0.125471 6.600000
9.075337 2.350422 0.152180 23.000000
9.827546 2.381156 0.164148 24.000000
6.951808 2.457619 0.183373 1.000000
7.271364 2.481040 0.124718 26.000000
7.328106 2.500401 0.125692 8.500000
8.394414 2.457879 0.141987 1.000000
9.187834 2.410383 0.154193 18.000000
9.319368 2.476209 0.156530 50.000000
9.925621 2.437779 0.165912 25.500000
10.320019 2.466190 0.172242 4.000000
6.816598 2.575814 0.118290 33.333332
8.920741 2.581588 0.150752 12.000000
9.581890 2.578217 0.161075 41.000000
6.847844 2.628641 0.119070 0.000000
9.585320 2.611461 0.161270 31.000000
10.371614 2.720942 0.174060 6.000000
5.725331 2.898336 0.104170 14.000000
8.959804 2.838775 0.152570 45.000000
9.132785 2.862041 0.155362 77.000000
9.686638 2.869313 0.163997 15.000000
10.056124 2.858890 0.169710 10.500000
5.562528 2.993953 0.184927 14.250000
5.687261 2.950515 0.104007 10.666667
6.662237 2.962047 0.118355 4.500000
8.322924 2.927698 0.143221 50.000000
8.532261 2.971248 0.146662 80.000000
8.994614 2.990409 0.153868 17.250000
9.122240 2.921807 0.155492 52.000000
9.837742 2.998403 0.166951 11.000000
5.447331 3.054249 0.101378 2.500000
6.536190 3.017375 0.116862 2.000000
6.805030 3.064014 0.121147 21.000000
8.634022 3.067647 0.148740 77.000000
8.987725 3.098231 0.154323 28.000000
10.121858 3.102291 0.171852 4.000000
5.426797 3.126734 0.148745 11.142858
5.817749 3.190406 0.107708 6.000000
9.862604 3.193140 0.168281 0.000000
7.183825 3.288949 0.128256 31.000000
8.933069 3.242552 0.154269 39.333332
8.077697 3.365729 0.142052 14.000000
8.119964 3.323575 0.142426 15.500000
5.670861 3.479111 0.136893 9.250000
7.200011 3.426322 0.129439 19.714285
8.034354 3.416975 0.141728 6.333333
7.301947 3.567710 0.131924 0.000000
9.667280 3.676117 0.167892 0.000000
5.709756 3.793552 0.111279 33.000000
7.628479 3.806710 0.138395 28.000000
5.259120 3.907924 0.106361 24.000000
5.764056 3.842669 0.172565 26.500000
7.022449 3.879799 0.130236 12.000000
7.576063 3.895338 0.138287 11.750000
7.674638 3.824487 0.139196 9.500000
9.863455 3.965084 0.172566 0.000000
5.298721 4.052050 0.108283 22.000000
5.728158 4.097935 0.114330 5.000000
6.168962 4.070771 0.119978 31.000000
7.562324 4.018302 0.139014 22.799999
8.645049 4.073488 0.155134 9.250000
9.012280 4.074855 0.160556 3.500000
10.417153 4.036405 0.181353 2.333333
5.450172 4.136562 0.190433 24.000000
5.705298 4.177255 0.114785 67.000000
6.206698 4.208573 0.121731 34.000000
6.345431 4.139595 0.122987 23.666666
6.408581 4.142725 0.123874 16.000000
7.632266 4.123308 0.140819 6.000000
9.487338 4.155755 0.168135 8.000000
9.608409 4.110232 0.169645 2.000000
8.620753 4.212075 0.155751 36.000000
8.719505 4.260388 0.157537 9.500000
6.400969 4.399264 0.126081 1.000000
7.430030 4.352202 0.139780 37.000000
7.557758 4.395190 0.141923 52.000000
8.862796 4.399529 0.160620 5.000000
6.415797 4.469142 0.126925 3.500000
7.318908 4.506145 0.139520 7.000000
7.232783 4.515971 0.138417 26.666666
7.695336 4.540139 0.145039 92.000000
7.976776 4.605393 0.149519 12.000000
8.230414 4.513491 0.152375 31.000000
10.520578 4.520052 0.185876 19.000000
10.777448 4.570315 0.190031 3.000000
7.870138 4.676663 0.148610 50.000000
8.183496 4.622459 0.152570 23.000000
8.276242 4.617843 0.153847 35.666668
8.559739 4.647499 0.158110 35.333332
11.167748 4.653259 0.196393 5.000000
6.571840 4.753734 0.131665 36.000000
7.956040 4.778497 0.150655 51.000000
8.265808 4.720457 0.154518 24.500000
8.512916 4.738227 0.158153 39.000000
9.072100 4.754883 0.166269 4.000000
5.325697 4.897229 0.117446 19.000000
10.971854 4.816308 0.194511 2.000000
5.407428 4.961921 0.119134 39.000000
6.060878 4.971404 0.127250 20.000000
6.154243 4.967570 0.128386 15.000000
7.826016 4.955053 0.150363 21.000000
8.167596 4.958169 0.155102 4.000000
5.406045 5.034167 0.119914 2.000000
5.706454 5.036221 0.123549 34.500000
6.288466 5.027208 0.130691 22.000000
6.420104 5.099467 0.133093 45.000000
7.700390 5.046675 0.149454 0.000000
7.873319 5.037133 0.151726 40.500000
8.150917 5.107086 0.156141 39.000000
8.285059 5.065164 0.157634 4.000000
5.690949 5.167482 0.124783 20.000000
6.013170 5.256721 0.129652 39.000000
6.218772 5.300081 0.132638 18.000000
8.057750 5.208803 0.155751 12.000000
4.623394 5.394970 0.164616 7.600000
5.981304 5.363062 0.130409 44.333332
6.229414 5.343026 0.133223 14.000000
6.302538 5.337381 0.134067 4.000000
7.119016 5.315978 0.144227 14.000000
4.528476 5.444995 0.176415 12.650000
5.686252 5.413209 0.127445 15.500000
7.847064 5.447772 0.155070 9.500000
5.722615 5.522450 0.129100 24.000000
5.935936 5.562529 0.132054 35.000000
6.391224 5.516757 0.137053 8.000000
7.038887 5.554989 0.145558 5.000000
6.530868 5.673195 0.140429 3.000000
8.069532 5.715658 0.160523 7.500000
7.266990 5.922590 0.152180 4.000000
6.293975 6.010452 0.141273 41.000000
5.739819 6.176527 0.136875 9.000000
5.819034 6.144857 0.137378 2.000000
8.030762 6.135762 0.164061 20.000000
5.714848 6.267404 0.137686 6.000000
8.089581 6.302104 0.166464 13.000000
8.247777 6.260404 0.168087 13.000000
8.988707 6.303316 0.178215 25.000000
9.387756 6.279810 0.183344 2.000000
8.136757 6.400781 0.168054 16.500000
8.871046 6.356852 0.177160 9.000000
5.595942 6.428281 0.138352 17.333334
6.447101 6.433695 0.147852 8.333333
7.995038 6.453486 0.166788 3.500000
9.106088 6.428400 0.180942 10.000000
9.316951 6.489930 0.184318 2.000000
9.461717 6.415742 0.185573 2.333333
6.461490 6.550072 0.149356 13.500000
7.816187 6.549230 0.165533 21.333334
7.935566 6.578823 0.167329 10.000000
7.874358 6.668496 0.167502 56.000000
10.097793 6.893414 0.198471 2.000000
6.292823 7.077819 0.153739 7.000000
8.423432 7.201956 0.179903 12.500000
8.433965 7.303157 0.181104 17.000000
9.237401 7.243048 0.190550 1.000000
5.610859 7.359975 0.150233 0.000000
5.706456 7.364673 0.151239 15.500000
5.827662 7.329215 0.152002 14.250000
6.936399 7.347820 0.164029 23.500000
7.047813 7.349411 0.165295 18.500000
5.806412 7.421184 0.152960 34.000000
8.119564 7.489895 0.179318 3.500000
7.776797 7.760526 0.178345 2.000000
7.609360 7.835814 0.177306 12.000000
7.198897 7.995185 0.174644 0.000000
7.754137 7.934869 0.180098 10.000000
8.521599 7.985537 0.189576 3.000000
8.537206 8.050685 0.190485 0.000000
-14.549810 -10.936201 0.295466 6.000000
-14.437593 -10.958728 0.294233 7.000000
-14.623650 -10.884260 0.295921 7.000000
-15.005105 -10.734684 0.299492 0.000000
-15.080001 -10.681154 0.299979 0.500000
-14.963633 -10.376827 0.295596 22.666666
-14.971014 -10.220212 0.294254 50.666668
-15.146338 -10.097462 0.295499 33.000000
-15.037204 -10.127456 0.294298 57.000000
-16.901142 -7.042189 0.297219 3.000000
-16.723562 -6.906621 0.293713 3.000000
-16.526794 -6.764657 0.289883 3.000000
-16.344128 -6.630019 0.286312 3.000000
-16.160780 -6.496589 0.282741 3.000000
-15.991615 -6.370305 0.279430 3.000000
-15.821822 -6.245148 0.276119 4.000000
-15.651402 -6.121115 0.272808 3.000000
-15.495277 -6.004002 0.269757 3.000000
-15.319904 -5.880757 0.266381 3.000000
-15.173818 -5.770054 0.263524 4.000000
-15.019701 -5.657508 0.260538 3.000000
-14.868779 -5.547379 0.257616 4.000000
-14.724816 -5.441034 0.254824 3.000000
-14.576580 -5.334268 0.251968 3.000000
-14.431578 -5.229856 0.249176 4.000000
-14.301122 -5.131813 0.246644 4.000000
-14.162659 -5.031956 0.243982 4.000000
-14.035028 -4.937009 0.241515 4.000000
-13.910721 -4.844223 0.239113 4.000000
-13.782187 -4.750969 0.236646 4.000000
-13.656992 -4.659863 0.234244 4.000000
-13.477812 -4.528049 0.230803 4.000000
-13.301599 -4.399080 0.227427 4.000000
-13.186113 -4.314981 0.225219 7.000000
-13.027326 -4.195273 0.222168 4.500000
-12.852551 -4.072134 0.218857 4.000000
-12.758421 -3.998244 0.217039 5.000000
-12.652493 -3.921441 0.215026 5.000000
-12.553856 -3.847687 0.213144 5.000000
-12.403317 -3.737782 0.210287 5.500000
-12.255938 -3.630371 0.207495 5.000000
-12.159809 -3.560385 0.205677 5.000000
-12.055678 -3.488814 0.203730 6.000000
-11.974292 -3.424526 0.202171 6.000000
-12.207657 -1.763499 0.200224 3.000000
-12.242857 -1.670482 0.200581 2.500000
-12.315474 -1.523011 0.201441 2.250000
-12.382336 -1.373519 0.202236 3.000000
-12.445385 -1.222416 0.202999 2.250000
-12.407870 -1.120469 0.202236 5.000000
-12.285760 -1.031690 0.200137 69.333336
-12.385240 -0.473565 0.201198 31.250000
-12.468177 -0.319889 0.202464 30.750000
-12.559193 -0.164326 0.203892 28.000000
-12.898231 -0.026931 0.209378 12.333333
-12.962179 0.054299 0.210417 12.000000
-13.040190 0.136625 0.211694 11.666667
-13.172144 0.282943 0.213874 11.000000
-13.297857 0.431917 0.215979 10.333333
-13.439211 0.605637 0.218381 8.666667
-13.376189 0.518538 0.217299 9.000000
-13.488444 0.692733 0.219246 9.000000
-13.353239 0.748874 0.217104 34.000000
-13.296379 0.829511 0.216260 34.000000
-13.177186 0.905239 0.214410 19.500000
-13.234796 1.055658 0.215524 23.833332
-8.210890 1.019802 0.277802 12.333333
-7.454957 1.062907 0.285588 35.500000
-13.309291 1.187874 0.216909 23.666666
-13.369244 1.299109 0.218045 23.500000
-7.233195 1.246791 0.246438 49.000000
-13.404771 1.366336 0.218727 22.000000
-13.476023 1.480743 0.220074 22.250000
8.539021 1.501833 0.291102 5.250000
-13.536563 1.594972 0.221259 22.000000
-7.222160 1.574685 0.248183 49.000000
8.532629 1.576806 0.291337 0.000000
-13.582468 1.665340 0.222135 19.000000
8.417213 1.617094 0.287780 15.250000
6.715086 1.784237 0.233284 4.000000
7.195257 1.767355 0.248765 11.333333
6.875248 1.896342 0.239458 2.000000
7.010675 1.839216 0.243351 0.000000
6.774820 1.972095 0.236908 36.000000
6.934113 2.053977 0.242814 36.000000
7.771111 2.196074 0.271136 34.000000
8.312819 2.125064 0.288082 27.000000
7.186449 2.229925 0.252639 22.600000
7.183905 2.400962 0.254319 11.714286
8.471057 2.365161 0.295296 11.000000
6.093592 2.494196 0.221069 2.000000
5.581396 3.088144 0.214170 19.600000
8.304427 3.038989 0.296907 32.000000
6.831934 3.179979 0.253015 0.000000
6.937671 3.149931 0.288835 20.750000
7.051733 3.175169 0.259659 18.000000
8.253150 3.153242 0.296638 32.000000
5.495281 3.242138 0.214224 0.000000
5.533035 3.241022 0.215298 3.000000
-14.610382 3.475299 0.243787 6.000000
7.108363 3.431904 0.265028 0.500000
7.212833 3.496143 0.269122 2.000000
7.361124 3.473293 0.273283 24.333334
7.802409 3.410410 0.285900 25.500000
8.118883 3.412865 0.295699 32.000000
8.236582 3.431932 0.299591 43.000000
-14.654235 3.583253 0.244891 16.333334
7.210379 3.588653 0.270420 2.000000
-14.716839 3.696614 0.246319 16.000000
8.025157 3.704744 0.296773 0.000000
-14.751665 3.754665 0.247098 14.000000
5.932771 3.730283 0.235297 31.000000
6.624670 3.797056 0.256371 11.000000
6.746270 3.768846 0.259458 29.500000
-14.816710 3.870607 0.248592 16.666666
5.961131 3.893459 0.239056 31.000000
6.128006 3.907009 0.202142 14.666667
6.601954 3.895081 0.257377 6.000000
7.291993 3.865805 0.277109 4.500000
-14.881024 3.987358 0.250085 15.000000
5.458303 4.005185 0.227311 22.166666
5.569620 3.984516 0.229928 10.000000
6.256421 3.988850 0.249123 12.000000
6.317472 3.944530 0.250062 43.000000
-14.931491 4.076429 0.251254 15.500000
5.867768 4.032806 0.239056 10.000000
6.523669 4.010888 0.257122 26.200001
-14.999947 4.196564 0.252844 15.000000
5.942343 4.166982 0.243686 6.000000
7.442683 4.234908 0.287511 10.000000
7.595183 4.290151 0.292880 3.000000
7.745904 4.216192 0.296102 1.000000
-15.073247 4.319371 0.254532 14.000000
5.624110 4.353102 0.238787 1.666667
6.559497 4.373024 0.264693 6.000000
-15.446301 4.505112 0.261187 0.000000
6.553454 4.428652 0.265565 24.000000
-15.478104 4.567196 0.261966 0.000000
-15.505834 4.628386 0.262680 0.000000
5.152332 4.619585 0.232344 27.000000
5.283018 4.677307 0.236908 37.000000
6.632504 4.651012 0.271986 5.666667
-15.602590 4.764276 0.264823 0.000000
5.442594 4.734443 0.242203 28.777779
6.540025 4.709877 0.270599 19.000000
6.447967 4.878317 0.271471 7.000000
-15.987366 5.102219 0.272419 1.000000
6.029816 5.084754 0.264827 24.666666
6.387866 5.024934 0.272880 12.500000
-17.670837 5.184021 0.298940 3.000000
-16.016933 5.167151 0.273198 6.000000
6.206047 5.123151 0.270196 19.000000
-17.565136 5.273100 0.297706 4.000000
-15.851164 5.223815 0.270925 21.666666
-15.757416 5.302956 0.269887 17.000000
6.300621 5.234592 0.275028 3.000000
-17.476988 5.336577 0.296635 4.000000
-17.377508 5.405807 0.295423 3.000000
-15.697235 5.392810 0.269432 14.666667
6.609261 5.403804 0.286639 96.000000
-17.307682 5.463737 0.294622 3.000000
-17.244713 5.503489 0.293843 3.000000
-15.807900 5.597871 0.272224 14.000000
-15.757471 5.524366 0.271055 12.000000
-15.845293 5.695339 0.273327 16.500000
-15.919765 5.806908 0.275080 13.000000
-15.961489 5.879014 0.276119 17.000000
6.513772 5.858909 0.294155 11.000000
-16.008497 5.982206 0.277418 11.500000
-16.073664 6.092976 0.279041 12.000000
-16.117945 6.167739 0.280144 17.000000
6.015791 6.194821 0.289927 26.000000
-16.180012 6.279114 0.281735 11.500000
6.023906 6.262020 0.291739 38.500000
-16.266701 6.430635 0.283942 14.500000
5.976634 6.472263 0.295788 11.666667
-16.350254 6.582776 0.286117 13.000000
5.946649 6.542231 0.296840 5.500000
-16.439941 6.739230 0.288422 13.500000
-16.513309 6.860307 0.290273 15.000000
10.330194 6.863364 0.201327 5.000000
-16.561760 6.941522 0.291506 17.000000
-9.399710 9.628866 0.218435 23.000000
-9.361189 9.680258 0.218597 11.000000
3.512466 13.983712 0.234049 56.000000
3.623982 13.962366 0.234162 54.250000
3.439612 14.067646 0.235088 52.666668
3.788989 14.052200 0.236256 42.500000
3.375340 14.190165 0.236776 0.000000
19.974850 -11.841347 0.376945 2.000000
-16.340893 -11.768090 0.326889 29.000000
19.977486 -11.758248 0.376296 33.000000
-16.328087 -11.542048 0.324591 52.200001
-16.461369 -11.466535 0.325656 41.000000
-15.246156 -11.199412 0.307088 0.000000
-15.305592 -11.022505 0.306179 14.000000
-15.267652 -11.068185 0.306114 12.000000
-16.113283 -10.560307 0.312736 8.000000
-15.893086 -10.487523 0.309100 11.000000
-19.975266 -9.297646 0.357663 2.000000
-19.702982 -9.095715 0.352274 3.000000
-19.433273 -8.897243 0.346951 2.000000
-19.162508 -8.700566 0.341627 3.000000
-18.908939 -8.513891 0.336628 3.000000
-18.658043 -8.330517 0.331694 2.000000
-18.431780 -8.160148 0.327214 3.000000
-18.197313 -7.988059 0.322604 2.000000
-17.969280 -7.820725 0.318125 3.000000
-17.747723 -7.658074 0.313775 3.000000
-17.529005 -7.498458 0.309490 3.000000
-17.313137 -7.341862 0.305270 3.000000
-17.118587 -7.195988 0.301439 3.000000
-11.459693 -3.044906 0.398113 7.000000
-11.372530 -2.983525 0.394757 7.000000
-11.247055 -2.894096 0.389925 8.500000
-11.136557 -2.809709 0.385630 8.000000
-11.120312 -2.731388 0.384467 47.000000
-11.159319 -2.666761 0.385227 62.000000
-11.208022 -2.566907 0.386059 51.400002
-11.275890 -2.452341 0.387442 48.500000
-11.312588 -2.385993 0.388180 51.500000
-11.378045 -2.269346 0.389549 45.799999
-11.454033 -2.135243 0.391200 48.833336
-11.539225 -1.982749 0.393113 42.250000
-7.592796 1.024858 0.340463 27.500000
-7.364121 1.085434 0.346901 44.750000
-7.282235 1.149427 0.375665 52.750000
-7.222564 1.221568 0.373256 58.666668
-7.170571 1.328943 0.371608 62.000000
-7.162538 1.479473 0.372679 55.166668
-7.223555 1.598826 0.376988 48.333332
9.352650 1.576836 0.318450 5.000000
9.481151 1.522135 0.322410 15.000000
-7.302003 1.669217 0.303509 43.799999
-7.416149 1.770228 0.355419 30.000000
-7.357306 1.725640 0.319373 42.000000
10.082067 1.781370 0.343752 0.000000
6.988146 1.856790 0.368438 49.000000
7.070600 1.846945 0.372374 26.666666
6.998890 1.954125 0.370270 40.000000
7.098309 1.927796 0.374799 37.750000
9.799035 1.986514 0.335698 10.000000
6.724396 2.107298 0.359075 1.000000
7.227053 2.085170 0.318286 28.500000
10.252101 2.095104 0.351335 12.000000
7.356225 2.128830 0.390219 46.000000
9.384540 2.139043 0.323170 23.333334
10.144535 2.189620 0.348449 0.000000
6.772383 2.252490 0.363682 31.454546
6.949084 2.237815 0.372001 16.000000
9.556662 2.252017 0.329658 44.000000
9.731803 2.293328 0.335698 78.000000
10.260162 2.248355 0.352664 17.200001
6.291664 2.347352 0.342179 0.000000
6.651435 2.351418 0.359482 23.000000
6.725258 2.361905 0.363214 16.166666
9.678348 2.345016 0.334356 53.000000
10.310632 2.327384 0.354892 15.000000
6.196419 2.468376 0.339872 18.833332
6.745215 2.468398 0.365996 0.000000
9.865149 2.456001 0.341336 45.000000
10.373890 2.479064 0.358114 29.000000
10.278257 2.558801 0.355631 12.000000
10.042531 2.719077 0.349322 9.000000
5.515539 2.935134 0.318363 2.000000
8.607718 2.982456 0.305866 38.750000
9.321306 2.985633 0.328629 7.666667
6.982994 3.021826 0.387708 30.666666
7.173125 3.068480 0.397547 69.000000
8.418322 3.035706 0.300464 32.500000
8.725758 3.054030 0.310397 55.500000
9.244155 3.025027 0.326571 6.000000
5.768281 3.186894 0.335801 5.666667
8.409069 3.144907 0.301437 20.000000
5.415781 3.301653 0.323208 10.400000
5.615124 3.289135 0.331594 38.000000
5.713233 3.242846 0.334750 17.500000
6.873058 3.318110 0.388896 8.000000
7.041710 3.345146 0.397242 29.500000
5.703880 3.413702 0.338719 2.000000
8.656736 3.450973 0.312902 23.250000
5.274616 3.576476 0.324741 18.000000
8.257168 3.532089 0.301538 28.000000
8.376623 3.583305 0.305900 30.000000
8.531839 3.513032 0.309793 29.666666
5.160859 3.612905 0.321009 25.250000
6.031841 3.635768 0.358871 10.000000
9.865792 3.680820 0.353550 0.000000
5.407289 3.741393 0.335055 56.000000
5.930861 3.716133 0.356632 19.500000
6.026206 3.841881 0.364164 12.000000
8.136734 3.881024 0.302679 76.000000
9.748619 3.830260 0.351671 14.500000
4.956505 4.000812 0.324572 6.500000
5.123807 3.940167 0.329355 4.000000
5.819612 3.946109 0.358286 15.250000
10.225080 3.961941 0.368181 3.000000
4.870030 4.058997 0.323045 16.000000
5.253562 4.066276 0.338515 3.000000
5.714992 4.088516 0.358057 6.000000
10.135291 4.037421 0.366301 13.000000
5.569201 4.172455 0.354596 0.500000
8.188640 4.129207 0.307913 54.000000
8.670157 4.180129 0.323170 35.000000
9.077755 4.190667 0.335698 25.000000
9.148342 4.171000 0.337577 26.000000
9.282195 4.126884 0.341067 7.500000
10.222707 4.109502 0.369926 5.000000
5.998080 4.262613 0.374952 70.000000
8.646275 4.241423 0.323349 33.500000
9.180525 4.273149 0.339993 12.000000
8.448009 4.377132 0.319457 9.500000
8.544760 4.359442 0.322074 28.000000
8.851810 4.394076 0.331806 28.000000
8.290157 4.445143 0.315833 5.000000
8.418036 4.445883 0.319636 13.333333
8.988121 4.496993 0.337443 20.000000
9.500008 4.458219 0.352342 3.000000
5.489688 4.619473 0.365588 14.000000
7.857287 4.635688 0.306303 70.000000
5.418740 4.767220 0.367760 9.000000
6.194169 4.763267 0.398158 21.000000
8.086696 4.805348 0.315833 55.000000
8.325130 4.789390 0.322477 1.000000
8.260716 4.955768 0.323439 39.333332
8.396140 4.918110 0.326705 22.000000
8.253590 5.028084 0.324490 17.000000
9.773783 5.064038 0.369590 5.500000
8.053769 5.170428 0.321336 10.000000
8.230746 5.175156 0.326436 4.000000
9.535336 5.151436 0.363885 2.000000
8.038213 5.304251 0.323349 8.000000
9.370410 5.292890 0.361335 5.000000
4.621141 5.399202 0.362128 12.000000
7.334373 5.317008 0.304155 14.000000
4.539117 5.437462 0.360924 20.875000
7.363189 5.480360 0.308182 16.000000
7.826930 5.452022 0.320262 27.000000
7.936069 5.491097 0.324020 51.000000
7.800156 5.524812 0.320933 18.500000
6.965520 5.640567 0.300934 54.000000
7.064188 5.683815 0.304424 56.000000
7.644798 5.677591 0.319725 5.666667
7.798721 5.616343 0.322678 15.000000
7.610537 5.776712 0.320799 17.000000
8.421122 5.787676 0.343080 18.000000
8.522388 5.804841 0.346212 11.666667
9.044796 5.746584 0.359792 5.000000
7.381649 5.882154 0.316906 34.500000
7.513917 5.809467 0.318897 32.666668
9.064834 5.859816 0.362409 3.000000
9.187488 5.898262 0.366570 10.000000
7.537738 5.910342 0.321604 15.000000
6.541798 6.091793 0.300128 8.000000
7.269497 6.020208 0.316906 3.000000
6.543704 6.347986 0.306101 10.000000
9.503319 6.335514 0.383482 7.000000
6.589080 6.493092 0.310598 13.500000
6.221901 6.529076 0.302813 72.000000
6.675482 6.661515 0.316638 16.000000
6.714357 6.616635 0.316504 49.000000
6.434039 6.826445 0.314960 28.250000
7.279318 6.886129 0.336436 1.000000
6.905925 6.956761 0.329121 19.500000
6.969317 7.146762 0.335161 18.000000
5.975645 7.324240 0.317376 1.500000
-17.563663 7.655216 0.311016 1.500000
-17.484997 7.762864 0.310550 6.666667
-17.360409 7.827505 0.309133 42.000000
-18.706318 7.944186 0.329908 3.000000
-17.205725 7.920940 0.307477 21.000000
8.738553 7.984991 0.397442 6.000000
-18.579016 8.045582 0.328658 3.750000
-17.197250 8.081492 0.308451 13.000000
-18.476904 8.156996 0.327863 2.000000
7.118278 8.185751 0.364221 10.000000
-17.281824 8.220802 0.310658 17.000000
-17.350948 8.354250 0.312606 12.500000
-17.433681 8.495440 0.314814 16.000000
8.322266 8.462888 0.398516 9.000000
-17.482288 8.587201 0.316177 13.000000
-17.534081 8.681117 0.317605 13.000000
-17.581871 8.773666 0.318969 16.000000
-17.647120 8.875577 0.320657 13.000000
-17.694067 8.968944 0.322020 16.000000
-17.747717 9.066339 0.323513 14.000000
-17.804489 9.165982 0.325071 13.000000
-17.875011 9.273438 0.326889 18.000000
-17.953238 9.421744 0.329129 12.500000
-18.034101 9.572762 0.331434 18.000000
-18.140253 9.739040 0.334226 14.500000
-18.899109 10.261380 0.349093 1.000000
-18.993095 10.389797 0.351430 1.000000
-19.093464 10.522777 0.353897 1.000000
-19.147730 10.631241 0.355521 7.000000
-18.996281 10.664522 0.353638 16.500000
-18.883713 10.757950 0.352794 36.500000
-18.786282 10.859428 0.352242 19.500000
-18.886700 11.076435 0.355423 12.500000
-18.987459 11.256011 0.358312 10.000000
-19.055025 11.377112 0.360260 16.000000
-19.115160 11.494624 0.362078 12.000000
-19.195265 11.625068 0.364285 16.000000
-19.315874 11.822990 0.367629 13.500000
-15.999175 18.301477 0.394604 18.000000
-15.936357 18.345608 0.394475 25.000000
-9.167255 -23.512787 0.409667 47.000000
-9.437995 -23.442047 0.410218 23.500000
-9.249996 -23.398634 0.408433 59.000000
-14.036514 -4.937532 0.499587 4.000000
-13.912269 -4.844761 0.494621 5.000000
-13.787579 -4.752828 0.489655 4.000000
-13.666234 -4.663017 0.484823 5.000000
-13.479576 -4.528642 0.477440 4.500000
-13.314837 -4.403459 0.470863 4.000000
-13.184223 -4.314363 0.465763 8.000000
-13.029315 -4.195914 0.459588 4.500000
-12.862250 -4.075206 0.453011 5.000000
-12.760547 -3.998910 0.448984 5.000000
-12.650852 -3.920932 0.444689 7.000000
-12.544618 -3.844856 0.440528 5.000000
-12.401792 -3.737329 0.434891 5.000000
-12.258316 -3.631076 0.429253 5.000000
-12.166072 -3.562219 0.425629 5.000000
-12.061997 -3.490643 0.421602 5.000000
-11.972969 -3.424148 0.418113 6.000000
-11.834984 -3.324519 0.412744 5.500000
-11.666721 -3.198299 0.406166 6.500000
-11.535001 -3.103743 0.401066 6.000000
-12.095300 -1.922184 0.411200 3.000000
-11.993407 -1.963998 0.408046 2.000000
-12.154339 -1.814265 0.412609 2.750000
-12.195991 -1.722720 0.413549 3.000000
-12.236911 -1.650129 0.414578 2.666667
-12.312143 -1.522593 0.416535 2.250000
-12.376988 -1.372961 0.418113 2.000000
-12.436036 -1.221504 0.419555 2.000000
-12.470202 -1.126098 0.420394 3.000000
-12.294119 -1.051833 0.414287 48.000000
-12.257116 -0.990489 0.412878 12.000000
-12.154085 -0.905362 0.409209 27.666666
-12.184835 -0.830681 0.410059 34.000000
-12.223028 -0.756115 0.411178 31.666666
-12.295116 -0.624920 0.413348 32.250000
-12.378899 -0.473308 0.415931 30.750000
-12.457652 -0.339232 0.418426 30.000000
-12.502212 -0.261886 0.419857 30.000000
-12.553774 -0.164243 0.421535 28.000000
-13.076452 -0.068471 0.439052 10.000000
-13.195182 0.013874 0.443034 8.000000
-13.267752 0.138991 0.445495 8.000000
-13.350314 0.286740 0.448347 8.000000
-13.427972 0.436121 0.451087 8.000000
-13.501819 0.565940 0.453727 8.000000
-13.567526 0.675442 0.456098 8.000000
-13.460423 0.733704 0.452608 11.000000
-13.342309 0.769311 0.448716 26.000000
-13.292636 0.829281 0.447172 29.500000
-13.173495 0.904983 0.443347 20.000000
-8.256930 0.894095 0.423195 7.000000
-13.233734 1.055579 0.445741 25.500000
-13.306201 1.187619 0.448537 25.000000
-13.365465 1.298738 0.450864 25.000000
-13.402965 1.366152 0.452340 24.000000
-7.153382 1.327065 0.497530 61.000000
8.812694 1.329648 0.454136 2.000000
-13.468222 1.479880 0.454924 24.000000
-7.144435 1.477062 0.498901 56.000000
-13.538662 1.595220 0.457709 24.000000
-13.580574 1.665121 0.459387 10.500000
9.390182 1.659123 0.485891 34.000000
9.483215 1.706299 0.490980 25.000000
-13.626136 1.735880 0.461199 9.000000
8.672112 1.758058 0.450879 4.000000
9.411479 1.764745 0.487926 20.666666
-14.225176 1.903099 0.481870 1.000000
-14.183516 1.852184 0.480259 1.000000
8.615974 1.817192 0.448691 27.750000
9.522524 1.878617 0.494576 38.333332
9.608008 1.822400 0.498308 8.000000
8.500587 1.946894 0.444365 27.000000
8.537275 1.911158 0.445790 35.285713
8.336725 2.075519 0.437770 29.400000
8.414449 2.095002 0.441855 17.333334
8.597058 2.025922 0.450065 1.000000
8.784923 2.099346 0.460243 80.000000
6.921948 2.251742 0.497764 8.500000
9.413605 2.218343 0.492812 31.000000
8.138760 2.443349 0.433000 17.000000
8.861128 2.429196 0.468181 3.000000
6.355197 2.512924 0.467336 48.000000
6.596091 2.533136 0.483191 39.599998
8.307727 2.569094 0.443103 13.800000
6.458575 2.630468 0.476887 4.500000
8.294016 2.642167 0.443551 4.000000
6.280448 2.714572 0.467882 20.750000
6.315500 2.794722 0.472275 29.200001
6.457610 2.881869 0.483573 39.000000
5.667051 3.083407 0.441183 29.666666
6.487037 3.080303 0.491078 2.000000
5.895044 3.159570 0.457375 24.000000
6.564188 3.154899 0.498037 0.000000
6.447355 3.278351 0.494626 16.625000
7.416490 3.305129 0.413741 29.111111
7.667757 3.237441 0.424111 44.500000
8.391806 3.297137 0.459428 8.000000
9.077780 3.289694 0.491997 0.000000
9.187194 3.280543 0.497086 22.000000
5.526573 3.377408 0.442912 11.000000
5.751489 3.391891 0.456611 30.400000
6.020242 3.332920 0.470565 16.000000
7.138770 3.350123 0.401822 4.000000
8.141470 3.362499 0.448843 19.500000
8.634475 3.345625 0.471845 5.000000
9.173093 3.389590 0.498308 32.000000
5.047917 3.410005 0.416577 36.000000
5.211565 3.484888 0.428721 15.000000
5.473747 3.428482 0.441684 14.000000
5.848727 3.443104 0.464130 18.500000
7.424509 3.455797 0.417292 56.000000
7.547765 3.484360 0.423602 25.000000
9.054512 3.421398 0.493219 13.666667
5.145526 3.511356 0.425992 17.000000
5.451378 3.541523 0.444549 31.000000
5.793032 3.515298 0.463379 7.000000
5.841647 3.519737 0.466381 10.000000
7.156784 3.524678 0.406503 2.000000
5.551593 3.687073 0.455738 28.000000
7.094102 3.803824 0.410167 39.000000
7.252371 3.743227 0.415867 21.000000
8.545619 3.719288 0.474899 4.000000
7.167265 3.877012 0.415222 31.250000
7.452580 3.876295 0.428047 36.000000
5.340072 3.947120 0.454101 17.000000
5.645453 3.913514 0.469747 11.000000
7.495833 3.958794 0.431948 42.000000
5.137295 4.058657 0.447733 21.555555
5.282592 4.060683 0.455647 9.333333
5.386427 4.042906 0.460559 8.000000
5.584105 4.031388 0.470981 18.285715
8.099100 4.052192 0.461464 71.000000
8.429773 4.086009 0.477341 1.000000
5.167564 4.183117 0.454646 4.000000
5.242054 4.108818 0.455465 22.000000
7.218953 4.122630 0.423602 14.000000
8.432597 4.152957 0.478970 34.333332
5.483035 4.214888 0.472930 1.000000
7.768023 4.307669 0.452609 17.500000
6.726243 4.378095 0.408946 7.000000
8.662657 4.385277 0.494745 36.000000
5.292677 4.503448 0.475223 28.600000
5.419215 4.488399 0.481195 28.857143
6.687299 4.473376 0.409964 24.000000
6.711302 4.458978 0.410575 26.000000
8.640113 4.425176 0.494644 31.000000
11.411434 4.462904 0.411401 2.000000
11.590722 4.575058 0.418381 0.000000
6.520383 4.610011 0.476246 12.500000
6.817767 4.622920 0.419735 5.000000
6.356589 4.877470 0.408268 56.000000
6.468434 4.877856 0.412814 20.000000
6.509359 4.834269 0.413153 31.333334
6.664848 4.852914 0.420108 23.333334
8.306499 4.953669 0.492812 32.500000
11.152996 4.937671 0.409522 0.000000
6.653544 5.050315 0.425638 30.000000
6.938101 5.096542 0.438665 25.000000
8.260393 5.049958 0.493341 18.799999
6.292378 5.128282 0.413628 15.000000
6.447039 5.120862 0.419531 65.000000
7.073485 5.127879 0.445179 4.000000
7.763848 5.123256 0.473983 5.500000
8.179197 5.151750 0.492557 8.750000
6.359079 5.232817 0.419633 10.500000
6.581420 5.227728 0.428284 61.000000
7.470421 5.238621 0.464924 13.000000
4.622487 5.398867 0.486030 8.000000
6.310444 5.344077 0.421363 26.000000
6.686783 5.345636 0.436223 28.000000
4.535106 5.451059 0.484911 12.600000
6.962319 5.441533 0.450268 38.500000
10.580139 5.545279 0.401066 4.000000
6.754125 6.152299 0.465535 17.000000
6.928773 6.173311 0.472863 13.000000
6.876939 6.284150 0.474695 27.500000
5.696950 6.387432 0.436121 22.500000
6.794274 6.326901 0.473067 45.000000
7.069958 6.339057 0.483855 26.000000
5.630346 6.454186 0.436426 1.000000
5.866307 6.474200 0.445179 8.333333
6.347063 6.454310 0.461260 16.000000
6.621715 6.484463 0.472252 2.000000
6.773724 6.414725 0.475374 39.000000
7.051495 6.484182 0.488130 4.000000
5.813615 6.580347 0.447418 9.000000
6.476896 6.545080 0.469199 25.000000
6.882128 6.530896 0.483448 49.000000
6.672845 6.644924 0.479852 25.666666
6.912165 6.684332 0.489962 30.000000
