# This PCD file was generated using the MATLAB® pcwrite function
# from Computer Vision Toolbox®.
# .PCD v.7 - Point Cloud Data file format
VERSION .7
FIELDS x y z intensity
SIZE 4 4 4 4
TYPE F F F F
COUNT 1 1 1 1
WIDTH 1222
HEIGHT 1
VIEWPOINT 0 0 0 1 0 0 0
POINTS 1222
DATA ascii
-9.853749 10.136371 2.983679 12.000000
-9.460534 10.170065 2.931638 1.000000
-8.013533 10.297543 2.997072 7.000000
-9.404259 10.367806 2.954355 4.500000
-9.289254 10.437032 2.948986 10.000000
-9.267420 10.545165 2.963028 0.000000
-8.920605 10.748736 2.948159 1.000000
-8.849985 10.766434 2.941551 6.500000
-8.635433 10.744153 2.909335 4.000000
-8.608904 10.920341 2.934943 3.000000
-8.525698 10.955685 2.929986 0.000000
2.257560 20.781195 2.902454 1.000000
2.201820 20.878807 2.915107 3.000000
2.382711 21.309492 2.977271 9.000000
-11.888800 21.368723 2.961345 1.000000
-11.848479 21.454636 2.968077 8.000000
-11.698257 21.500753 2.964230 1.000000
-11.803928 21.533535 2.973848 5.000000
-11.740096 21.740051 2.992122 6.000000
-11.239036 21.784550 2.968558 14.000000
-11.089052 21.914661 2.974329 6.500000
-11.030117 22.055471 2.986351 6.000000
-10.476253 22.152681 2.967596 8.000000
-14.203942 24.611856 2.938561 1.000000
-14.201707 24.787552 2.954196 9.000000
-14.084747 24.854156 2.954196 13.000000
-11.849208 25.468725 2.904822 13.000000
-12.393516 25.580238 2.939384 1.000000
-12.107656 25.602386 2.928686 2.000000
-11.822486 25.621431 2.917989 6.000000
-11.628382 25.622744 2.909760 1.000000
-13.053668 25.696825 2.980529 11.000000
-12.696337 25.791006 2.972711 16.000000
-12.306185 25.812033 2.957076 1.000000
-12.848046 25.893555 2.989169 5.000000
-12.435470 25.873657 2.968597 4.000000
-11.561204 25.906040 2.933624 11.000000
-11.676831 25.945782 2.942264 8.000000
-11.685855 26.407951 2.986289 4.000000
-11.523004 26.375206 2.976414 2.000000
-11.414392 26.465765 2.980529 2.000000
-11.917195 -33.301739 3.037240 2.000000
-12.131660 -33.241180 3.038609 4.000000
-12.426191 -33.076862 3.034160 4.000000
-12.167127 -33.015926 3.021497 15.000000
4.387523 -29.114246 3.044714 6.000000
4.454152 -28.939089 3.027845 4.000000
6.089092 -24.809038 3.093590 1.000000
-5.024885 -21.696054 3.092247 20.000000
-5.513477 -21.630224 3.099399 13.000000
-5.154680 -21.637075 3.088396 19.000000
-5.080336 -21.626163 3.084545 21.000000
-4.914371 -21.526329 3.065841 24.000000
-6.725976 -21.280258 3.098848 10.000000
-6.507745 -21.285870 3.090597 12.000000
-6.085821 -21.336168 3.080694 19.000000
-4.220441 -21.236971 3.006428 22.000000
-6.618895 -21.172712 3.080144 20.000000
-3.541516 -19.410669 3.092631 13.000000
-3.577948 -19.267345 3.071572 29.000000
5.318676 -13.372035 3.037372 1.000000
5.595517 -13.156544 3.017547 1.000000
6.948865 -12.878503 3.088587 2.000000
6.854789 -12.800215 3.064632 0.000000
6.042006 -12.044592 3.095123 1.500000
5.247756 -11.971901 3.002444 35.000000
5.560270 -11.864517 3.009608 11.000000
4.275007 -11.701197 3.092917 8.333333
4.358041 -11.699661 3.099664 22.000000
4.032695 -11.639210 3.058220 2.666667
4.337378 -11.533298 3.059184 7.000000
6.921104 -11.536852 3.090199 16.000000
4.615641 -11.395470 3.052437 0.000000
7.368697 -11.256260 3.090198 5.000000
4.700088 -11.148425 3.003763 21.500000
5.391719 -9.917943 3.017011 2.000000
-7.542408 -8.691856 3.075621 39.000000
-7.653152 -8.490742 3.054966 14.000000
-7.474850 -8.523429 3.029835 22.333334
-12.098286 -8.222028 3.087348 9.500000
-12.073415 -8.103853 3.069038 10.000000
-12.047218 -7.967883 3.048524 8.500000
-11.987822 -7.740442 3.011765 8.000000
-8.897664 -7.151352 3.050835 11.000000
-11.729254 -6.629429 3.094676 16.250000
-11.687105 -6.449055 3.066021 17.000000
-11.647870 -6.284938 3.040053 17.333334
-11.617676 -6.151276 3.019458 18.000000
-11.595604 -6.046614 3.003788 17.500000
-11.371876 -5.091679 3.093400 20.000000
-11.343658 -4.951335 3.072918 20.500000
-11.301246 -4.785526 3.046975 20.000000
-11.274070 -4.649195 3.027699 20.666666
-11.240524 -4.511893 3.007137 21.333334
-11.020172 -3.580695 3.096794 23.000000
-11.000645 -3.479081 3.083539 22.333334
-10.986646 -3.398834 3.073556 24.000000
-10.957398 -3.295812 3.058064 23.500000
-10.923668 -3.136515 3.037409 24.500000
-10.889231 -2.997383 3.018474 26.333334
-10.901221 3.074464 3.027081 14.000000
-11.879077 3.430968 3.069786 2.000000
-12.561811 3.670951 3.006026 9.000000
-13.738839 4.108786 3.026634 1.000000
-16.477243 5.094258 3.013145 1.000000
-9.800714 6.005903 3.072007 38.000000
-9.754902 6.083706 3.072523 4.000000
-10.490754 6.349599 3.044485 73.000000
-9.588672 6.363463 3.075621 37.000000
-9.614717 6.446257 3.093695 13.500000
-11.274261 7.229665 3.076319 51.500000
-10.946876 7.515142 3.049903 0.000000
-8.652970 7.604390 3.078720 56.599998
-8.570282 7.700501 3.079236 61.000000
-8.581148 7.783638 3.096277 54.000000
-9.261543 7.859936 3.015811 59.000000
-10.496415 8.328310 3.077662 1.000000
-8.785539 8.381094 3.014526 56.000000
-8.486259 8.620616 3.003282 49.000000
-11.507143 8.668109 3.040677 9.000000
-8.479044 8.649341 3.007137 23.000000
-8.339102 8.824553 3.014366 24.000000
-8.260308 8.879824 3.010992 44.000000
-8.729399 9.808000 3.015876 16.000000
-8.042912 10.470243 3.032591 16.666666
-9.277180 10.793333 3.003918 12.000000
-7.925040 10.907885 3.096914 6.000000
-9.378526 10.946013 3.042329 11.333333
-9.411047 11.195790 3.086935 7.000000
-9.330665 11.171234 3.072066 10.000000
-8.895811 11.505680 3.069588 5.000000
-8.816462 11.704089 3.092717 7.000000
19.766144 15.949244 3.075798 17.000000
1.364778 19.323357 3.036266 1.000000
1.801402 19.418522 3.056706 0.000000
1.556615 19.431749 3.055467 3.000000
1.687184 19.520012 3.070952 4.000000
1.766132 19.711414 3.101922 2.000000
-11.685320 21.967646 3.013281 22.000000
-11.584738 21.944546 3.005106 23.000000
-11.676059 22.286860 3.046944 8.000000
-11.009663 22.483517 3.031715 15.666667
-10.478018 22.614388 3.018331 4.500000
-10.318803 22.611118 3.009915 4.666667
-11.308487 22.790773 3.081087 11.000000
-11.042970 22.792709 3.067141 0.000000
-10.764121 22.947647 3.069546 3.000000
-9.934961 23.439417 3.083011 7.000000
-9.918192 23.605968 3.100804 0.000000
-15.172997 25.727818 3.088739 2.000000
-14.830696 25.885384 3.085037 1.000000
-13.750974 26.550924 3.092031 8.000000
-13.623874 26.611935 3.091620 4.000000
-12.459728 26.562452 3.034017 1.000000
-12.888764 26.816799 3.076807 11.000000
-12.261431 27.017647 3.068167 3.000000
-11.423542 -35.389072 3.193294 15.000000
-9.039369 -29.584900 3.199008 22.000000
5.075596 -25.894463 3.195540 6.000000
6.110176 -25.588388 3.185922 8.000000
6.198939 -25.603804 3.190250 4.000000
5.973687 -25.549202 3.177506 8.500000
6.684025 -25.173450 3.154183 6.000000
6.734207 -25.044954 3.140718 5.000000
-9.420587 -24.376009 3.164763 26.000000
-9.561922 -24.286776 3.160916 42.000000
-9.475473 -24.290800 3.157549 62.000000
-9.063353 -24.125433 3.121001 8.000000
-11.135456 -23.589203 3.158992 11.000000
-11.180501 -23.493147 3.150817 27.000000
-11.359904 -23.426018 3.152901 18.000000
-11.252535 -23.454325 3.150336 32.000000
-4.555429 -22.551781 3.194570 5.000000
-4.387039 -22.443863 3.175316 1.000000
-4.588812 -22.354946 3.168714 13.000000
-5.776614 -22.081949 3.169264 21.000000
-5.558580 -22.096987 3.163763 10.000000
-5.984476 -22.026524 3.169264 23.000000
-5.693348 -22.046280 3.161563 12.000000
-6.118499 -21.973223 3.167064 30.000000
-5.800296 -21.891348 3.144509 25.000000
-5.449044 -21.952837 3.140658 12.000000
-7.187754 -21.784769 3.185218 10.000000
-7.457068 -21.681490 3.183568 3.000000
-5.824891 -21.708471 3.120853 20.000000
-5.315968 -21.708164 3.103249 4.000000
-7.521245 -21.646727 3.181917 4.000000
-6.095070 -21.625937 3.119753 7.000000
-8.166751 -21.521755 3.196220 14.000000
-7.334018 -21.543531 3.159912 8.000000
-6.953319 -21.527884 3.141208 28.000000
-6.364094 -21.540039 3.118653 6.000000
-5.929652 -21.556843 3.104350 10.000000
-7.513113 -21.406162 3.150010 18.000000
-6.609689 -21.378878 3.107100 20.000000
-7.569735 -21.352579 3.145609 13.000000
-6.961893 -21.325150 3.114802 5.000000
-6.819327 -21.342051 3.110951 13.000000
-2.683546 -20.247551 3.201334 4.000000
-2.582919 -20.218826 3.194831 19.000000
-2.507664 -20.132727 3.179965 1.000000
-3.124138 -19.950325 3.165100 22.000000
-3.484550 -19.802273 3.151473 6.000000
-3.167466 -19.819443 3.145899 16.000000
-3.292302 -19.610756 3.116787 10.500000
-3.496550 -19.511166 3.106877 18.000000
4.533899 -13.174870 3.200339 8.000000
4.733455 -12.830589 3.141239 4.000000
4.820039 -12.776079 3.136463 2.333333
7.309197 -12.767742 3.105108 1.000000
7.544726 -12.772609 3.130991 0.000000
5.040560 -12.557781 3.108107 8.000000
6.071970 -12.345312 3.160043 0.000000
6.128041 -12.361104 3.168998 6.000000
6.319042 -12.306190 3.177505 25.500000
6.331187 -12.188050 3.154671 16.000000
6.536711 -11.979219 3.134523 13.000000
4.078113 -11.972532 3.140145 4.000000
6.714030 -11.900911 3.138553 11.000000
4.270033 -11.802275 3.116049 21.000000
6.648036 -11.870924 3.125121 10.000000
-6.875552 -11.684514 3.114017 13.600000
4.484418 -11.755722 3.123760 0.000000
6.804437 -11.757185 3.120196 6.500000
7.161840 -11.728375 3.156462 10.000000
7.256611 -11.717333 3.165715 8.000000
5.267832 -11.618260 3.167132 55.000000
7.468515 -11.646815 3.177953 0.000000
7.552169 -11.616002 3.182430 1.000000
7.269727 -11.535263 3.131837 9.500000
3.896925 -11.323915 3.200588 12.000000
5.885893 -11.330823 3.170023 0.000000
4.019364 -11.219482 3.185096 7.000000
6.755523 -10.946767 3.193637 5.000000
5.267702 -10.625681 3.169605 36.000000
5.583543 -10.585653 3.198522 3.000000
5.470825 -10.505057 3.165473 7.000000
5.591566 -10.441349 3.165473 0.000000
5.369068 -10.335894 3.112802 12.000000
5.711360 -10.324800 3.153424 8.666667
5.823551 -10.247140 3.149982 18.000000
-7.593900 -8.948087 3.136555 13.500000
-12.119132 -8.319908 3.102630 6.000000
-11.850736 -7.185654 3.183325 15.333333
-11.823129 -7.042442 3.160939 16.000000
-11.788293 -6.896904 3.137060 16.000000
-11.761587 -6.757783 3.115719 16.000000
-11.518516 -5.710417 3.191870 17.000000
-11.484475 -5.559300 3.167775 17.666666
-11.455338 -5.434515 3.147856 18.000000
-11.435144 -5.359044 3.135326 19.000000
-11.413291 -5.261671 3.120226 18.666666
-11.384904 -5.162027 3.103519 19.000000
-11.168168 -4.200129 3.188883 20.666666
-11.144016 -4.091388 3.172703 21.500000
-11.122236 -4.004272 3.159277 21.500000
-11.097402 -3.897186 3.143441 22.333334
-11.066647 -3.750248 3.122871 22.250000
-11.038058 -3.644076 3.106605 23.000000
-11.333711 3.234909 3.149982 15.000000
-13.129688 3.881712 3.144821 13.000000
-15.462906 4.730440 3.117128 10.000000
-18.959402 5.970585 3.115549 25.000000
-10.839564 6.296124 3.112194 25.000000
-10.823082 6.332104 3.113158 18.000000
-9.781037 6.624748 3.157211 0.000000
-9.678417 6.809648 3.162719 38.000000
-9.652134 6.874640 3.167023 52.500000
-9.610321 6.936275 3.167539 52.500000
-9.586098 7.024740 3.176214 37.200001
-10.504130 7.211193 3.163277 3.000000
-11.716686 7.358416 3.177953 2.000000
-11.584782 7.326423 3.148403 16.000000
-11.436786 7.333831 3.120644 7.000000
-9.095486 7.343925 3.124310 52.285713
-9.036120 7.403884 3.122097 65.000000
-9.027898 7.468567 3.131392 56.000000
-8.794528 7.583201 3.103507 44.000000
-11.149046 7.757451 3.119748 7.000000
-9.820451 7.859238 3.122796 40.166668
-8.599463 7.849639 3.111769 30.000000
-11.221430 7.939329 3.157357 15.000000
-11.117165 8.157411 3.167207 2.000000
-10.659624 8.567499 3.141239 4.000000
-8.425872 9.557320 3.163277 44.000000
-9.243440 10.271291 3.173923 16.500000
-9.154565 10.482990 3.196757 9.000000
-8.488235 10.697978 3.136762 18.000000
-8.210898 10.829232 3.121539 2.000000
-8.196423 10.952394 3.142134 14.000000
-8.078959 10.974020 3.130046 1.500000
-7.898257 11.126268 3.134075 15.333333
-7.786107 11.152813 3.124226 17.000000
-7.746783 11.284316 3.143925 15.666667
-7.717305 11.394124 3.160939 4.000000
-9.390340 11.608531 3.151367 9.000000
-9.133471 11.686091 3.130440 14.333333
1.988073 20.059616 3.159525 7.000000
2.149103 20.076759 3.164790 1.000000
2.067166 20.210520 3.184301 5.000000
2.549399 20.209114 3.192663 13.000000
-12.871220 22.221876 3.109941 1.000000
-12.278995 22.568117 3.111384 5.000000
-10.585789 23.423180 3.112826 9.000000
-10.468225 23.556370 3.121723 16.500000
-10.402854 24.120380 3.181113 8.000000
-10.012526 24.473888 3.202273 3.000000
-14.368196 26.407951 3.108900 7.000000
-14.862754 26.912735 3.179258 1.000000
-13.532634 27.059425 3.128650 5.000000
-13.717858 27.215746 3.151691 2.000000
-13.429200 27.717894 3.185018 10.000000
-11.054920 -35.979378 3.232136 3.000000
-11.223797 -35.925018 3.231965 2.000000
-11.416567 -35.751282 3.222725 17.000000
-8.889707 -30.107609 3.246324 1.000000
-8.977418 -30.056660 3.243855 2.000000
-9.046486 -29.944513 3.234803 13.000000
3.459008 -26.964422 3.292200 10.000000
3.631008 -26.961836 3.294604 4.000000
3.357521 -26.841187 3.275849 3.000000
3.527651 -26.831373 3.277292 6.000000
4.128887 -26.825811 3.286910 7.000000
4.567712 -26.863346 3.299894 9.000000
4.651406 -26.844952 3.299413 11.000000
4.843999 -26.707928 3.287150 9.500000
3.248193 -26.646627 3.250843 1.000000
4.347549 -26.578005 3.261422 1.000000
4.942568 -26.538439 3.269117 8.000000
5.968123 -26.461128 3.284986 7.000000
5.988329 -26.167414 3.250843 1.000000
6.402397 -26.085550 3.252766 5.000000
6.484316 -26.065308 3.252766 3.000000
-13.340188 -23.152519 3.235935 11.000000
-6.436850 -22.838606 3.294693 1.000000
-6.770963 -22.654964 3.283140 19.000000
-4.784188 -22.585365 3.205573 6.000000
-6.536303 -22.381401 3.237480 19.000000
-6.481339 -22.455116 3.245181 24.000000
-6.151370 -22.362885 3.220426 6.000000
-8.231850 -22.005260 3.262235 6.500000
-8.036997 -22.009729 3.253433 14.000000
-8.064984 -21.872852 3.236930 11.000000
-7.826430 -21.858366 3.223727 9.000000
-7.862723 -21.744251 3.210524 4.000000
-8.405238 -21.536102 3.209974 2.000000
-8.264087 -21.573689 3.207773 3.000000
-3.120198 -20.778505 3.293314 21.000000
-3.180669 -20.737350 3.288359 1.000000
-18.039732 -20.411730 3.298932 8.000000
-3.004349 -20.444143 3.238808 6.000000
-3.898095 -20.280638 3.236950 9.000000
-3.849770 -20.374327 3.249957 13.000000
-2.821619 -20.308567 3.213722 21.500000
-2.911992 -20.257904 3.207838 29.000000
-3.481512 -20.155802 3.205980 16.000000
-19.034189 -19.471039 3.297490 7.000000
5.322899 -13.023866 3.231679 7.000000
5.422130 -13.032092 3.242126 9.000000
5.533261 -13.067237 3.259439 7.000000
5.482399 -12.834683 3.205711 10.000000
6.397771 -12.605244 3.246902 4.000000
6.618941 -12.644741 3.278243 15.000000
6.959395 -12.565415 3.299286 10.000000
5.166166 -11.912792 3.223757 54.750000
5.273238 -11.827188 3.215002 53.000000
5.443776 -11.808393 3.228239 46.200001
5.543556 -11.828853 3.243274 37.000000
3.855791 -11.497043 3.240866 5.500000
4.093908 -11.541626 3.272883 10.000000
6.029481 -11.518643 3.227853 90.000000
6.622749 -11.484818 3.291466 23.000000
6.714381 -11.476489 3.301104 18.000000
3.937710 -11.442636 3.234153 1.000000
4.659364 -11.400352 3.291473 1.000000
4.694425 -11.283419 3.266170 14.000000
6.350813 -11.340196 3.226889 1.000000
4.612146 -11.085422 3.208850 6.000000
4.936045 -11.165111 3.262555 22.000000
7.018097 -10.944408 3.227853 1.000000
5.295693 -10.767013 3.206785 10.000000
5.404963 -10.753635 3.216596 20.000000
5.467680 -10.689384 3.208850 0.000000
5.667552 -10.663606 3.227440 26.000000
6.833676 -10.227321 3.287342 1.000000
-11.990803 -7.785237 3.283795 13.400000
-11.960720 -7.643363 3.260334 14.000000
-11.931004 -7.519210 3.239291 14.500000
-11.900202 -7.395739 3.218248 15.500000
-11.881819 -7.306887 3.203921 15.000000
-11.651437 -6.286867 3.286968 16.666666
-11.620451 -6.152739 3.264478 17.000000
-11.598640 -6.048191 3.247612 16.500000
-11.580455 -5.969440 3.234600 17.000000
-11.551886 -5.863227 3.216287 18.333334
-11.300511 -4.785219 3.279768 19.666666
-11.269564 -4.636993 3.256875 20.000000
-11.238080 -4.510902 3.236391 20.000000
-11.199006 -4.352909 3.211174 21.500000
-11.813556 3.412044 3.286309 2.000000
-12.505437 3.654477 3.234600 7.000000
-13.685152 4.092731 3.280929 2.000000
-14.643669 4.429551 3.229015 11.000000
-9.892141 6.790934 3.206785 77.599998
-9.991562 6.905590 3.246030 115.000000
-10.934918 7.557583 3.300140 8.000000
-9.716969 7.610865 3.298702 11.000000
-9.315917 7.781033 3.243965 54.000000
-9.305723 7.847257 3.253260 65.500000
-9.251841 7.901791 3.251711 59.000000
-8.961441 8.283869 3.261522 5.000000
-8.801722 8.265281 3.226924 57.750000
-8.718372 8.316911 3.220211 64.000000
-8.671411 8.403282 3.227182 61.000000
-11.448970 8.456337 3.269288 3.000000
-8.680293 8.545000 3.255325 13.000000
-8.311791 8.694745 3.214703 32.333332
-8.231034 8.737604 3.208162 62.666668
-8.157348 8.796812 3.206268 54.500000
-8.104029 8.878214 3.212637 55.000000
-8.085225 8.970103 3.227440 24.000000
-10.131595 9.604448 3.206607 5.000000
-8.779263 9.678779 3.244238 52.000000
-8.692648 9.735814 3.240383 57.500000
-8.541647 9.781131 3.223998 17.000000
-8.883967 9.856263 3.294357 52.000000
-8.242610 10.189685 3.253876 43.000000
-9.258556 10.979342 3.298838 6.500000
-9.151753 10.957031 3.279138 8.000000
-8.720075 11.061359 3.235261 16.000000
-8.824704 11.266711 3.287197 0.000000
-10.177169 21.356049 3.284790 8.000000
-9.337202 21.848497 3.299093 3.000000
-10.378311 24.920040 3.269117 1.000000
-10.404522 25.205788 3.302299 5.000000
-10.231021 25.233864 3.297490 1.000000
-14.589545 27.427401 3.212585 16.000000
-14.544178 27.550505 3.221637 2.000000
-14.426157 27.536152 3.214643 1.000000
-14.250195 28.052248 3.253730 1.000000
-4.667444 -31.799898 3.323676 4.000000
4.358616 -27.738501 3.400401 3.000000
5.630020 -27.354588 3.382127 13.000000
5.695613 -27.239594 3.370105 50.000000
6.229280 -27.220303 3.381646 5.000000
5.488874 -27.099703 3.348464 15.000000
5.361026 -26.902620 3.322015 10.000000
5.802187 -26.904375 3.333076 13.000000
5.980596 -26.910027 3.338366 9.000000
5.673913 -26.716599 3.307588 5.000000
5.853559 -26.734728 3.314321 12.000000
-7.419863 -23.221512 3.384913 1.000000
-7.531188 -23.068975 3.369509 22.000000
-6.948725 -22.986282 3.334301 6.000000
-7.501830 -22.736677 3.324399 20.000000
-7.706848 -22.638712 3.320548 22.000000
-7.580562 -22.616520 3.312021 60.500000
-4.286234 -21.219126 3.393037 27.000000
-4.204915 -21.158842 3.381268 16.000000
-4.720568 -20.980947 3.370739 32.000000
-4.599540 -20.902594 3.354634 22.500000
-4.356546 -20.890030 3.344724 4.000000
-3.482484 -20.945232 3.328001 4.000000
-4.473585 -20.796566 3.334194 24.000000
-4.396762 -20.756393 3.325523 29.000000
-18.783621 -20.592331 3.375394 2.000000
-18.957891 -19.886889 3.327305 10.000000
-18.987288 -19.792843 3.321534 16.000000
-19.018118 -19.638988 3.310714 16.500000
3.653424 -12.954062 3.341584 3.000000
4.007637 -12.954588 3.366644 1.000000
4.078768 -12.897038 3.358291 6.000000
4.984889 -12.648406 3.375319 1.000000
7.228340 -12.626501 3.341820 1.000000
4.972949 -12.502821 3.340621 39.000000
4.867465 -12.465111 3.322308 0.000000
5.082849 -12.473904 3.344155 39.666668
5.912535 -12.117126 3.347368 0.000000
5.923159 -12.042754 3.331946 44.000000
6.454433 -12.007301 3.384475 9.500000
5.972681 -11.953208 3.317489 26.000000
6.505603 -11.833668 3.352669 19.000000
6.584891 -11.845303 3.364716 3.000000
6.793183 -11.823276 3.385438 12.500000
-6.940908 -11.694471 3.376282 0.000000
-6.867043 -11.695230 3.367126 16.000000
4.243911 -11.730074 3.333817 1.000000
4.349199 -11.713417 3.339325 20.666666
6.548548 -11.607587 3.308815 43.000000
4.619309 -11.508301 3.314194 9.000000
4.934579 -11.452464 3.332784 101.000000
6.820185 -11.450075 3.308815 8.000000
6.477189 -10.913167 3.391652 5.000000
6.078159 -10.853336 3.324522 4.000000
6.185774 -10.805442 3.327620 17.500000
6.445513 -10.630243 3.322456 5.000000
6.527102 -10.539455 3.313161 7.000000
6.770360 -10.449369 3.327620 2.500000
-8.427411 -9.498724 3.393718 3.000000
-12.148303 -8.396214 3.391965 0.000000
-12.099627 -8.239685 3.362415 12.200000
-12.069386 -8.101166 3.338835 13.000000
-12.051039 -7.997598 3.322120 7.000000
-12.027277 -7.927519 3.308688 16.000000
-11.789146 -6.897408 3.391061 14.666667
-11.757736 -6.755567 3.366644 15.500000
-11.727406 -6.628395 3.344476 15.500000
-11.686846 -6.448903 3.313955 16.333334
-11.471353 -5.508468 3.400948 17.000000
-11.451771 -5.432830 3.387521 17.500000
-11.435281 -5.359108 3.375128 18.000000
-11.411346 -5.260761 3.358259 18.666666
-11.380525 -5.117077 3.334850 19.000000
-11.342202 -4.950681 3.307481 19.750000
-13.059768 3.861041 3.381101 12.000000
-16.389784 5.070351 3.307169 1.000000
-11.698248 7.093085 3.396523 11.000000
-11.550005 7.052917 3.359897 2.000000
-9.984188 7.520888 3.340702 8.333333
-11.038586 7.680593 3.338693 10.000000
-10.963853 7.887037 3.353150 2.000000
-9.934048 7.856754 3.384939 28.000000
-10.864274 8.237470 3.384957 39.000000
-11.607489 8.517195 3.306897 4.000000
-11.772802 8.581732 3.346297 15.000000
-11.534758 9.152176 3.382115 2.000000
-9.017480 9.847713 3.315079 11.000000
-8.716827 10.173690 3.326163 49.000000
-8.829868 10.240340 3.357006 60.000000
-8.503764 10.312219 3.318453 24.000000
-7.505307 11.043674 3.315079 26.500000
-9.074139 11.217637 3.314061 5.000000
-9.012640 11.249607 3.310927 4.000000
-8.868278 11.395907 3.316747 18.000000
-12.251952 21.084805 3.386013 20.000000
-10.609149 21.560642 3.336502 8.000000
-10.176055 21.527617 3.306245 30.000000
-9.864483 21.746138 3.315597 1.000000
-10.942822 21.890471 3.398116 5.000000
-9.870888 21.943228 3.340903 7.000000
-10.345530 22.065283 3.383813 22.000000
-10.297871 22.144381 3.390964 7.000000
-12.939506 24.888369 3.397035 13.000000
-12.113515 25.203787 3.386455 1.000000
-12.085547 25.349249 3.400882 9.000000
-11.194386 25.623055 3.386214 7.000000
-11.354432 25.658997 3.397996 9.000000
-7.077277 -32.928425 3.482907 1.000000
-6.645623 -32.928955 3.473855 1.000000
-6.500297 -32.738930 3.451637 4.000000
-12.733684 -30.909552 3.456985 9.000000
-12.607944 -30.879412 3.449168 3.000000
-12.382576 -30.880468 3.440527 12.000000
-12.223793 -30.763918 3.423247 3.000000
-12.927447 -30.293318 3.405966 7.000000
3.215035 -28.617569 3.487443 3.000000
4.104977 -28.451370 3.481191 8.000000
2.872258 -28.374592 3.453780 7.000000
2.587631 -28.214550 3.431178 1.500000
5.423377 -28.136730 3.470130 7.000000
4.655621 -27.731775 3.405370 45.333332
6.595301 -27.620010 3.438872 3.000000
5.853749 -27.563387 3.412423 10.000000
6.449337 -27.389351 3.407614 5.000000
-9.553649 -23.282654 3.494388 9.500000
-9.603949 -23.094728 3.472933 9.000000
-9.674923 -23.060787 3.472383 8.000000
-5.096129 -21.693392 3.492759 25.000000
-5.214703 -21.587957 3.480991 8.000000
-5.053191 -21.612707 3.478926 18.000000
-4.926301 -21.578583 3.469222 24.000000
-5.418892 -21.541687 3.481610 28.000000
-5.263695 -21.494703 3.468603 11.000000
-5.327389 -21.462721 3.466125 11.000000
-19.113081 -21.354307 3.470611 5.000000
-18.956175 -21.313358 3.454261 14.000000
-6.525592 -21.344244 3.498334 21.000000
-6.437921 -21.296551 3.487185 7.000000
-6.268785 -21.340744 3.486255 13.000000
-6.126387 -21.351223 3.481610 9.000000
-5.443594 -21.356066 3.454357 18.000000
-4.386250 -21.368137 3.419051 21.000000
-6.648958 -21.268877 3.492759 10.000000
-19.296665 -21.021759 3.455704 4.000000
-19.271000 -20.861856 3.439353 3.000000
-18.860733 -20.873573 3.406893 3.000000
-19.523436 -20.609402 3.437911 10.000000
-19.228260 -20.619755 3.414347 27.000000
-3.451931 -19.616905 3.479883 9.000000
-3.305360 -19.626129 3.477129 21.666666
-3.649148 -19.312569 3.433760 12.000000
-3.584141 -19.300694 3.429629 23.000000
-3.516415 -19.273094 3.422745 25.000000
5.185446 -14.192919 3.470765 26.000000
5.230009 -14.176558 3.470765 10.000000
5.323256 -14.020943 3.444797 2.000000
17.440844 -13.479816 3.454976 22.000000
3.810148 -13.191931 3.409052 2.000000
4.668928 -13.032644 3.437003 20.000000
5.204535 -12.966302 3.468810 0.000000
5.296970 -12.731416 3.423510 7.000000
5.404522 -12.652369 3.415799 13.000000
6.004333 -12.503993 3.443750 0.000000
5.928292 -12.445688 3.422546 1.000000
6.197038 -12.305386 3.420618 10.000000
6.265535 -12.344706 3.437003 30.000000
6.493077 -12.310009 3.455316 16.000000
4.619665 -12.167751 3.478406 6.000000
4.537886 -12.066459 3.445357 8.000000
6.885589 -12.027782 3.440859 14.000000
5.052386 -11.931612 3.462914 38.000000
5.128548 -11.834415 3.447078 58.666668
5.426848 -11.830546 3.478613 51.000000
5.554797 -11.804446 3.486668 39.500000
5.261236 -11.701321 3.428833 1.000000
5.953804 -11.527879 3.467562 5.500000
6.590014 -11.183160 3.469111 25.000000
6.567554 -10.908673 3.403013 0.000000
-11.927205 -7.490747 3.496761 13.333333
-11.898218 -7.368584 3.474592 15.000000
-11.884932 -7.308801 3.463990 13.000000
-11.856397 -7.189081 3.442465 14.000000
-11.825272 -7.043723 3.417245 15.000000
-11.590090 -6.043725 3.493382 15.000000
-11.575526 -5.966900 3.480472 16.000000
-11.554135 -5.864368 3.462914 17.333334
-11.513104 -5.707725 3.434341 16.333334
-11.490427 -5.584435 3.414374 19.000000
-12.407384 3.625823 3.454652 2.000000
-14.567788 4.406598 3.495837 6.000000
-15.430588 4.720553 3.405789 13.000000
-18.968433 5.973421 3.474376 29.666666
-10.781843 7.058212 3.444066 10.250000
-10.763706 7.241014 3.467045 21.000000
-10.597368 7.398324 3.454136 40.000000
-11.581651 7.738608 3.458207 1.000000
-10.906507 8.414403 3.419976 11.000000
-11.103201 8.668560 3.497242 6.000000
-11.712800 9.114886 3.408979 28.000000
-8.941520 10.502531 3.424474 45.000000
-8.796440 10.599127 3.419654 4.000000
-8.935236 10.629825 3.447605 26.000000
-8.816011 10.794189 3.460135 10.500000
-8.707751 10.886644 3.461099 10.750000
-8.719579 11.060731 3.496761 10.000000
-12.795131 21.094030 3.425622 4.000000
-12.697826 21.132690 3.423238 7.666667
-12.543259 21.201014 3.420396 10.500000
-12.426198 21.230858 3.415720 1.000000
-12.027664 22.115377 3.495488 13.000000
-10.263103 22.252174 3.402517 3.000000
-11.610518 22.341665 3.496038 8.000000
-10.770023 22.328403 3.442126 2.500000
-10.124699 22.697800 3.450928 2.000000
-9.877720 22.814964 3.452028 9.500000
-9.646799 22.870567 3.446527 4.000000
-9.824536 22.988831 3.471282 2.000000
-9.468357 23.364534 3.500439 0.000000
-13.977162 24.754942 3.442719 3.000000
-13.791230 24.972473 3.454742 1.000000
-13.275455 25.147209 3.443681 1.000000
-11.068566 25.887283 3.409538 3.000000
-8.214353 -33.569298 3.573837 7.000000
-8.094853 -33.536919 3.567665 5.000000
-7.382990 -33.330036 3.530223 3.000000
-7.743951 -32.990601 3.504302 1.000000
4.430408 -29.398825 3.600453 4.000000
5.325930 -29.104534 3.583141 2.000000
4.739226 -28.972454 3.555249 11.000000
3.423799 -28.841290 3.517258 6.000000
-10.560287 -23.696524 3.602212 1.000000
-10.430943 -23.706102 3.596160 30.500000
-9.470609 -23.393543 3.504290 1.000000
-5.913277 -22.037872 3.576377 11.000000
-5.805799 -22.005108 3.567086 31.333334
-5.944146 -21.878088 3.553460 7.000000
-5.649983 -21.878355 3.541691 5.000000
-7.127865 -21.833544 3.599914 12.000000
-6.141498 -21.790667 3.548505 7.000000
-7.466076 -21.707680 3.598056 11.000000
-5.968831 -21.699276 3.527445 4.000000
-7.198660 -21.589638 3.567086 11.000000
-6.029547 -21.653769 3.523109 11.000000
-6.968147 -21.573792 3.553460 23.000000
-6.421906 -21.487053 3.515057 9.000000
-7.434369 -21.396688 3.550363 9.000000
-7.052791 -21.375721 3.528064 6.000000
-6.761000 -21.391068 3.516296 24.000000
-6.634632 -21.459555 3.520632 27.000000
-6.817344 -21.335842 3.510721 22.000000
-2.951425 -20.305805 3.584865 9.000000
-2.608244 -20.248781 3.566851 17.666666
-3.991520 -20.085051 3.577636 3.000000
-3.935203 -20.132294 3.583832 3.000000
-2.700490 -20.132021 3.548723 17.000000
-2.512096 -20.168308 3.550789 3.000000
-3.450646 -19.977108 3.541839 10.000000
-3.202450 -20.038345 3.545281 8.000000
-3.022492 -19.914818 3.519122 5.500000
-3.111440 -19.869236 3.513615 22.000000
5.193884 -14.355777 3.506583 0.000000
5.135592 -13.526655 3.592179 10.000000
6.581846 -12.867592 3.588324 1.000000
4.289952 -12.594449 3.555865 4.000000
4.372644 -12.641632 3.574971 5.000000
4.863343 -12.570972 3.602340 6.000000
4.895473 -12.421526 3.568258 6.000000
4.970435 -12.458298 3.584782 1.333333
4.502206 -12.322844 3.506291 0.000000
4.740847 -12.369683 3.540373 63.000000
7.180063 -12.184466 3.511218 0.000000
5.776828 -11.933996 3.543471 5.000000
5.822765 -11.933152 3.548635 13.000000
6.245203 -11.840072 3.577553 47.000000
5.948270 -11.719613 3.512488 32.000000
6.290454 -11.658254 3.540373 41.000000
6.385760 -11.487094 3.512488 6.000000
6.761700 -11.557367 3.578586 9.000000
-12.038900 -7.962363 3.583505 6.000000
-12.005777 -7.832479 3.558927 12.500000
-11.985511 -7.738950 3.542060 13.000000
-11.962934 -7.644770 3.524712 13.000000
-11.716232 -6.585639 3.592012 14.500000
-11.687472 -6.449262 3.567569 15.666667
-11.646848 -6.284377 3.536930 15.000000
-11.618479 -6.151694 3.513521 16.500000
-13.605479 4.068903 3.525675 2.000000
-12.111801 7.917877 3.592565 31.600000
-11.760209 7.911475 3.518929 4.000000
-12.013469 7.972666 3.579649 0.000000
-11.222082 8.875413 3.552180 3.500000
-9.849566 8.990742 3.564127 6.000000
-9.770048 8.974584 3.545537 45.000000
-9.427597 9.339163 3.546570 17.000000
-9.313931 9.641484 3.582717 3.000000
-10.178195 10.019555 3.545916 8.000000
-8.962915 10.038658 3.596659 16.500000
-8.787961 11.256240 3.545434 32.500000
-8.719430 11.277552 3.539169 1.000000
-8.584033 11.395535 3.542060 39.000000
-8.716366 11.458448 3.574348 31.500000
-8.645126 11.589876 3.589770 35.500000
-8.577739 11.613328 3.584469 20.000000
-8.435995 11.572880 3.555554 13.000000
-8.545801 11.646481 3.586396 23.000000
19.795431 15.915936 3.526845 3.000000
19.736092 15.970569 3.525194 26.000000
1.414129 20.022099 3.506731 1.000000
1.354138 20.069687 3.514303 1.000000
1.478763 20.041134 3.510861 2.000000
1.769504 20.472424 3.590028 6.000000
-12.627151 21.888498 3.508691 9.000000
-13.211385 22.092100 3.574156 4.000000
-12.223825 22.143425 3.511992 21.000000
-12.152300 22.178242 3.511441 26.000000
-12.407239 22.227365 3.534547 10.500000
-12.008945 22.247187 3.510341 31.000000
-12.816257 22.378450 3.580757 27.000000
-12.722396 22.377272 3.574156 16.000000
-12.609184 22.341223 3.562053 28.000000
-12.008226 22.414019 3.530696 12.000000
-11.931487 22.496798 3.535830 28.666666
-11.647417 22.585787 3.528495 6.000000
-11.247209 22.677216 3.514742 4.000000
-11.137523 22.815084 3.525194 1.000000
-10.419487 23.758772 3.602212 3.000000
-13.972308 25.489243 3.520144 4.000000
-13.772733 25.696795 3.530723 3.000000
-13.272746 26.332659 3.571118 3.000000
-12.792986 26.617517 3.576408 2.000000
-12.343589 26.531349 3.543707 2.000000
-12.674522 -33.418625 3.696037 16.000000
3.882921 -30.269003 3.695670 3.000000
5.595196 -29.526978 3.639405 11.000000
5.163167 -25.933338 3.671528 3.000000
-10.235286 -24.612913 3.701234 2.000000
-9.417282 -24.468781 3.640445 14.000000
-9.740791 -24.279947 3.632469 17.000000
-9.600723 -24.261089 3.622842 50.000000
-12.875475 -23.256714 3.691057 13.500000
-13.160864 -23.082729 3.689407 21.500000
-13.064578 -23.166973 3.692982 30.000000
-6.880294 -22.504421 3.688487 1.000000
-6.641016 -22.477312 3.673622 3.000000
-6.495276 -22.503407 3.671144 0.000000
-6.142813 -22.331776 3.630265 9.000000
-7.831427 -22.090755 3.673622 12.000000
-7.888800 -22.032557 3.668047 9.000000
-8.049387 -21.936485 3.662473 7.500000
-7.943193 -21.966789 3.661234 21.000000
-7.675611 -21.869150 3.632742 2.000000
-7.438600 -21.850737 3.617877 12.000000
-7.361084 -21.847784 3.613541 13.000000
-8.246895 -21.630548 3.628406 11.000000
-8.079633 -21.564219 3.609411 13.333333
-3.602220 -20.854624 3.697419 1.000000
-3.128723 -20.835274 3.680897 16.000000
-3.879598 -20.532188 3.650607 12.000000
-2.887802 -20.547775 3.625136 19.000000
-3.892021 -20.249035 3.602419 29.000000
4.993729 -15.126205 3.658809 7.000000
4.825659 -14.022684 3.681815 13.000000
5.203761 -13.837050 3.670249 1.000000
5.312829 -13.862082 3.685670 0.000000
5.389938 -13.803113 3.678924 10.000000
5.653585 -13.709837 3.681815 11.000000
4.274143 -13.084490 3.678766 13.000000
4.317651 -13.078337 3.680831 4.000000
3.971759 -13.056263 3.647266 9.500000
4.507933 -12.772425 3.619897 12.500000
5.891181 -12.367779 3.661208 2.000000
6.121738 -12.155863 3.637454 3.000000
6.506518 -11.879477 3.619897 5.000000
-6.866907 -11.695010 3.624545 14.000000
-12.122937 -8.378681 3.658683 1.000000
-12.105922 -8.266258 3.639407 12.600000
-12.061646 -8.077672 3.604066 9.333333
-11.838970 -7.127643 3.693224 14.000000
-11.824255 -7.043117 3.678249 14.500000
-11.790764 -6.898358 3.650881 14.000000
-11.755840 -6.754487 3.623512 14.000000
-11.738855 -6.671305 3.608536 14.000000
-12.985157 3.838982 3.618864 12.000000
-15.336739 4.691843 3.683882 13.000000
-16.320509 5.048921 3.605692 1.000000
-9.522352 9.592406 3.612323 3.333333
-9.626683 9.779097 3.667405 1.000000
-10.568137 10.209095 3.648081 1.000000
-10.527658 10.234130 3.645190 7.000000
-8.979568 11.689726 3.659647 44.000000
1.651850 20.620607 3.614122 1.000000
1.595525 20.735699 3.633397 4.000000
1.730684 20.784166 3.643723 5.000000
-10.862544 20.902369 3.692204 6.000000
-9.632485 20.884888 3.604869 1.000000
-10.016570 21.019045 3.649466 3.000000
-9.438696 21.522348 3.683532 5.000000
-9.377333 21.566395 3.686010 4.000000
-13.559454 22.196518 3.611564 4.000000
-13.462935 22.194973 3.604412 3.000000
-13.265297 22.341311 3.607713 7.000000
-13.221205 22.427240 3.614865 2.000000
-11.866981 23.190119 3.617065 8.000000
-10.662348 24.106379 3.659975 9.000000
-10.957808 24.156361 3.683080 9.000000
-11.084740 24.233505 3.700134 2.000000
-13.155520 26.723780 3.607185 16.000000
-13.406654 26.807520 3.629787 13.000000
-13.278250 26.760572 3.617765 7.000000
-13.002933 26.838076 3.611513 3.000000
-12.725651 26.909172 3.604781 1.000000
-13.919287 27.188974 3.699036 3.000000
-13.817620 27.200705 3.694708 2.000000
-12.504542 -33.605740 3.707968 4.000000
-12.594666 -33.525318 3.703443 17.000000
-9.542977 -29.884089 3.799062 5.000000
-9.024168 -29.870640 3.778864 2.000000
-9.586802 -29.699020 3.779345 4.000000
4.043726 -26.864735 3.772200 4.000000
6.304287 -26.421703 3.771650 3.000000
6.190397 -26.310251 3.752946 7.000000
-9.138490 -25.777695 3.797506 6.000000
-9.540878 -25.627260 3.796956 11.000000
-9.580917 -25.489609 3.781002 15.000000
-9.218087 -25.492489 3.763948 17.000000
-9.131281 -25.502670 3.761198 9.000000
-10.090415 -25.151423 3.762848 7.000000
-10.132214 -25.027788 3.749095 28.000000
-10.177545 -24.692566 3.708386 5.000000
-10.942510 -24.554203 3.732591 26.000000
-12.425296 -24.114862 3.766699 32.000000
-12.244850 -24.135923 3.757897 2.000000
-12.451699 -23.980768 3.751846 19.000000
-12.838221 -23.893051 3.766149 3.500000
-4.829642 -23.528177 3.764673 3.000000
-12.808575 -23.395344 3.703435 16.000000
-13.040114 -23.294333 3.706735 9.000000
-4.836573 -23.191799 3.713263 6.000000
-6.445086 -23.146084 3.765912 1.000000
-6.877946 -23.012918 3.764673 4.000000
-7.885071 -22.925911 3.799978 5.000000
-7.367749 -22.810986 3.757240 4.000000
-7.432649 -22.646444 3.735871 22.000000
-7.595770 -22.544336 3.728748 6.000000
-7.519906 -22.553091 3.726270 13.000000
-4.426796 -21.226881 3.788288 7.000000
-4.634338 -20.904142 3.740788 30.000000
-4.537453 -20.933422 3.742165 31.500000
-4.417517 -20.854376 3.724267 32.000000
-4.284817 -20.873999 3.722890 10.000000
-18.278286 -20.349955 3.798056 4.500000
-3.597546 -19.354061 3.794765 27.000000
-3.626215 -19.172857 3.761451 27.000000
5.247643 -14.363157 3.796510 24.000000
5.270031 -14.148005 3.748319 4.000000
4.174586 -13.248293 3.712331 6.333333
5.407804 -12.997808 3.762421 3.000000
5.436646 -12.952250 3.754158 3.000000
7.325084 -12.080873 3.775847 4.000000
7.390001 -12.059385 3.779978 11.500000
7.527247 -12.052608 3.797742 6.400000
-11.957748 -7.632654 3.791339 12.666667
-11.931225 -7.519349 3.769134 13.500000
-11.903583 -7.384926 3.743831 10.250000
-11.861343 -7.217516 3.710782 13.500000
-13.576513 4.060241 3.787208 5.000000
-14.521597 4.392626 3.766632 4.000000
-12.066568 7.525391 3.800634 7.000000
-11.398435 8.455982 3.793060 23.000000
-11.367060 8.506740 3.794437 8.000000
-11.255663 8.590047 3.784109 0.000000
-11.145260 8.701424 3.778945 19.000000
-9.825607 10.044098 3.755191 3.000000
-9.912526 10.196834 3.800634 8.000000
1.446222 19.553617 3.779622 3.000000
1.575338 19.622444 3.794765 5.000000
-11.028984 21.060684 3.726270 3.000000
-11.026229 21.547144 3.793784 4.000000
-9.659716 21.839540 3.742994 9.000000
-12.689720 24.231989 3.798056 16.000000
-11.851868 24.278410 3.751296 2.000000
-11.832516 24.433199 3.769449 2.000000
-11.228074 24.960285 3.800256 1.000000
-10.461604 25.132397 3.779902 5.000000
-10.370513 25.135838 3.775501 7.000000
-14.793049 27.393444 3.770208 2.000000
-14.761323 27.541279 3.784154 1.000000
-14.292310 27.702692 3.775017 1.000000
-4.916711 -31.433346 3.852922 2.000000
-8.025262 -31.098536 3.889470 1.000000
-9.530379 -30.171408 3.831763 23.000000
-9.373967 -30.004105 3.806756 4.000000
-9.278487 -30.029610 3.806275 2.000000
5.114454 -27.488008 3.882225 6.000000
5.656392 -27.507032 3.899279 5.000000
5.743585 -27.493004 3.899829 5.000000
6.178202 -27.414856 3.902030 10.000000
4.898224 -27.277826 3.848117 6.000000
6.078308 -27.372244 3.893228 5.000000
5.775651 -27.219027 3.863521 42.000000
5.872819 -27.254974 3.871222 14.000000
3.997993 -27.139925 3.809058 4.000000
6.830349 -27.112629 3.882225 14.000000
7.002547 -27.076849 3.883325 4.000000
4.331832 -27.044510 3.803007 3.000000
6.908634 -27.064163 3.878374 6.000000
5.880517 -26.880306 3.820611 17.000000
6.591911 -26.877958 3.842616 1.000000
7.541663 -26.884315 3.876999 4.000000
7.164871 -26.833427 3.856369 2.500000
7.690209 -26.765949 3.866822 3.500000
7.817349 -26.733255 3.867372 6.000000
7.953364 -26.730274 3.872323 7.000000
-9.777611 -25.766838 3.826663 2.000000
-9.905024 -25.616207 3.813459 7.000000
-9.978249 -25.566507 3.810709 15.000000
-11.648791 -21.926653 3.891648 13.000000
-11.563260 -21.931681 3.886074 20.000000
-11.761945 -21.807814 3.883596 24.000000
-5.036698 -21.592484 3.873650 11.500000
-11.681340 -21.496449 3.834664 32.000000
-5.773626 -21.517414 3.892237 9.000000
-5.632329 -21.530397 3.888107 22.000000
-5.474557 -21.477539 3.872273 10.000000
-5.225515 -21.484716 3.862980 8.000000
-4.925200 -21.573759 3.866078 23.000000
-11.756402 -21.473513 3.837142 25.000000
-5.312106 -21.305809 3.836247 26.000000
-4.798589 -21.327719 3.819266 31.000000
-18.883514 -20.694588 3.889927 2.000000
-18.730583 -20.656956 3.871773 25.000000
-18.789024 -20.205252 3.831064 2.000000
-18.682432 -20.217625 3.822262 2.000000
-3.622814 -19.836651 3.887136 28.000000
-3.441987 -19.721294 3.859122 13.500000
-3.345665 -19.717970 3.855336 26.000000
-3.285636 -19.740005 3.857607 21.000000
4.875230 -14.845598 3.879399 0.000000
4.827156 -13.745726 3.893584 6.000000
5.023744 -13.617451 3.879125 3.000000
5.337553 -13.543238 3.890486 11.000000
17.410261 -13.543764 3.853686 0.000000
17.443373 -13.481771 3.851621 26.000000
-12.062132 -8.087140 3.881191 13.000000
-12.045407 -7.993861 3.863633 14.000000
-12.025288 -7.926207 3.849174 14.000000
-11.992846 -7.786551 3.821496 12.600000
-16.212040 5.015365 3.897894 1.000000
-18.934072 5.988063 3.828079 54.000000
-18.948837 6.058279 3.834893 0.000000
-12.069045 7.579708 3.808896 3.000000
-12.299927 7.778694 3.889453 3.000000
-11.915586 7.853900 3.814060 6.000000
-11.394106 8.752489 3.839879 11.000000
-11.421583 8.830786 3.858469 34.000000
1.713509 19.784334 3.828079 1.000000
1.837902 19.774416 3.828331 6.333333
-11.336699 21.483776 3.807411 10.000000
-11.166323 21.652885 3.818560 12.000000
-11.076569 21.814228 3.834664 10.000000
-11.039983 21.912449 3.845813 5.000000
-11.020567 22.045994 3.863156 13.000000
-10.421660 22.047199 3.822276 10.000000
-10.914871 22.270241 3.887313 19.000000
-10.372909 22.305742 3.855724 5.000000
-9.574070 22.305725 3.804624 3.000000
-10.780732 22.440784 3.902178 3.000000
-10.521786 22.441208 3.884835 4.000000
-9.207446 22.517223 3.812985 1.000000
-10.369465 25.358994 3.804107 2.000000
-10.306120 25.431835 3.810159 2.000000
-14.572959 27.816364 3.802909 1.000000
-4.371421 -32.631954 3.987091 1.000000
-4.453952 -32.472500 3.969298 4.000000
-5.434617 -32.097317 3.942368 4.000000
-4.820420 -32.139072 3.935636 6.000000
-4.695207 -31.989044 3.915438 4.000000
-5.091184 -31.892225 3.911110 2.000000
-4.894906 -31.951061 3.914476 2.000000
-8.278585 -31.668665 3.964009 2.000000
-8.249972 -31.158825 3.903416 3.000000
-12.275553 -30.613565 3.994305 18.000000
-12.356773 -30.538040 3.989496 4.000000
-12.117729 -30.496986 3.974107 2.000000
-13.059835 -30.339184 4.000075 19.000000
-13.141886 -30.009178 3.967375 14.000000
-13.052288 -30.061245 3.968817 8.000000
-12.808604 -30.014828 3.951986 5.000000
-12.642311 -30.016273 3.944292 6.000000
3.842004 -28.566271 4.002152 16.000000
2.535431 -28.186691 3.929536 5.000000
2.755181 -28.150101 3.927335 6.500000
3.022277 -28.140610 3.929811 3.000000
3.466582 -28.111294 3.932837 11.500000
3.600525 -28.106470 3.934487 9.000000
3.921618 -28.153444 3.946865 8.500000
2.435904 -28.068207 3.911932 4.000000
6.492686 -27.989159 3.989499 10.000000
4.541994 -27.797155 3.910831 42.000000
7.266556 -27.856953 3.997384 1.000000
4.623439 -27.747576 3.905880 48.000000
4.890941 -27.737885 3.910831 47.000000
5.229528 -27.623629 3.903680 6.000000
6.476233 -27.525105 3.926235 6.000000
-11.135444 -22.831049 3.981460 3.000000
-12.679178 -22.157024 4.001281 37.000000
-6.607422 -21.857260 3.989302 6.000000
-6.309296 -21.859060 3.974845 12.000000
-6.117187 -21.835833 3.961766 13.000000
-5.990225 -21.777052 3.945933 3.000000
-5.775632 -21.798262 3.939737 7.000000
-7.162017 -21.706764 3.993433 28.000000
-7.018225 -21.728836 3.989302 20.000000
-6.934335 -21.701984 3.980353 8.000000
-6.701559 -21.676029 3.963831 23.000000
-6.423066 -21.739634 3.960389 36.000000
-6.332649 -21.684057 3.946621 12.000000
-5.178533 -21.737202 3.903940 4.000000
-6.615000 -21.636683 3.952816 22.000000
-6.460867 -21.617414 3.941802 5.000000
-6.172501 -21.640057 3.931476 26.000000
-7.246682 -21.508238 3.965208 29.000000
-6.736704 -21.549564 3.944556 13.000000
-5.861859 -21.575220 3.906005 43.000000
-6.785372 -21.468180 3.933541 9.000000
-7.115510 -21.340260 3.930099 21.000000
-19.412786 -20.744955 3.944939 3.000000
-19.182938 -20.628855 3.911381 2.000000
-3.139860 -20.447472 3.987835 41.000000
-2.945334 -20.464493 3.985563 42.000000
-2.845333 -20.452835 3.980642 26.000000
-2.531861 -20.298113 3.943164 5.000000
-3.950232 -20.190439 3.965878 0.000000
-3.881587 -20.175751 3.960578 8.000000
-2.687114 -20.246422 3.937107 10.500000
-4.141922 -20.160006 3.967392 10.000000
-3.227320 -20.171368 3.937864 10.000000
-3.267898 -20.021578 3.910607 17.000000
-3.137166 -20.010674 3.904550 11.000000
-3.578513 -19.948448 3.906821 7.000000
4.578634 -15.427674 3.995380 3.000000
4.548426 -14.226376 3.991698 3.000000
5.288976 -13.996889 3.998928 6.500000
5.633050 -13.782729 3.979305 31.000000
5.596766 -13.572049 3.923535 1.000000
-12.097781 -8.249593 3.913413 12.200000
-15.231625 4.659686 3.954578 13.000000
-11.744508 9.258619 3.996862 1.000000
-11.674023 9.322585 3.992731 32.000000
19.796638 15.916907 3.981460 2.000000
19.737322 15.971563 3.979602 23.000000
-10.148170 20.142355 3.940425 5.000000
-9.900950 20.444672 3.968650 6.000000
1.319252 20.456116 3.951492 1.000000
-9.863173 20.613695 3.992400 26.000000
-9.548690 20.533356 3.956259 7.000000
1.457187 20.580629 3.977235 5.000000
-9.548501 20.702795 3.983106 7.000000
1.401272 20.714424 4.002220 0.000000
-8.573530 20.780348 3.927346 1.000000
-9.529311 20.833019 4.002382 10.000000
-9.159758 20.886307 3.984483 3.000000
-11.079434 22.338942 3.908372 13.000000
-10.866674 22.438816 3.907753 12.000000
-11.557288 22.584927 3.976505 25.000000
-10.477487 22.905926 3.948013 6.000000
-10.379347 22.881149 3.938103 5.000000
-9.999756 22.997873 3.930670 1.000000
-9.644187 22.965040 3.904036 3.000000
-10.652006 23.095383 3.986416 3.000000
-10.351284 23.205761 3.982699 2.000000
-9.834980 23.214809 3.951730 4.000000
-10.041660 23.294083 3.975886 2.000000
-9.587117 23.237061 3.939961 1.000000
-13.402139 25.015835 3.940538 1.000000
-13.763479 25.307035 3.999952 4.000000
-13.003078 25.608299 3.987849 4.000000
-12.879771 25.564110 3.974646 2.000000
-11.900885 25.803167 3.945489 29.000000
-11.801639 25.800791 3.939438 6.000000
-11.517591 25.820419 3.925685 5.000000
-12.033673 25.877024 3.962543 11.000000
-12.155282 25.925182 3.975746 3.000000
-4.560256 -33.247528 4.064034 1.000000
-4.177748 -33.163639 4.047925 7.000000
-4.019787 -33.169197 4.046241 3.000000
-4.322438 -33.055023 4.037105 10.000000
-5.032613 -32.849930 4.024601 3.000000
-4.715457 -32.844799 4.018350 21.000000
-4.604520 -32.804401 4.011617 1.000000
-12.637644 -30.676428 4.017869 14.000000
4.283235 -29.076252 4.080820 5.000000
3.813617 -29.045664 4.067617 9.000000
4.444170 -28.907791 4.061015 6.000000
5.014602 -28.971142 4.082470 5.000000
4.515922 -28.772350 4.043962 9.000000
4.885080 -28.760202 4.050563 6.000000
6.477835 -28.744436 4.091272 8.000000
6.517767 -28.503794 4.059915 9.000000
6.899654 -28.519764 4.074218 5.000000
6.946751 -28.324789 4.049463 6.000000
7.155581 -28.031565 4.017005 1.000000
4.744145 -25.497757 4.065079 11.000000
-8.819950 -24.633158 4.101003 10.000000
-9.748467 -24.189064 4.087687 39.500000
-9.860123 -24.137400 4.086757 21.000000
-10.017505 -24.018251 4.078912 29.000000
-9.920845 -24.069767 4.080564 46.000000
-10.733932 -23.488255 4.047736 4.000000
-10.807672 -23.454416 4.047736 42.000000
-10.846336 -23.345085 4.034728 24.000000
-11.782326 -23.224237 4.081802 16.000000
-11.485989 -23.087837 4.041851 14.000000
-11.586710 -23.017584 4.039064 21.000000
-11.336133 -23.058384 4.027296 24.000000
-12.560519 -22.437603 4.030393 1.000000
-12.615419 -22.370495 4.025437 6.000000
-5.754818 -22.284307 4.020968 9.000000
-12.621219 -22.217365 4.004997 8.000000
-12.770433 -22.154743 4.008094 10.000000
-7.713426 -21.976891 4.069157 5.000000
-7.176941 -21.983870 4.040244 122.000000
-7.389137 -21.705442 4.005824 18.000000
-4.424834 -20.710669 4.082477 36.500000
-3.031337 -20.602800 4.014334 27.000000
-5.311772 -20.553890 4.092319 24.000000
-4.086432 -20.543892 4.037806 22.000000
-3.091956 -20.565987 4.009035 36.000000
-4.125268 -20.403908 4.012820 2.000000
-12.030865 9.121998 4.035075 2.000000
-12.136627 9.142286 4.060894 11.000000
-11.915286 9.272461 4.035075 2.000000
-10.904219 20.353329 4.034048 2.000000
-10.844159 20.550383 4.059519 7.000000
-10.772228 20.570389 4.056766 1.000000
-10.230515 20.546181 4.009954 11.000000
-10.154469 20.636614 4.018215 4.000000
-9.818967 20.772192 4.014084 27.000000
-9.750320 20.795801 4.012708 26.000000
-10.749331 20.844286 4.097382 5.000000
-10.673018 20.856909 4.093251 3.000000
-10.184663 20.863161 4.056077 1.000000
-9.325739 21.084455 4.027853 5.000000
-9.555898 21.154182 4.055388 10.000000
-9.097213 21.286938 4.044374 2.000000
-9.212404 21.370420 4.065715 3.000000
-9.323485 21.442554 4.084990 3.000000
-8.949189 21.499052 4.068469 1.000000
-10.384629 23.679289 4.052691 2.000000
-13.315194 26.222984 4.083570 3.000000
-8.070393 -33.667244 4.192674 10.500000
3.561656 -30.047363 4.201297 5.000000
5.324674 -29.652693 4.183143 9.000000
7.163782 -28.818052 4.123179 8.000000
4.367928 -26.214127 4.165420 8.000000
5.470147 -26.184130 4.192674 18.000000
5.564597 -26.022766 4.170995 2.000000
5.695570 -26.034901 4.177189 6.000000
5.854692 -25.979328 4.174092 17.000000
6.034777 -26.015169 4.185860 4.000000
5.246739 -25.927490 4.146219 5.000000
5.059425 -25.835846 4.126399 5.000000
5.138251 -25.808195 4.124540 10.000000
-8.689866 -24.758936 4.112772 2.000000
-9.421680 -24.595629 4.128257 4.000000
-9.132132 -24.647678 4.119895 1.500000
-11.043427 -24.367710 4.193293 10.000000
-9.671610 -24.328407 4.103481 13.000000
-10.829201 -24.197615 4.155200 3.500000
-10.601553 -24.196896 4.140645 1.000000
-10.542801 -24.269953 4.147458 6.000000
-11.216331 -23.944307 4.144361 10.000000
-12.341222 -23.767998 4.197628 3.000000
-12.148463 -23.760630 4.182763 16.000000
-12.671762 -23.494701 4.184002 1.000000
-12.545668 -23.436844 4.166659 17.000000
-5.391364 -22.950161 4.118722 5.000000
-13.523680 -22.794596 4.154271 28.000000
-7.371861 -22.823715 4.190316 14.000000
-7.221184 -22.847042 4.186185 5.000000
-13.591173 -22.745213 4.153032 35.000000
-7.473961 -22.533211 4.147635 11.000000
