# This PCD file was generated using the MATLAB® pcwrite function
# from Computer Vision Toolbox®.
# .PCD v.7 - Point Cloud Data file format
VERSION .7
FIELDS x y z intensity
SIZE 4 4 4 4
TYPE F F F F
COUNT 1 1 1 1
WIDTH 1207
HEIGHT 1
VIEWPOINT 0 0 0 1 0 0 0
POINTS 1207
DATA ascii
-5.868876 -17.621952 0.301504 10.000000
-5.096256 -17.073280 0.289234 5.000000
-4.418328 -16.699099 0.280404 16.000000
-4.299335 -16.672312 0.279495 22.000000
-5.196447 -16.460987 0.280209 6.000000
-5.136364 -16.450508 0.279755 14.000000
-4.416942 -16.484251 0.277028 3.000000
-5.322837 -16.323828 0.278716 23.000000
-5.260100 -16.363735 0.279019 31.666666
-4.152235 -16.313650 0.273263 3.000000
-4.044839 -16.320007 0.272938 12.000000
-5.488513 -16.224522 0.278034 6.000000
-5.362684 -16.215303 0.277245 29.666666
-4.392257 -16.188519 0.272289 33.000000
-5.399258 -15.716223 0.269757 15.000000
-4.322320 -15.734986 0.264887 27.000000
-5.989710 -15.434307 0.268750 29.500000
-4.400301 -15.447376 0.260732 27.000000
-4.283868 -15.405360 0.259564 19.000000
-5.812832 -15.334617 0.266212 27.400000
-4.318158 -15.341780 0.258720 31.000000
-5.648913 -15.189466 0.263070 35.000000
-5.416151 -15.218813 0.262226 15.500000
-6.220595 -15.107265 0.265212 70.000000
-6.048182 -15.090973 0.263914 26.000000
-5.987221 -15.145350 0.264368 27.000000
-5.519537 -15.131927 0.261468 36.000000
-4.721545 -15.121945 0.257162 16.000000
-4.647819 -15.136380 0.257032 32.500000
-4.485758 -15.143491 0.256382 28.000000
-6.366755 -14.991930 0.264401 25.000000
-6.283271 -15.057451 0.264855 51.000000
-6.092958 -14.997408 0.262777 21.000000
-4.533734 -15.016450 0.254630 41.000000
-6.448963 -14.924080 0.263914 28.500000
-5.229290 -14.915816 0.256577 15.000000
-5.186338 -14.943506 0.256772 22.000000
-4.723277 -14.962107 0.254694 19.000000
-4.749588 -14.882421 0.253591 0.000000
-4.320336 -14.812784 0.250474 21.000000
-4.250519 -14.745581 0.249111 30.000000
-6.543022 -14.037990 0.251416 39.500000
-7.661015 -13.596114 0.253331 25.000000
-7.342677 -13.625431 0.251254 26.000000
-6.880865 -13.681072 0.248592 19.000000
-7.598743 -13.585209 0.252682 9.000000
-7.339642 -13.517941 0.249695 38.000000
-6.440264 -13.538918 0.243376 31.000000
-7.464778 -13.444671 0.249630 27.000000
-6.582832 -13.481673 0.243544 22.000000
-6.859385 -13.324031 0.243268 31.000000
-6.713672 -13.348735 0.242554 24.500000
-6.606665 -13.344109 0.241710 33.000000
-7.275276 -13.250038 0.245378 39.500000
-7.015829 -13.216905 0.242904 23.200001
-6.851482 -13.206562 0.241515 34.000000
-6.748353 -13.210172 0.240801 34.000000
-6.854024 -13.110542 0.240152 37.000000
-12.367923 -11.265873 0.271575 4.000000
-13.231263 -11.098484 0.280339 17.500000
-12.349666 -11.143130 0.270016 10.000000
-13.202171 -10.933493 0.278262 14.000000
-13.188557 -10.783238 0.276541 17.500000
-13.166227 -10.661799 0.275016 14.000000
-13.150755 -10.547115 0.273652 17.500000
-13.296493 -10.392037 0.273944 17.000000
-13.161934 -10.420778 0.272516 19.000000
-13.420082 -10.353515 0.275145 19.000000
-13.424240 -10.256188 0.274236 6.000000
-13.508007 -9.879152 0.271661 22.666666
-13.489023 -9.746555 0.270146 30.500000
-13.458820 -9.596587 0.268328 31.000000
-13.433805 -9.452002 0.266640 31.000000
-13.405869 -9.306961 0.264920 30.500000
-13.378293 -9.163780 0.263232 31.500000
-13.347791 -9.020199 0.261511 31.500000
-13.322669 -8.881807 0.259921 31.500000
-13.291039 -8.710805 0.257962 32.000000
-13.257124 -8.540404 0.255993 33.000000
-13.231192 -8.406538 0.254467 31.500000
-13.202414 -8.272270 0.252909 40.000000
-13.167581 -8.107203 0.251016 32.666668
-13.137369 -7.946921 0.249241 32.500000
-13.111475 -7.819146 0.247813 33.000000
-13.075801 -7.659358 0.245995 33.666668
-13.050671 -7.507533 0.244404 34.000000
-13.026185 -7.357952 0.242857 35.000000
-12.997346 -7.207548 0.241255 34.500000
-12.969193 -7.059388 0.239697 34.333332
-12.949930 -6.943690 0.238529 35.000000
-12.939903 -6.886065 0.237944 34.000000
-12.914351 -6.768773 0.236689 35.666668
-12.886200 -6.599971 0.235023 36.333332
-12.853704 -6.456335 0.233497 36.000000
-12.828486 -6.368114 0.232491 37.000000
-12.661855 -6.235897 0.229115 44.000000
-12.591544 -6.152195 0.227492 43.000000
-12.371856 -5.972820 0.223012 23.500000
-12.382189 -5.858388 0.222363 22.333334
-12.362543 -5.730664 0.221194 16.500000
-12.323982 -5.642357 0.220025 26.000000
-12.337952 -5.543671 0.219571 22.500000
-12.307246 -5.402608 0.218186 22.000000
-12.294523 -5.268467 0.217130 23.400000
-12.257080 -5.095932 0.215481 23.500000
-12.252486 -4.970264 0.214637 23.666666
-12.224367 -4.825240 0.213338 27.000000
-12.210372 -4.695938 0.212364 25.600000
-12.174440 -4.505954 0.210731 25.166666
-12.196797 -4.376698 0.210352 29.000000
-12.169571 -4.381332 0.209962 27.333334
-12.148225 -4.219832 0.208761 23.500000
5.823435 -4.254351 0.242143 31.500000
-12.128608 -4.083793 0.207746 27.571428
-12.091555 -3.904350 0.206262 28.000000
-12.086763 -3.775923 0.205557 29.142857
-12.054733 -3.601735 0.204233 28.250000
-12.057850 -3.509971 0.203859 32.000000
-12.033497 -3.421034 0.203080 26.500000
-12.008576 -3.302138 0.202171 30.750000
-12.009310 -3.184265 0.201685 32.333332
-7.556032 -0.850215 0.255297 1.000000
-7.716443 1.001483 0.295103 22.750000
-7.543082 1.105794 0.255968 29.000000
-10.582361 6.592110 0.202388 36.666668
-10.596234 6.740240 0.203859 11.666667
-10.557358 6.840328 0.204206 33.333332
-10.535059 6.912358 0.204541 33.000000
-10.525313 7.024875 0.205418 33.333332
-10.500227 7.176280 0.206456 32.500000
-10.475340 7.329526 0.207538 31.000000
-10.456120 7.488705 0.208777 29.500000
-10.430996 7.645571 0.209941 29.000000
-10.411861 7.783454 0.211023 29.333334
-10.396819 7.874469 0.211715 28.000000
-10.388164 7.945248 0.212300 28.500000
-10.366343 8.084624 0.213403 27.250000
-10.342531 8.250490 0.214767 26.333334
-10.322238 8.394699 0.215979 26.666666
-10.299104 8.538413 0.217169 26.000000
-10.280290 8.687590 0.218489 25.666666
-10.259568 8.837169 0.219809 24.666666
-10.247110 8.939127 0.220740 24.000000
-10.233362 9.012430 0.221356 24.500000
-10.215370 9.140093 0.222514 24.000000
-10.192803 9.294352 0.223921 22.666666
-10.176759 9.427103 0.225187 14.500000
-11.744973 13.957487 0.296116 11.000000
-11.667542 13.998829 0.295823 25.500000
-11.200712 14.010814 0.291181 7.000000
-10.602145 13.922395 0.284072 21.000000
-11.612908 14.067558 0.296116 15.000000
-11.578799 14.116345 0.296375 2.000000
-11.152101 14.131146 0.292220 33.000000
-11.235337 14.267440 0.294796 18.333334
-11.203194 14.380776 0.295921 0.000000
-11.048593 14.320952 0.293616 26.500000
-10.836260 14.369765 0.292155 21.000000
-10.755041 14.545217 0.293649 39.000000
-10.622554 14.556447 0.292523 42.666668
-10.891421 14.633276 0.296116 42.000000
-10.470670 14.684849 0.292772 44.500000
-11.040459 14.736621 0.298907 29.000000
-10.406790 14.840369 0.294233 51.000000
-10.398973 14.928783 0.295337 46.000000
-10.438500 15.086356 0.297804 18.000000
-4.511447 -23.516005 0.388696 1.000000
-4.580703 -23.478165 0.388307 16.000000
-5.768995 -23.276585 0.389281 3.000000
-5.734917 -22.831659 0.382139 8.000000
-5.340880 -22.770956 0.379672 10.000000
-4.635079 -22.441280 0.371979 12.000000
-4.520224 -22.417809 0.371232 23.000000
-4.723026 -22.335083 0.370583 28.000000
-4.769659 -22.210646 0.368765 27.000000
-4.420201 -22.282824 0.368765 23.000000
-4.897020 -22.125568 0.367856 28.000000
-5.607342 -22.030598 0.369025 9.000000
-4.808741 -22.054876 0.366428 33.000000
-4.927938 -21.938375 0.364999 32.000000
-5.484514 -21.834763 0.365454 3.000000
-5.070950 -21.620239 0.360487 6.000000
-4.926616 -21.614729 0.359870 36.000000
-5.452816 -21.145372 0.354482 2.000000
-5.438353 -20.818567 0.349288 4.000000
6.398601 -19.763258 0.337212 43.000000
6.481664 -19.702465 0.336693 56.500000
6.592183 -19.724836 0.337602 33.000000
-4.933940 -18.887627 0.316891 15.000000
5.366508 -4.893428 0.370067 2.000000
5.387774 -4.881910 0.370474 3.000000
-6.230204 -4.612759 0.327615 15.700000
-6.183037 -4.671407 0.327509 17.142857
18.148438 -4.498009 0.303517 3.000000
18.128605 -4.402504 0.302835 21.500000
5.822791 -4.225896 0.366606 44.500000
5.803740 -4.170410 0.364164 46.000000
5.785246 -4.075003 0.360581 59.200001
5.816923 -4.002342 0.359787 63.000000
5.884215 -3.967350 0.361619 60.250000
5.983438 -3.966361 0.365792 10.000000
-11.796665 -1.817814 0.400753 35.666668
-11.761817 -1.680280 0.398918 49.000000
-11.743242 -1.546078 0.397688 56.500000
-11.717734 -1.382465 0.396157 57.571430
-11.747328 -1.284468 0.396771 1.000000
-7.543872 -0.836824 0.386758 5.500000
-11.623775 -0.731317 0.391044 64.666664
-7.446207 -0.746770 0.313184 43.380951
-11.605480 -0.626531 0.390227 65.750000
-7.423870 -0.599859 0.336268 82.333336
-7.489296 -0.515252 0.317169 52.400002
-11.581778 -0.461155 0.389174 74.000000
-11.557609 -0.296616 0.388180 77.250000
-11.534441 -0.151009 0.387308 83.500000
-11.516438 -0.006050 0.386670 79.500000
-11.493619 0.138398 0.385932 85.250000
-11.472988 0.282380 0.385328 86.750000
-11.452554 0.425939 0.384791 96.250000
-11.445091 0.533732 0.384690 102.000000
-11.432540 0.623166 0.384422 117.333336
-11.413994 0.748108 0.384053 119.500000
-11.391736 0.890530 0.383650 153.500000
-7.726628 0.941154 0.328871 30.500000
-11.372678 1.032991 0.383415 169.000000
-7.604729 1.079254 0.330552 18.636364
-11.350847 1.174989 0.383147 175.000000
-7.496029 1.183176 0.320725 39.083332
-11.333255 1.305289 0.383035 211.166672
-7.494659 1.328401 0.321676 38.666668
-11.330923 1.497799 0.383751 120.000000
-7.577635 1.438969 0.339299 14.000000
-11.238039 2.137652 0.384086 49.000000
-11.195771 2.239178 0.383348 156.500000
-11.174572 2.381344 0.383617 125.750000
-11.153511 2.523795 0.383952 114.500000
-11.131056 2.684675 0.384449 100.599998
-11.105779 2.845302 0.384925 98.750000
-11.084588 2.988791 0.385462 88.500000
-11.068271 3.134117 0.386234 85.000000
-11.045261 3.278067 0.386838 80.250000
-11.026105 3.423713 0.387643 79.750000
-11.008826 3.570645 0.388583 73.750000
-9.597248 3.603684 0.344199 3.000000
-10.995691 3.662045 0.389120 71.000000
-10.979759 3.752809 0.389590 70.500000
-9.584759 3.736991 0.345407 7.333333
-10.957154 3.899538 0.390496 66.750000
-9.641640 3.829081 0.348315 0.000000
-10.941503 4.022247 0.391402 65.599998
-11.014532 4.135701 0.395026 43.000000
-10.930428 4.182677 0.392945 59.250000
-11.006389 4.291212 0.396636 24.000000
-10.900887 4.362251 0.394220 58.833332
-10.874825 4.497886 0.395126 57.500000
-10.851439 4.648740 0.396368 57.000000
-10.843977 4.746634 0.397442 56.000000
-10.833373 4.823352 0.398158 52.666668
-10.815312 4.937972 0.399187 53.000000
-10.796004 5.052685 0.400216 50.166664
-4.760601 -29.263393 0.481277 11.000000
-4.662981 -29.242657 0.480693 33.000000
-4.920364 -29.090937 0.478940 11.000000
-5.193610 -29.039339 0.478875 1.000000
-4.532811 -29.012167 0.476668 11.000000
-4.229590 -28.851782 0.473356 4.000000
-4.305990 -28.743425 0.471798 3.000000
-4.103738 -28.619471 0.469331 35.000000
-4.012140 -28.620338 0.469136 36.000000
-3.879724 -28.656717 0.469429 9.000000
-3.631963 -28.509800 0.466540 12.000000
-3.531040 -28.429783 0.465046 1.000000
-5.226921 -27.715717 0.457840 7.000000
-4.694255 -27.754105 0.456931 7.000000
-5.482450 -27.637764 0.457385 4.000000
-5.289855 -27.573469 0.455762 12.000000
-5.107753 -27.558969 0.454983 10.000000
-4.750174 -27.557917 0.453944 28.000000
-4.119932 -27.501450 0.451412 26.000000
-4.031192 -27.498428 0.451153 17.000000
-4.991055 -27.409620 0.452256 13.000000
-4.803524 -27.353777 0.450828 10.000000
-4.132506 -27.006048 0.443492 31.000000
-4.417207 -26.624510 0.438103 4.000000
-4.293724 -26.393503 0.434078 5.000000
-3.671736 -25.606686 0.419925 3.000000
-3.493944 -25.506416 0.417912 11.000000
-4.700328 -25.360703 0.418691 1.000000
-4.612033 -25.328127 0.417912 4.000000
-4.491600 -25.114145 0.414146 6.000000
-4.384322 -24.966625 0.411485 6.000000
-5.718938 -24.732054 0.412069 24.000000
-4.996910 -24.781912 0.410381 2.000000
-12.984745 -7.200561 0.498514 36.000000
-12.957746 -7.053156 0.495337 36.000000
-12.928753 -6.906243 0.492138 36.500000
-12.905241 -6.763989 0.489207 36.333332
-12.875898 -6.594690 0.485717 35.666668
-12.849940 -6.454454 0.482809 35.500000
-12.812208 -6.360033 0.480259 35.000000
-12.663564 -6.236738 0.473950 41.000000
-12.593296 -6.153051 0.470595 42.000000
-12.368317 -5.971115 0.461132 25.500000
-12.381675 -5.858118 0.459901 24.333334
-12.373535 -5.735749 0.457910 20.500000
-12.318665 -5.639923 0.454890 27.000000
-12.338320 -5.555457 0.454320 26.250000
-12.309258 -5.403491 0.451356 24.333334
-12.297170 -5.260470 0.449074 24.666666
-12.249023 -5.092583 0.445394 22.750000
-12.252134 -4.970135 0.443929 25.333334
5.365993 -4.894674 0.496672 20.000000
-12.227774 -4.826571 0.441378 28.000000
5.387256 -4.883153 0.497218 0.000000
-12.213017 -4.688156 0.439231 27.333334
-12.168829 -4.518376 0.435830 25.000000
-12.167675 -4.374903 0.434139 26.600000
-12.137777 -4.226896 0.431535 22.333334
5.829004 -4.227297 0.492397 32.666668
5.803483 -4.171762 0.488758 60.000000
-12.124278 -4.087384 0.429589 27.000000
5.774625 -4.069039 0.483082 53.200001
5.818420 -4.004865 0.483028 58.500000
-12.091087 -3.904216 0.426602 29.000000
5.879901 -3.965954 0.485006 60.000000
5.990022 -3.951926 0.490737 20.250000
-12.082767 -3.779630 0.425070 28.666666
-12.057316 -3.633450 0.422810 26.500000
-12.045159 -3.526809 0.421401 31.000000
-12.034843 -3.472630 0.420562 29.500000
-12.010141 -3.302565 0.418213 31.500000
-12.006060 -3.183405 0.417039 32.000000
-11.976151 -3.011580 0.414623 30.250000
-11.958630 -2.877679 0.412978 35.750000
-11.920953 -2.698812 0.410381 30.600000
-11.916601 -2.572176 0.409321 32.500000
-11.891487 -2.527617 0.408180 29.000000
-11.895387 -2.450430 0.407777 32.000000
-11.872762 -2.381041 0.406569 29.333334
-11.865927 -2.270063 0.405630 31.250000
-11.837434 -2.110772 0.403717 36.250000
-11.823586 -1.955311 0.402375 37.250000
-10.772357 5.228507 0.402039 49.750000
-10.747807 5.384493 0.403616 46.750000
-10.723682 5.542081 0.405294 45.250000
-10.708633 5.684328 0.407061 43.000000
-10.698565 5.765399 0.408046 41.000000
-10.684289 5.844669 0.408896 40.666668
-10.661742 5.985620 0.410529 39.750000
-10.645558 6.131413 0.412475 38.666668
-10.624783 6.276055 0.414321 37.000000
-10.603161 6.444359 0.416602 35.000000
-10.577798 6.589262 0.418426 34.666668
-10.559978 6.740491 0.420629 33.750000
-10.539194 6.879636 0.422576 32.000000
-10.519664 7.021104 0.424645 32.000000
-10.500645 7.176573 0.427039 31.500000
-10.475192 7.329413 0.429253 31.000000
-10.450790 7.484898 0.431602 30.750000
-10.427567 7.643063 0.434085 30.000000
-10.408431 7.780900 0.436322 29.333334
-10.395520 7.873485 0.437844 30.000000
-10.380675 7.965420 0.439320 29.333334
-10.360757 8.106435 0.441691 28.666666
-10.338068 8.246931 0.444018 27.666666
-10.314683 8.388555 0.446389 27.333334
-10.295692 8.535574 0.449029 27.000000
-10.277889 8.685561 0.451803 25.666666
-10.256157 8.834219 0.454488 26.000000
-10.233530 8.984115 0.457217 25.666666
-10.211959 9.137034 0.460080 26.000000
-10.188402 9.290344 0.462944 24.333334
-10.172367 9.423037 0.465561 17.000000
-17.802197 19.359751 0.426936 43.000000
-17.725105 19.397863 0.426547 0.000000
18.019712 25.077085 0.501274 11.000000
17.933870 25.123804 0.501079 29.000000
-3.448887 -33.836205 0.552109 16.000000
-4.196530 -33.787903 0.552693 8.000000
-3.313884 -33.556324 0.547369 25.000000
-3.195126 -33.427219 0.545097 17.000000
-3.785436 -33.019344 0.539513 25.000000
-3.448148 -32.806946 0.535488 13.000000
-3.960149 -32.724911 0.535099 4.000000
-3.861063 -32.768967 0.535618 21.000000
-3.638264 -32.641537 0.533151 16.000000
-3.518476 -32.493755 0.530554 24.000000
-4.130309 -32.421665 0.530554 4.000000
-5.638967 -16.931622 0.599183 15.000000
-5.362159 -16.893402 0.595089 8.500000
-5.278318 -16.905153 0.594619 5.000000
-5.434957 -16.847046 0.594351 10.000000
-4.300118 -16.532267 0.573546 19.333334
-5.820984 -16.437948 0.585492 5.000000
-5.696612 -16.413769 0.583344 20.000000
-4.650304 -16.325016 0.569922 5.000000
-3.881771 -16.319231 0.563210 5.000000
-5.595660 -16.287910 0.578244 14.000000
-5.529021 -16.259991 0.576633 34.000000
-4.030250 -16.261175 0.562494 9.666667
-3.905835 -16.194254 0.559318 12.000000
-5.789125 -16.186195 0.577170 51.000000
-4.298271 -15.974495 0.555425 20.333334
-7.763919 -15.806213 0.591263 13.000000
-5.781875 -15.774256 0.564083 36.500000
-5.685118 -15.739292 0.561868 30.000000
-4.340927 -15.610552 0.544016 45.000000
-6.098526 -15.497877 0.559184 17.000000
-5.097094 -15.548618 0.549385 24.000000
-5.980460 -15.482349 0.557260 33.333332
-5.792443 -15.427050 0.553278 35.333332
-4.228327 -15.392817 0.535963 10.000000
-6.094064 -15.344884 0.554351 22.000000
-4.315212 -15.331311 0.534755 31.000000
-6.228321 -15.193693 0.551331 57.000000
-6.951323 -15.099372 0.558110 32.000000
-6.889158 -15.130746 0.558199 23.666666
-6.444823 -15.109672 0.551533 56.000000
-6.067882 -15.140123 0.547640 36.000000
-4.404663 -15.101908 0.528177 29.000000
-7.540717 -14.993043 0.563479 39.000000
-7.147382 -15.025270 0.558647 28.000000
-6.981894 -15.041200 0.556768 42.000000
-6.720942 -15.053106 0.553501 32.333332
-6.358399 -15.037792 0.548177 35.000000
-6.283657 -15.058325 0.547842 37.500000
-4.313400 -15.022867 0.524777 35.666668
-7.441811 -14.912924 0.559586 4.000000
-6.411675 -14.902064 0.544687 10.000000
-6.049466 -14.957916 0.541734 24.000000
-4.815116 -14.925691 0.526567 5.000000
-4.455884 -14.985395 0.524911 25.666666
-7.251895 -14.881774 0.555828 21.000000
-7.140927 -14.831116 0.552674 22.000000
-4.618725 -14.874622 0.522943 14.000000
-7.975508 -14.689061 0.561197 3.000000
-7.799228 -14.692952 0.558512 5.000000
-7.621752 -14.691189 0.555694 16.500000
-7.516080 -14.770274 0.556432 19.500000
-7.291944 -14.767115 0.552964 21.333334
-6.920657 -14.787458 0.548177 37.000000
-4.698920 -14.723660 0.518916 3.000000
-4.471200 -14.725462 0.516701 18.500000
-8.355026 -14.638975 0.565928 6.750000
-8.221519 -14.644535 0.563881 4.500000
-8.081806 -14.664268 0.562181 4.000000
-4.622554 -14.643043 0.515560 16.000000
-9.224079 -14.501234 0.577036 2.000000
-9.134359 -14.510674 0.575693 1.000000
-8.963881 -14.511418 0.572687 1.200000
-8.803589 -14.536348 0.570593 3.000000
-8.672234 -14.559325 0.568982 2.666667
-8.519159 -14.578825 0.566935 12.750000
-7.777853 -14.578893 0.554799 20.333334
-5.152411 -14.549957 0.518245 10.000000
-5.000764 -14.556281 0.516768 14.000000
-4.899621 -14.558965 0.515762 14.000000
-9.397352 -14.470656 0.579317 2.000000
-9.302052 -14.472706 0.577640 2.000000
-5.163093 -14.435828 0.514755 0.000000
-5.053770 -14.415167 0.512876 21.000000
-7.009578 -13.459551 0.509520 22.500000
-8.806589 -13.376164 0.537708 29.333334
-9.094253 -13.041222 0.533815 42.000000
-8.792664 -13.040718 0.528077 42.750000
-8.833119 -12.837918 0.523211 39.500000
-12.584777 -12.131706 0.586901 51.000000
-12.026900 -12.153509 0.574083 46.000000
-12.397092 -12.064067 0.580794 43.000000
-12.227741 -11.974288 0.574620 45.000000
-12.079010 -11.903208 0.569385 45.000000
-11.981657 -11.919115 0.567438 44.500000
-11.892947 -11.942868 0.565895 45.000000
-13.331081 -11.840132 0.598646 12.000000
-13.305743 -11.705853 0.595022 11.000000
-13.301388 -11.603616 0.592650 16.333334
-13.263811 -11.400693 0.587237 14.333333
-13.256733 -11.298329 0.584821 15.000000
-13.237246 -11.210124 0.582405 11.000000
-13.220140 -11.077341 0.579094 17.333334
-13.210432 -10.928637 0.575649 13.000000
-13.173556 -10.759445 0.571085 17.666666
-13.151225 -10.649651 0.568177 11.000000
-13.140209 -10.527342 0.565313 14.666667
-13.148429 -10.410067 0.563076 16.500000
-13.415873 -10.350271 0.568915 21.000000
-13.287605 -10.385091 0.566230 13.500000
-13.421624 -10.254189 0.567103 10.000000
-13.494646 -9.869388 0.561331 24.000000
-13.470248 -9.732975 0.557976 32.500000
-13.444874 -9.586647 0.554419 32.000000
-13.413297 -9.437569 0.550660 32.500000
-13.382022 -9.290408 0.546969 32.000000
-13.352728 -9.146276 0.543412 33.000000
-13.325466 -9.005121 0.539989 34.000000
-13.295301 -8.863558 0.536500 33.500000
-13.272238 -8.728222 0.533345 32.500000
-13.253029 -8.596798 0.530392 34.500000
-13.227829 -8.492113 0.527775 34.000000
-13.213675 -8.395405 0.525627 34.000000
-13.188251 -8.263387 0.522540 111.500000
-13.165088 -8.134135 0.519587 139.500000
-13.135105 -7.973812 0.515918 34.333332
-13.104099 -7.814752 0.512272 34.500000
-13.077055 -7.660098 0.508849 35.000000
-13.041572 -7.502305 0.505158 34.500000
-13.017079 -7.352818 0.501959 35.666668
-6.221635 -4.604728 0.529311 15.800000
-6.181056 -4.659493 0.529329 16.666666
-11.710278 -1.381593 0.600842 58.285713
-11.734745 -1.283092 0.601511 32.000000
-11.627215 -0.731550 0.593640 50.000000
-7.429437 -0.742725 0.510590 43.400002
-11.599966 -0.626223 0.591944 66.750000
-7.408207 -0.609030 0.508316 87.000000
-7.468549 -0.501027 0.511877 57.142857
-11.582971 -0.479420 0.590723 71.000000
-11.556601 -0.314773 0.589094 76.800003
-11.531978 -0.150992 0.587669 83.750000
-11.510993 -0.006049 0.586550 78.250000
-11.488191 0.138344 0.585430 87.250000
-11.467573 0.282245 0.584514 90.500000
-11.451145 0.425888 0.583903 100.250000
-11.437172 0.573856 0.583522 109.625000
-11.408619 0.747745 0.582580 122.000000
-7.872307 0.766325 0.540882 4.500000
-11.386374 0.890122 0.581970 147.250000
-7.715422 0.957191 0.531658 30.400000
-11.370310 1.032776 0.581766 158.000000
-7.609589 1.074143 0.525531 13.250000
-7.541399 1.106892 0.521233 22.000000
-11.348486 1.174754 0.581359 160.750000
-7.480057 1.182002 0.517868 39.500000
-11.334867 1.305499 0.581393 170.000000
-7.475412 1.326310 0.519186 41.000000
-11.336645 1.492341 0.582648 155.666672
-11.292814 1.498769 0.580477 212.666672
-7.554315 1.438369 0.525872 12.500000
-11.318499 1.586685 0.582377 5.000000
-11.212711 2.151111 0.581766 96.000000
-11.191483 2.238320 0.581563 146.000000
-11.168334 2.380022 0.581868 121.000000
-11.151179 2.523271 0.582580 121.000000
-11.126780 2.683649 0.583232 106.000000
-11.105381 2.845190 0.584158 102.250000
-11.083214 2.988418 0.584921 89.750000
-11.064001 3.132908 0.585939 87.750000
-11.042910 3.277372 0.586957 79.750000
-11.021836 3.422394 0.588076 80.750000
-11.003608 3.568951 0.589450 73.000000
-10.987633 3.659361 0.590112 72.000000
-9.580974 3.683532 0.523040 0.000000
-10.976435 3.751675 0.591079 71.750000
-10.956649 3.899361 0.592605 66.750000
-10.933010 4.046441 0.594030 67.250000
-10.917007 4.197253 0.595981 62.333332
-10.895578 4.346939 0.597745 62.000000
-10.869628 4.495721 0.599374 58.500000
-10.849913 4.648084 0.601460 58.250000
-12.515254 31.706888 0.553342 35.000000
-12.663639 31.790026 0.555485 6.000000
-12.402477 31.712523 0.552758 37.000000
-12.310005 31.769979 0.553082 36.000000
-12.260307 31.939180 0.555355 27.000000
7.095910 -39.437428 0.650468 26.000000
7.197433 -39.292984 0.648455 60.000000
7.376995 -39.229099 0.647968 60.500000
-19.891073 -32.156155 0.613786 14.000000
-19.756462 -32.163960 0.612747 25.000000
6.410617 -19.800371 0.698778 20.000000
6.483224 -19.707260 0.696563 57.000000
6.583003 -19.697367 0.697302 53.000000
6.671713 -19.756128 0.700120 10.000000
-6.160626 -17.750740 0.630860 1.000000
-5.475236 -17.731447 0.623075 1.000000
-9.626101 -16.835363 0.651128 1.000000
-9.693346 -16.769009 0.650323 3.500000
-12.366065 -5.993973 0.700236 25.000000
-12.363233 -5.944710 0.699015 27.000000
-12.383433 -5.858949 0.698065 26.000000
-12.364469 -5.731539 0.694435 23.000000
-12.324164 -5.642441 0.690669 27.000000
-12.340209 -5.556293 0.689600 26.000000
-12.307558 -5.402727 0.684902 24.666666
-12.296723 -5.260289 0.681509 25.000000
-12.261652 -5.109170 0.676868 24.400000
-12.255487 -4.971513 0.673910 25.666666
-12.233673 -4.828904 0.670178 28.000000
-12.215258 -4.689007 0.666717 26.666666
-6.220988 -4.604249 0.664599 16.400000
-6.184438 -4.662053 0.665056 15.666667
-12.173948 -4.520292 0.661713 24.500000
18.152248 -4.498953 0.627907 3.000000
18.132439 -4.403429 0.626498 19.500000
-12.170033 -4.375755 0.658996 25.799999
-12.145241 -4.229460 0.655318 25.000000
5.816169 -4.180912 0.615091 47.000000
-12.126930 -4.083221 0.652022 27.857143
5.803588 -4.075881 0.608988 58.000000
5.820467 -4.006289 0.606763 59.000000
-12.089829 -3.903807 0.647362 29.750000
5.889986 -3.959248 0.609433 61.000000
5.991718 -3.937331 0.615661 1.333333
-12.084681 -3.775261 0.645130 27.857143
-12.058044 -3.633660 0.641714 27.000000
-12.051662 -3.528726 0.639882 30.500000
-12.033705 -3.472279 0.638202 30.250000
-12.004230 -3.300926 0.634386 28.250000
-12.004347 -3.182918 0.632825 33.166668
-11.970168 -3.020089 0.629059 28.333334
-11.961519 -2.878361 0.626905 37.500000
-11.925454 -2.699869 0.623047 30.400000
-11.921411 -2.599293 0.621731 33.333332
-11.886678 -2.526594 0.619221 28.000000
-11.898406 -2.451051 0.619017 32.000000
-11.881478 -2.408734 0.617745 30.750000
-11.872931 -2.271365 0.615964 34.250000
-11.835640 -2.110451 0.612605 34.500000
-11.825756 -1.955678 0.610773 39.750000
-11.791147 -1.798047 0.607771 36.500000
-11.753219 -1.660196 0.604836 51.000000
-11.739917 -1.545636 0.603377 55.333336
-7.428168 -0.746947 0.641084 40.142857
-7.392573 -0.689693 0.637564 80.000000
-7.388796 -0.642538 0.636879 99.333336
-7.432872 -0.537103 0.639943 75.714287
-7.510090 0.493587 0.646290 1.500000
-7.524987 0.577729 0.648087 20.750000
-7.550990 0.615517 0.650568 19.500000
-7.710522 0.713927 0.664942 16.000000
-7.628592 0.742803 0.658183 11.000000
-7.650811 0.829794 0.660835 9.000000
-7.716717 0.931087 0.667451 38.500000
-7.766381 1.027997 0.672727 14.500000
-7.598985 1.082807 0.659124 15.000000
-7.543125 1.107145 0.654675 27.000000
-7.463832 1.191394 0.649053 42.000000
-7.455894 1.334895 0.650431 47.000000
-7.526576 1.433091 0.657926 16.500000
-10.831733 4.802273 0.603750 54.000000
-10.804127 4.953394 0.605633 53.000000
-10.786682 5.089644 0.607754 48.333332
-10.766260 5.225544 0.609806 49.500000
-10.745285 5.383233 0.612401 46.750000
-10.722034 5.541224 0.614997 45.250000
-10.701955 5.680798 0.617389 42.333332
-10.690722 5.761172 0.618813 41.000000
-10.679960 5.842306 0.620306 41.333332
-10.659159 5.984155 0.622885 39.500000
-10.636726 6.148614 0.626040 39.000000
-10.616057 6.293373 0.628856 37.333332
-10.596236 6.440164 0.631841 37.000000
-10.573434 6.586548 0.634759 34.666668
-10.554760 6.737169 0.638050 34.750000
-10.534147 6.888148 0.641340 32.000000
-10.511106 7.039321 0.644614 33.000000
-10.492148 7.194939 0.648261 31.000000
-10.471876 7.327098 0.651247 31.000000
-10.449631 7.484059 0.654945 30.000000
-10.424218 7.640613 0.658575 29.333334
-10.406135 7.779184 0.662035 29.000000
-10.380732 7.939662 0.665937 28.750000
-10.360507 8.106234 0.670313 28.333334
-10.337778 8.246698 0.673842 27.333334
-10.317448 8.390814 0.677641 27.333334
-10.294291 8.534423 0.681373 27.333334
-10.276464 8.684346 0.685580 25.666666
-10.256705 8.834702 0.689787 27.000000
-10.232031 8.982804 0.693790 26.333334
-10.209427 9.134787 0.698065 26.666666
-11.167070 14.195956 0.606431 4.500000
-11.005465 14.311548 0.606162 23.000000
-10.924046 14.298399 0.604149 8.000000
-10.869402 14.319915 0.603612 17.000000
-10.783885 14.394304 0.603881 22.500000
-11.177617 14.441295 0.613142 16.000000
-10.739433 14.571854 0.607773 46.000000
-10.597090 14.569546 0.604887 47.000000
-10.517790 14.604759 0.604283 49.000000
-10.437343 14.686816 0.604954 48.333332
-11.054871 14.755857 0.619048 7.000000
-10.364051 14.828996 0.607438 50.000000
-10.352107 14.961496 0.610860 48.000000
-10.391102 15.119139 0.615961 15.000000
19.091413 33.634300 0.627809 6.000000
19.228750 33.629707 0.628848 4.000000
19.024921 33.763798 0.629108 5.000000
19.444092 33.759750 0.632419 3.000000
19.095854 34.393181 0.638587 2.000000
18.655569 35.413395 0.649753 3.000000
18.496899 35.562614 0.650706 255.000000
18.401531 35.744106 0.652610 255.000000
18.329176 35.880093 0.654038 255.000000
18.257954 36.019550 0.655532 255.000000
18.150928 36.373325 0.659881 10.000000
18.059635 36.476761 0.660725 255.000000
17.978455 36.601528 0.661959 255.000000
17.903675 36.740517 0.663452 255.000000
17.831680 36.886604 0.665075 255.000000
17.632208 37.066536 0.666309 5.000000
17.750298 37.014565 0.666374 255.000000
-4.826012 -23.181639 0.795018 11.000000
-5.862291 -23.032265 0.797971 21.000000
-5.259423 -23.074867 0.794615 1.000000
-4.647073 -23.046911 0.789380 12.000000
-6.353412 -22.847717 0.796226 1.000000
-5.579439 -22.818542 0.788709 3.000000
-5.346792 -22.796162 0.786159 12.000000
-5.283254 -22.847902 0.787367 11.000000
-4.522528 -22.798668 0.780387 21.000000
-4.433273 -22.722519 0.777300 11.000000
-4.355092 -22.700996 0.776092 18.000000
-4.763169 -22.524920 0.773005 27.000000
-5.547233 -22.381823 0.774213 0.000000
-5.292568 -22.250315 0.767904 23.000000
-4.784389 -22.279236 0.765086 29.000000
-4.916173 -21.886003 0.753139 16.000000
-5.759039 -21.766323 0.755958 6.000000
-4.752581 -21.633608 0.743677 34.000000
-4.896949 -21.484571 0.739851 22.000000
-5.828378 -21.217646 0.738777 1.000000
-2.720256 -15.490561 0.801404 12.000000
-4.249273 -15.097041 0.799165 8.000000
-3.198464 -15.125464 0.787766 1.000000
-4.193261 -15.079525 0.797537 30.000000
-2.808132 -14.889807 0.772092 7.000000
-4.662519 -14.851082 0.793160 18.500000
-3.193964 -14.873183 0.775145 2.000000
-3.098011 -14.881224 0.774535 11.000000
-2.984707 -14.802496 0.769446 20.000000
-4.464846 -14.705060 0.783084 25.166666
-4.316149 -14.712030 0.781252 37.500000
-3.017564 -14.726517 0.765985 17.000000
-4.682116 -14.671006 0.784712 14.000000
-5.033605 -14.577383 0.785832 17.000000
-4.820460 -14.550383 0.781048 27.500000
-5.079224 -14.439507 0.779963 25.666666
-5.121639 -14.319925 0.774942 27.000000
-13.205677 -8.390320 0.797231 35.500000
-13.187040 -8.262646 0.792957 37.500000
-13.157928 -8.101246 0.787359 36.000000
-13.127205 -7.940769 0.781761 35.500000
-13.104785 -7.815167 0.777486 35.000000
-13.074363 -7.658525 0.772092 34.666668
-13.042400 -7.502782 0.766698 35.000000
-13.014495 -7.351358 0.761643 35.000000
-12.982216 -7.199158 0.756418 35.500000
-12.949099 -7.035270 0.750922 35.000000
-12.931614 -6.907760 0.747054 37.000000
-12.906395 -6.764599 0.742508 36.666668
-12.875944 -6.594709 0.737148 36.333332
-12.847664 -6.453304 0.732602 36.000000
-12.809975 -6.358924 0.728734 37.000000
-12.650699 -6.230402 0.718556 44.000000
-12.602012 -6.157310 0.714689 41.000000
-6.217792 -4.601898 0.799937 17.600000
-6.179571 -4.658379 0.800266 14.333333
5.759933 -4.195599 0.736903 9.000000
5.844978 -4.196104 0.744062 34.200001
5.817592 -4.058572 0.733543 52.166668
5.888215 -3.958088 0.733694 61.400002
6.007365 -3.947606 0.743349 16.000000
-11.618728 -0.716739 0.796040 50.000000
-7.416425 -0.742943 0.770779 32.000000
-7.380422 -0.688560 0.766527 56.000000
-11.603040 -0.642629 0.794676 67.000000
-7.381754 -0.618556 0.766034 76.599998
-11.590943 -0.568918 0.793584 67.000000
-7.417433 -0.521838 0.768945 78.125000
-11.574049 -0.477023 0.792152 71.750000
-7.556489 -0.434369 0.782711 50.333332
-11.551070 -0.312590 0.790200 75.599998
-11.531034 -0.148956 0.788604 81.500000
-11.508052 -0.004037 0.786967 78.250000
-11.487242 0.140326 0.785602 85.750000
-11.464624 0.284184 0.784238 89.000000
-11.450525 0.391850 0.783487 92.000000
-11.437868 0.463388 0.782805 98.500000
-7.729577 0.483611 0.800883 16.000000
-7.651680 0.418393 0.792449 16.666666
-11.422818 0.588621 0.782177 107.000000
-7.342012 0.656549 0.762276 5.500000
-11.400654 0.749233 0.781304 115.500000
-11.380392 0.891656 0.780622 129.500000
-7.601696 0.856658 0.791077 22.666666
-11.364167 1.026506 0.780290 140.142853
-7.565828 1.094231 0.790529 16.666666
-11.344254 1.183990 0.779979 124.000000
-7.459422 1.190686 0.781163 42.142857
-11.340316 1.309420 0.780649 121.400002
-7.443637 1.332708 0.781998 38.799999
-11.396804 1.453899 0.785670 25.000000
-11.288687 1.505030 0.778793 160.399994
-7.502577 1.424438 0.789706 25.000000
-11.306499 1.587015 0.780758 52.000000
-11.212481 2.153096 0.780758 74.000000
-11.187329 2.239514 0.780212 134.500000
-11.166111 2.381579 0.780758 113.500000
-11.149065 2.488030 0.781168 112.500000
-11.139046 2.559374 0.781577 108.000000
-11.118667 2.683748 0.782177 100.000000
-11.096281 2.844929 0.783351 99.250000
-11.077956 2.989078 0.784647 88.750000
-11.056799 3.132942 0.785875 87.000000
-11.040466 3.278737 0.787581 80.500000
-11.017446 3.423142 0.788945 80.500000
-11.003227 3.551842 0.790673 71.333336
-10.988907 3.642754 0.791674 74.500000
-10.970076 3.751646 0.792834 72.750000
-10.950260 3.899244 0.794881 66.750000
-10.927526 4.046591 0.796859 65.750000
-10.908405 4.196120 0.799247 61.500000
-10.885392 4.345071 0.801498 61.250000
-10.186851 9.288906 0.702475 25.333334
-10.166370 9.417494 0.706139 21.000000
-4.369499 -26.336950 0.896358 11.000000
-5.141063 -26.132051 0.894210 3.500000
-5.161628 -25.190121 0.863339 11.000000
-4.248875 -25.120855 0.855419 1.000000
-4.785931 -24.946756 0.852869 3.000000
-5.555776 -24.733408 0.851124 4.000000
-5.232953 -24.746513 0.849245 4.000000
-4.584650 -24.736555 0.844681 2.000000
-5.131559 -24.649326 0.845352 15.000000
-3.551439 -24.493895 0.830990 6.500000
-3.402694 -24.553345 0.832265 3.500000
-3.735852 -24.413904 0.829245 3.000000
-4.310719 -24.323013 0.829380 4.000000
-3.650842 -24.370169 0.827366 6.000000
-5.600286 -24.218933 0.834614 11.000000
-4.181093 -24.256418 0.826427 6.000000
-5.654884 -23.446108 0.809783 2.000000
-6.014476 -23.323423 0.808709 2.000000
-4.445883 -16.803242 0.885677 17.000000
-4.476938 -16.708158 0.881402 27.000000
-4.344006 -16.737000 0.881097 9.000000
-4.687388 -16.455202 0.871835 7.000000
-3.821497 -16.409000 0.858502 7.000000
-6.561289 -16.371237 0.898704 1.000000
-5.450961 -16.197199 0.870817 30.000000
-3.974666 -16.255413 0.852701 8.000000
-3.891977 -16.248690 0.851377 8.500000
-3.696653 -16.218466 0.847612 0.000000
-6.932734 -16.113111 0.893819 1.000000
-4.366223 -16.092564 0.849647 25.000000
-7.269813 -16.056002 0.898094 5.000000
-7.161170 -16.084282 0.897144 3.333333
-5.433658 -15.979541 0.860029 15.000000
-4.829308 -15.905422 0.847001 0.000000
-5.477620 -15.863106 0.855143 10.000000
-7.524386 -15.690544 0.886695 0.000000
-3.125517 -15.756149 0.818503 12.000000
-5.801079 -15.598629 0.848019 19.000000
-5.593847 -15.640203 0.846390 0.000000
-5.555351 -15.687825 0.848019 11.000000
-2.898886 -15.640992 0.810564 1.000000
-3.024748 -15.503192 0.804865 6.000000
-5.659873 -15.466191 0.839198 32.333332
-5.583238 -15.457235 0.837434 26.000000
-7.255180 -15.376227 0.866339 39.000000
-5.973475 -15.292599 0.836579 26.200001
-4.375480 -15.360238 0.813821 18.000000
-4.214646 -15.343013 0.810768 19.000000
-6.081001 -15.265385 0.837298 22.000000
-4.396053 -15.250454 0.808732 37.000000
-7.490535 -15.129345 0.860232 25.000000
-7.181612 -15.097229 0.851886 31.000000
-6.895474 -15.102786 0.845983 78.000000
-6.294887 -15.152446 0.836077 79.333336
-7.696415 -15.066043 0.862064 61.000000
-7.479852 -15.036364 0.855754 30.200001
-7.323577 -15.028875 0.851886 29.000000
-6.966685 -15.008434 0.843133 33.000000
-6.427989 -15.014282 0.832228 33.857143
-6.100176 -15.015100 0.825831 31.500000
-7.199282 -14.932247 0.844694 24.333334
-6.703902 -14.930799 0.833973 25.000000
-6.628611 -14.951244 0.833363 27.500000
-7.725897 -14.835056 0.852293 21.000000
-7.654113 -14.867752 0.852090 21.000000
-6.888352 -14.839909 0.833668 29.000000
-6.513230 -14.879870 0.827663 41.000000
-7.768332 -14.709054 0.847612 2.000000
-8.345965 -14.623020 0.857942 2.500000
-8.214514 -14.632061 0.855041 3.000000
-8.075871 -14.653524 0.852565 2.333333
-7.943739 -14.685505 0.850767 2.500000
-7.854671 -14.685806 0.848629 2.000000
-9.223750 -14.500718 0.875702 3.000000
-9.140219 -14.503151 0.873531 2.333333
-8.946550 -14.514025 0.868782 0.000000
-8.806796 -14.541636 0.866271 4.333333
-8.657235 -14.551472 0.862777 5.000000
-8.522164 -14.562956 0.859784 15.600000
-9.429531 -14.470352 0.880079 2.000000
-9.304952 -14.477222 0.876924 2.500000
-9.016976 -14.475109 0.868985 0.000000
-9.072670 -13.547474 0.830818 39.000000
-8.890211 -13.503216 0.823795 17.000000
-8.925968 -13.465231 0.823185 38.000000
-9.800689 -13.371345 0.844762 8.000000
-9.126615 -13.354130 0.824203 33.000000
-9.423124 -13.244856 0.828274 40.500000
-9.277587 -13.259499 0.824610 34.333332
-10.126291 -13.111346 0.844151 7.000000
-10.060731 -13.111403 0.842116 30.000000
-9.729262 -13.143605 0.833261 35.000000
-9.542297 -13.104962 0.826035 34.000000
-9.873606 -13.036314 0.833295 43.666668
-9.416195 -13.060644 0.820437 39.000000
-11.376789 -12.918139 0.877127 57.000000
-9.696652 -12.971220 0.825220 44.000000
-11.522566 -12.596741 0.869901 44.500000
-12.424152 -12.515476 0.898603 43.500000
-11.749074 -12.564121 0.876517 29.000000
-11.627260 -12.551950 0.871835 39.000000
-12.523716 -12.458365 0.900129 48.500000
-11.816786 -12.478384 0.875702 43.666668
-12.708662 -12.289675 0.900842 2.000000
-12.601239 -12.340044 0.898704 29.000000
-11.803343 -12.205625 0.865185 41.333332
-13.290639 -11.594231 0.898704 17.333334
-13.257120 -11.394941 0.890766 15.666667
-13.265259 -11.305595 0.888119 18.000000
-13.230593 -11.204490 0.883438 13.000000
-13.212488 -11.070936 0.878349 19.333334
-13.191183 -10.959315 0.873870 12.000000
-13.170139 -10.837412 0.869087 12.000000
-13.157442 -10.700467 0.864168 18.000000
-13.137014 -10.536076 0.858095 16.000000
-13.164268 -10.402383 0.854940 18.600000
-13.423866 -10.322848 0.862878 18.000000
-13.359301 -10.373703 0.861861 21.000000
-13.418137 -10.251525 0.860436 12.000000
-13.484756 -9.862155 0.851276 24.000000
-13.463613 -9.728180 0.846390 33.500000
-13.433392 -9.578464 0.840691 32.500000
-13.409886 -9.466649 0.836416 32.000000
-13.375029 -9.316808 0.830581 32.666668
-13.339647 -9.137310 0.823897 33.500000
-13.314047 -8.997400 0.818808 34.500000
-13.288879 -8.859277 0.813821 34.500000
-13.262510 -8.721825 0.808834 34.000000
-13.244907 -8.621076 0.805272 36.000000
-13.228258 -8.521809 0.801811 35.000000
-12.226796 -4.823719 0.898832 27.333334
-12.187457 -4.719865 0.893738 26.000000
-12.210596 -4.640867 0.893283 24.333334
-12.193457 -4.546821 0.889917 23.000000
-12.166027 -4.471438 0.886369 24.500000
-12.160446 -4.369908 0.883640 24.400000
-12.129799 -4.211032 0.878046 22.500000
5.797163 -4.194904 0.866571 8.000000
-12.115077 -4.076895 0.874128 26.142857
-12.083279 -3.901429 0.868304 25.600000
-12.063771 -3.757534 0.864060 25.000000
-12.046224 -3.648442 0.860717 26.000000
-12.030754 -3.581960 0.858397 27.500000
-12.017872 -3.455249 0.855123 26.000000
-11.996146 -3.326840 0.851302 23.500000
-11.986680 -3.263452 0.849528 31.000000
-11.975192 -3.159585 0.846936 27.500000
-11.950565 -3.012894 0.842797 26.000000
-11.935074 -2.869828 0.839431 29.250000
-11.913768 -2.706803 0.835474 28.250000
-11.897712 -2.604997 0.832882 30.000000
-11.882524 -2.543059 0.830971 28.000000
-11.869728 -2.423607 0.828447 31.250000
-11.848289 -2.264525 0.824899 31.500000
-11.821789 -2.105836 0.821147 34.000000
-11.802039 -1.949630 0.818009 33.500000
-11.786644 -1.814168 0.815507 35.333332
-11.753167 -1.676960 0.811868 48.250000
-11.730771 -1.523598 0.808935 53.000000
-11.704401 -1.370847 0.805865 57.750000
-11.697023 -1.258304 0.804500 47.000000
-7.381186 -0.735413 0.898310 34.000000
-7.373098 -0.617826 0.896043 78.571426
-7.070930 0.464689 0.858155 10.000000
-7.962786 0.573583 0.825570 4.500000
-7.741117 0.520948 0.802323 11.000000
-7.073991 0.543085 0.859197 20.333334
-7.765994 0.792950 0.807261 4.000000
-7.720576 0.906151 0.803887 28.000000
-7.285842 1.163090 0.893501 44.000000
-7.123530 1.171680 0.874265 46.500000
-6.976997 1.181323 0.856953 48.000000
-6.930351 1.229495 0.852384 51.500000
-6.857001 1.244331 0.843969 42.000000
-6.680037 1.300769 0.824172 16.000000
-6.636725 1.339404 0.819924 8.000000
-10.864963 4.496009 0.804091 58.000000
-10.853286 4.591308 0.805865 56.000000
-10.838838 4.665735 0.806956 56.000000
-10.818769 4.798773 0.809344 52.750000
-10.800174 4.933333 0.811959 52.666668
-10.781954 5.069051 0.814734 50.500000
-10.761378 5.225495 0.818077 49.000000
-10.735894 5.380871 0.821215 45.250000
-10.717053 5.541021 0.825036 44.500000
-10.698820 5.659967 0.827697 41.000000
-10.687655 5.740296 0.829607 41.500000
-10.672551 5.840668 0.831972 40.666668
-10.651426 5.982257 0.835406 38.250000
-10.628096 6.146095 0.839568 37.750000
-10.607401 6.290738 0.843343 36.000000
-10.586696 6.436898 0.847277 35.750000
-10.567061 6.573627 0.851029 34.000000
-10.542142 6.755041 0.856214 33.166664
-10.523150 6.883579 0.859898 31.666666
-10.501484 7.035522 0.864401 31.000000
-10.478935 7.188557 0.868995 30.666666
-10.457717 7.344449 0.873884 30.250000
-10.436058 7.501881 0.878910 29.666666
-10.414235 7.636090 0.883095 28.666666
-10.401974 7.753416 0.887188 29.000000
-10.390849 7.821543 0.889371 30.000000
-10.370189 7.934451 0.892919 28.000000
-10.347322 8.098818 0.898559 27.333334
-17.802633 19.360226 0.883070 24.000000
-17.755211 19.430811 0.883741 2.000000
-4.775236 -29.353359 0.998504 8.000000
-4.582075 -29.327486 0.996625 6.000000
-4.473589 -29.235037 0.993001 6.000000
-4.280532 -29.199282 0.990853 2.000000
-3.349872 -29.220036 0.987497 5.000000
-4.172329 -29.097824 0.986960 3.000000
-3.867157 -28.906033 0.979175 13.000000
-4.434341 -27.808807 0.945485 6.000000
-4.143623 -27.659590 0.939042 3.000000
-5.141479 -27.499691 0.939310 12.500000
-4.833258 -27.523098 0.938236 6.000000
-4.914064 -27.476299 0.937163 27.000000
-4.978159 -27.338799 0.933002 16.000000
-4.329212 -27.149513 0.923069 11.000000
-4.233406 -27.095831 0.920787 2.000000
-5.020184 -26.619492 0.909512 2.000000
-4.317548 -26.539951 0.902801 4.000000
-6.113990 -17.980293 0.967710 0.000000
-5.667828 -17.954199 0.959364 5.000000
-5.772388 -17.702488 0.948779 8.000000
-5.686086 -17.625488 0.943691 9.000000
-6.625219 -17.232319 0.940739 7.500000
-9.619045 -16.823023 0.987455 1.000000
-9.693232 -16.768826 0.986946 3.500000
-7.601008 -16.787474 0.939009 3.000000
-6.060948 -16.779779 0.909086 0.000000
-6.270562 -16.668385 0.907457 28.000000
-6.134503 -16.655148 0.904404 2.000000
-8.105522 -16.306974 0.927915 6.000000
-11.449532 -14.352855 0.935548 22.000000
-11.332425 -14.297964 0.929645 22.000000
-11.245318 -14.310703 0.927406 22.000000
-11.514132 -14.203477 0.931681 11.500000
-11.035167 -14.226437 0.917432 20.333334
-12.071075 -14.103477 0.945930 3.000000
-11.961863 -14.109892 0.942571 3.000000
-11.840895 -14.146502 0.940027 15.000000
-11.708529 -14.168258 0.936566 7.500000
-11.588502 -14.158384 0.932291 7.000000
-11.151933 -13.890051 0.907661 15.000000
-11.875196 -13.612794 0.920485 46.000000
-11.729465 -13.617524 0.915803 24.000000
-11.777423 -13.586644 0.916210 43.000000
-13.462574 -12.735451 0.944301 14.000000
-13.417556 -12.573505 0.936973 16.000000
-12.735978 -12.550615 0.911121 47.000000
-13.409248 -12.447669 0.932291 13.500000
-13.385490 -12.308589 0.926592 12.000000
-12.810203 -12.233144 0.902572 0.000000
-13.372402 -12.180849 0.921706 16.500000
-13.344089 -11.989845 0.914107 17.000000
-13.329611 -11.876249 0.909697 13.000000
-13.306005 -11.743280 0.904302 11.000000
-12.806355 -6.404562 0.979154 0.000000
-12.679847 -6.291570 0.967966 4.000000
-12.645843 -6.225269 0.963872 41.000000
-12.575693 -6.141725 0.957050 41.000000
-12.352128 -5.948718 0.937538 20.500000
-12.334406 -5.833082 0.933035 20.000000
-12.324915 -5.734182 0.929578 20.666666
-12.308160 -5.585871 0.924302 22.000000
-12.293005 -5.416837 0.918639 22.500000
-12.282469 -5.251628 0.913477 23.666666
-12.261408 -5.106520 0.908292 24.000000
-12.247373 -4.965696 0.903744 25.333334
-6.227013 -4.602668 0.937743 15.666667
-6.182251 -4.660420 0.937583 13.000000
18.169964 -4.503344 0.953868 2.000000
18.144382 -4.406332 0.951426 23.000000
5.852089 -4.179459 0.913309 39.666668
5.831143 -4.062521 0.917991 55.000000
5.887000 -3.950777 0.927238 64.181816
6.018191 -3.928341 0.926927 24.222221
-7.418667 -0.747019 0.902958 22.333334
-11.601374 -0.679087 0.997926 77.000000
-11.589454 -0.605358 0.996557 67.000000
-11.574470 -0.477046 0.994760 73.750000
-7.435328 -0.487205 0.902371 59.555557
-11.548343 -0.312521 0.992039 77.400002
-11.528536 -0.148935 0.990055 80.500000
-11.508575 -0.004043 0.988258 79.250000
-11.484803 0.140295 0.986290 87.750000
-7.705010 0.203107 0.933415 0.000000
-11.462213 0.284113 0.984579 86.000000
-7.720560 0.300740 0.935699 12.500000
-7.644825 0.265615 0.926362 21.333334
-11.447133 0.391740 0.983552 93.500000
-11.434491 0.463257 0.982697 95.000000
-11.421842 0.588576 0.982115 101.800003
-11.406751 0.738881 0.981567 82.800003
-7.706377 0.782767 0.938064 40.166668
-11.420773 0.894785 0.983723 32.500000
-7.936353 0.885997 0.967078 2.000000
-7.723744 0.903254 0.941751 44.333332
-7.472449 0.900640 0.911486 23.000000
-11.400679 1.037616 0.983039 80.500000
-7.530066 1.060192 0.920912 14.125000
-11.362160 1.174520 0.980883 74.800003
-7.474862 1.145066 0.915782 33.333332
-11.321666 1.290936 0.978504 128.500000
-11.334976 1.500420 0.981841 46.500000
-11.283459 1.583781 0.978419 92.000000
-7.500721 1.649167 0.930049 0.000000
-6.386948 1.848943 0.923246 1.250000
-11.217028 2.153969 0.980815 53.000000
-11.183085 2.238672 0.979360 124.250000
-11.161869 2.380672 0.980044 112.750000
-11.147759 2.469360 0.980472 113.000000
-11.130864 2.557499 0.980729 106.750000
-11.113338 2.700930 0.982098 96.750000
-11.092029 2.843847 0.983296 99.250000
-11.074656 2.988191 0.985007 90.500000
-11.052528 3.131740 0.986461 91.000000
-11.035225 3.277184 0.988515 83.750000
-11.016004 3.422701 0.990568 81.500000
-10.998499 3.531233 0.991937 81.500000
-10.984907 3.622293 0.993249 73.000000
-10.965748 3.750167 0.995188 74.500000
-10.944979 3.897353 0.997669 68.750000
-10.929335 4.008230 0.999637 69.500000
-10.922600 4.083798 1.001348 68.000000
-10.325631 8.239964 0.903380 26.000000
-10.304268 8.383083 0.908383 24.666666
-10.284184 8.529083 0.913659 25.000000
-10.262267 8.675435 0.918935 23.666666
-10.251881 8.805595 0.924166 24.000000
-10.235929 8.876022 0.926485 24.000000
-10.218862 8.974415 0.930033 24.666666
-10.197268 9.127096 0.935855 24.000000
-10.173690 9.280174 0.941676 22.666666
-10.160049 9.414942 0.947225 20.000000
-10.856156 14.117387 0.907457 29.000000
-11.337104 14.365568 0.932495 2.000000
-11.246436 14.374126 0.929984 20.333334
-10.608122 14.584713 0.918958 44.500000
-10.503078 14.584330 0.915803 44.000000
-10.789650 14.639945 0.926693 46.500000
-10.438858 14.640150 0.916210 48.500000
-10.955069 14.718790 0.934938 47.000000
-10.362751 14.728325 0.917635 48.000000
-10.304152 14.842386 0.920689 47.500000
-10.297503 14.982953 0.926388 50.000000
-10.308939 15.101014 0.931681 31.000000
-3.856983 -32.298149 1.092126 12.500000
-5.144028 -29.842842 1.016758 6.000000
-5.010912 -29.626291 1.008839 13.000000
-4.918467 -29.645832 1.008973 3.000000
6.845408 -19.857992 1.070303 5.000000
6.464314 -19.754248 1.059107 49.000000
6.517562 -19.707293 1.057683 57.000000
6.724941 -19.709263 1.061143 1.000000
6.612275 -19.682011 1.057988 59.500000
-2.691191 -15.596557 1.082309 13.000000
-2.836498 -15.424715 1.072485 14.500000
-4.260487 -15.126759 1.074668 13.000000
-4.150173 -15.160136 1.074850 20.666666
-2.710365 -15.139379 1.051745 4.000000
-4.360743 -15.029593 1.070166 39.000000
-4.174430 -15.001663 1.064844 13.000000
-4.006125 -15.035073 1.064025 15.000000
-3.892928 -15.085407 1.065390 0.000000
-2.944771 -15.079272 1.050653 26.000000
-5.963985 -14.918512 1.098683 57.000000
-4.641527 -14.938997 1.069756 7.500000
-3.008670 -14.907911 1.040010 10.000000
-2.866531 -14.927767 1.039465 23.000000
-2.623411 -14.923784 1.036190 10.000000
-5.810631 -14.826850 1.088995 38.000000
-5.692239 -14.797903 1.084220 27.500000
-3.066718 -14.834938 1.035917 13.500000
-5.574333 -14.697716 1.074941 11.000000
-4.414190 -14.778837 1.054747 15.000000
-4.738101 -14.678198 1.054747 15.000000
-4.660976 -14.675637 1.052973 16.000000
-4.445039 -14.602792 1.043831 20.333334
-5.196817 -14.522127 1.054747 5.000000
-4.955026 -14.564169 1.052018 21.500000
-4.800579 -14.558414 1.048288 15.666667
-5.207145 -14.408150 1.047652 10.000000
-5.075200 -14.431835 1.046151 15.750000
-4.919227 -14.458401 1.044377 28.000000
-4.272812 -14.471136 1.031824 26.000000
-16.380215 -13.522020 1.082313 1.000000
-16.102274 -13.549763 1.072339 2.000000
-16.044378 -13.587379 1.071321 0.000000
-16.434965 -13.480630 1.083127 1.000000
