# This PCD file was generated using the MATLAB® pcwrite function
# from Computer Vision Toolbox®.
# .PCD v.7 - Point Cloud Data file format
VERSION .7
FIELDS x y z intensity
SIZE 4 4 4 4
TYPE F F F F
COUNT 1 1 1 1
WIDTH 1217
HEIGHT 1
VIEWPOINT 0 0 0 1 0 0 0
POINTS 1217
DATA ascii
-18.293093 -11.694431 3.014679 1.500000
-1.631143 -11.333353 3.060130 40.000000
-2.466820 -11.117924 3.043605 3.000000
-11.165392 5.147318 3.052437 15.000000
-11.089320 5.154550 3.036052 43.000000
-11.072956 5.253147 3.042799 42.000000
-11.050515 5.413661 3.055087 40.250000
-11.032845 5.556211 3.066894 39.000000
-11.009829 5.697266 3.077737 37.750000
-10.998317 5.801206 3.087135 37.000000
-10.986693 5.883647 3.094203 35.333332
-10.795364 7.361397 3.001250 28.666666
-10.780983 7.501396 3.016772 29.333334
-10.758542 7.637282 3.030502 28.333334
-10.735894 7.800183 3.048112 27.000000
-10.712106 7.964267 3.066021 27.333334
-10.695911 8.083410 3.079453 25.000000
-10.681000 8.191441 3.091765 25.250000
-10.478517 9.747557 3.020576 19.666666
-10.456236 9.912305 3.040952 19.333334
-10.432154 10.046141 3.056785 19.000000
-10.417693 10.191176 3.075921 18.666666
-10.397994 10.332906 3.093956 18.000000
-11.989460 15.451116 3.065378 5.500000
-11.824789 15.438354 3.048035 18.000000
-11.797347 15.553708 3.059803 0.000000
-8.576902 15.537035 3.100572 1.000000
-10.735420 16.281120 3.056706 44.000000
-10.660406 16.278399 3.049893 64.000000
-10.429702 16.258402 3.027595 95.000000
-10.586784 16.333412 3.050822 60.000000
-10.391629 16.540018 3.061661 41.000000
-10.302705 16.629580 3.066204 34.666668
-10.197391 16.692898 3.065997 17.000000
-9.650273 16.728237 3.026975 64.000000
-10.061926 16.825571 3.072810 60.000000
-9.871720 16.745481 3.046796 0.000000
-9.388638 17.007490 3.044938 14.000000
-9.093938 16.974339 3.018304 6.000000
-9.337063 17.040365 3.045557 3.000000
-9.057187 17.163954 3.041841 12.000000
-10.329708 18.993328 3.002027 11.000000
-9.942252 19.279261 3.011929 17.000000
-10.232967 19.690899 3.081244 8.000000
-14.006786 33.046021 3.082071 1.000000
3.445872 -36.935089 3.185423 7.000000
2.966099 -36.784794 3.168996 4.000000
3.087972 -36.850754 3.175498 2.000000
2.845287 -36.726387 3.163178 7.000000
3.196814 -36.761467 3.168654 3.000000
9.097639 -36.085903 3.195689 5.000000
8.833674 -35.991405 3.182343 7.000000
9.373657 -35.755692 3.174129 19.000000
9.470602 -35.668285 3.168996 6.000000
9.558811 -35.549843 3.161125 18.000000
9.652650 -35.454262 3.155307 21.000000
9.745976 -35.358452 3.149489 25.000000
9.840946 -35.270077 3.144356 40.000000
9.948454 -35.227482 3.143329 27.000000
10.096142 -35.116974 3.137682 23.000000
10.253153 -35.040356 3.135116 25.000000
10.346218 -34.950649 3.129982 20.000000
10.552910 -34.842999 3.126218 19.000000
10.651816 -34.775375 3.123138 33.000000
10.744499 -34.688446 3.118347 24.000000
10.845087 -34.627899 3.115951 29.000000
10.977952 -34.544147 3.112529 38.000000
13.619456 -34.521996 3.186792 1.000000
11.150109 -34.459690 3.110133 21.000000
11.299898 -34.368866 3.106711 20.500000
11.452917 -34.288811 3.104316 40.000000
11.555485 -34.237556 3.102947 44.000000
12.381551 -34.185020 3.122111 6.000000
13.587795 -34.127289 3.154280 5.000000
13.720202 -34.147297 3.160098 5.000000
14.092782 -33.541786 3.124165 6.000000
14.160761 -33.409283 3.115951 11.000000
14.282885 -33.404938 3.119716 8.000000
14.371970 -33.323311 3.116293 4.000000
-9.616785 -23.982962 3.129177 13.000000
-9.725257 -23.819126 3.115712 24.000000
-2.984557 -22.792892 3.191819 2.000000
-5.670563 -21.958050 3.148910 5.000000
4.954340 -19.665934 3.178727 7.000000
5.063353 -19.327839 3.131653 6.000000
6.628381 -19.250221 3.191114 2.000000
5.082497 -19.155233 3.106258 12.000000
5.136498 -19.116274 3.102541 13.000000
7.085053 -18.829525 3.153332 19.000000
6.720413 -18.748768 3.121742 6.000000
6.056967 -17.238091 3.192130 14.000000
5.723646 -17.056751 3.143253 10.000000
5.525874 -16.906437 3.107456 0.000000
6.493827 -16.902779 3.163492 118.400002
-6.277216 -16.860907 3.143253 0.000000
6.598166 -16.836683 3.159316 56.333332
7.047053 -16.780670 3.179739 27.000000
6.280526 -16.691378 3.115717 19.000000
6.792714 -16.761993 3.159775 40.000000
6.930908 -16.699615 3.158857 27.333334
7.328753 -16.711212 3.187999 13.000000
6.204667 -16.648256 3.104014 3.000000
6.776737 -16.572800 3.128109 26.000000
7.482691 -16.634212 3.186623 6.000000
-6.819989 -16.546528 3.126732 0.000000
7.877171 -16.529676 3.199014 1.000000
7.932784 -16.380562 3.179739 8.000000
7.843748 -16.327263 3.164594 0.000000
8.034050 -16.071638 3.139123 2.000000
-11.855126 -15.986195 3.119471 18.333334
-11.998739 -15.913634 3.123848 19.799999
8.033083 -15.944271 3.119159 2.000000
8.133058 -15.893441 3.119159 10.333333
-12.389022 -15.586189 3.120710 22.000000
-12.279543 -15.615650 3.113690 25.333334
-6.229829 -15.380711 3.198899 15.000000
-6.242456 -15.273805 3.180728 3.000000
-6.381049 -15.135448 3.166342 18.500000
-6.276893 -15.153436 3.161799 2.500000
-4.574790 -14.155372 3.139802 2.000000
-5.551237 -14.020806 3.182756 19.000000
-5.654115 -13.917593 3.170641 12.666667
-5.848288 -13.691248 3.142280 16.000000
-5.923146 -13.629083 3.136498 22.000000
-6.048275 -13.565526 3.134846 4.000000
-2.724062 -13.473433 3.157357 26.000000
-2.562510 -13.548736 3.167207 9.000000
-2.993986 -13.296177 3.130494 8.000000
-2.934466 -13.225593 3.111689 0.000000
-2.804027 -13.225965 3.105421 35.000000
-4.392257 -13.165241 3.187802 1.000000
-18.261631 -13.011426 3.113427 6.000000
-6.783607 -13.058999 3.105934 15.000000
-4.725691 -13.061704 3.190489 7.000000
-4.628099 -12.918672 3.151984 12.000000
-4.276323 -12.953156 3.133180 13.000000
-4.417189 -12.835730 3.117957 83.000000
-4.157689 -12.864772 3.105421 2.000000
-15.657453 -12.588920 3.148996 3.000000
-5.988449 -12.571980 3.198548 19.000000
-4.794666 -12.628689 3.102735 16.000000
-5.798466 -12.474628 3.159745 10.666667
-15.699100 -12.460810 3.141563 9.000000
-5.968852 -12.430104 3.167207 16.000000
-15.812722 -12.309873 3.140944 5.000000
-15.730425 -12.325362 3.132272 8.000000
-5.993488 -12.282987 3.139269 13.400000
-3.595679 -12.304150 3.182553 9.000000
-3.470067 -12.303931 3.173879 14.000000
-3.853660 -12.185161 3.172915 48.000000
-3.669575 -12.270224 3.179662 8.000000
-2.932309 -11.495522 3.170637 21.000000
-3.076371 -11.385757 3.152047 29.000000
-2.987805 -11.413298 3.153080 18.500000
-2.875426 -11.422233 3.147916 20.000000
-11.729458 0.331728 3.136039 54.000000
-11.715134 0.441846 3.133199 57.750000
-11.694183 0.588304 3.129326 62.250000
-11.673859 0.752852 3.126434 60.000000
-11.649763 0.916839 3.123129 64.500000
-11.630587 1.062555 3.121322 63.500000
-11.621101 1.196866 3.122269 47.833332
-11.640501 1.359311 3.132166 13.750000
-11.595839 1.508115 3.125195 15.333333
-11.551032 1.643956 3.118224 56.750000
-11.535189 1.789870 3.119773 57.500000
-11.518946 1.927936 3.121359 45.857143
-11.476715 2.508623 3.139654 24.000000
-11.431785 2.574168 3.131736 58.000000
-11.415894 2.702840 3.135351 58.333332
-11.414918 2.835492 3.143441 15.333333
-11.389302 2.996904 3.147503 37.200001
-11.359130 3.158691 3.151015 44.500000
-11.336484 3.290836 3.154850 47.857143
-11.315872 3.434045 3.160457 46.571430
-11.329840 3.583159 3.175801 23.000000
-11.287060 3.628232 3.168572 49.000000
-11.270639 3.740538 3.173736 48.750000
-11.271008 3.892020 3.186818 24.666666
-11.245620 4.044734 3.193978 34.200001
-11.211540 4.196326 3.199383 41.333332
-10.973884 6.010552 3.106411 35.333332
-10.948544 6.154156 3.118218 35.250000
-10.932107 6.304060 3.133077 33.666668
-10.908311 6.451221 3.146410 32.500000
-10.889314 6.602651 3.161670 31.000000
-10.871791 6.756652 3.177975 31.000000
-10.849557 6.909311 3.193477 29.666666
-10.663663 8.298450 3.103630 23.000000
-10.653087 8.398283 3.115868 24.333334
-10.634233 8.547161 3.133777 24.000000
-10.610508 8.693943 3.150790 23.333334
-10.590926 8.846045 3.169595 23.333334
-10.567445 8.996852 3.187803 22.000000
-10.386518 10.419205 3.105108 21.000000
-10.373027 10.504238 3.115847 18.000000
-10.355621 10.652749 3.135672 17.000000
-10.333928 10.798779 3.154671 17.000000
-10.311359 10.946089 3.173945 17.333334
-10.289442 11.096078 3.193908 17.500000
-8.639081 15.534116 3.105391 12.000000
-8.897763 15.881597 3.180427 1.000000
-8.487056 15.841559 3.139811 11.000000
-8.129520 16.010302 3.137058 19.000000
-11.876735 16.395008 3.173152 9.000000
-11.093577 16.484118 3.114310 7.000000
-11.837835 16.559322 3.190495 6.000000
-11.493119 16.622953 3.167578 1.000000
-11.346081 16.632771 3.155809 27.333334
-11.191070 16.742292 3.156429 27.000000
-11.258627 16.958445 3.190495 0.000000
-10.134100 17.067772 3.111213 4.000000
-10.060153 17.312862 3.138466 52.000000
-10.184355 17.400543 3.160145 21.000000
-9.793242 17.351875 3.122981 57.000000
-9.699131 17.397091 3.121949 50.666668
-10.838837 20.231289 3.186868 9.000000
-15.021827 33.660511 3.165231 6.000000
-14.920852 33.718468 3.166258 7.000000
7.711309 -36.879776 3.235387 9.000000
7.219664 -36.832973 3.223067 9.000000
7.332228 -36.794476 3.221699 49.000000
7.586570 -36.860882 3.231623 9.000000
7.936151 -36.799431 3.232650 59.000000
8.070475 -36.859962 3.240179 48.000000
7.798975 -36.722820 3.223752 49.000000
10.746728 -36.727158 3.286036 6.000000
10.433622 -36.506565 3.260370 19.000000
10.573727 -36.561657 3.268241 11.000000
10.949844 -36.567284 3.277823 5.000000
11.129599 -36.540005 3.280048 11.000000
11.309316 -36.511951 3.282272 15.000000
11.433496 -36.506664 3.285010 10.000000
11.741850 -36.483978 3.291170 9.000000
8.668457 -36.302036 3.204929 3.000000
10.192156 -36.090427 3.220330 10.000000
13.468693 -35.776001 3.282614 4.000000
13.208643 -35.422314 3.246339 6.000000
13.040684 -35.310356 3.232307 3.000000
6.773060 -30.934330 3.274714 4.000000
6.880569 -30.959507 3.279651 9.000000
7.541423 -30.936224 3.292818 11.500000
5.847672 -30.859346 3.247970 7.000000
6.043743 -30.833710 3.249204 9.000000
6.418514 -30.696909 3.243032 6.000000
6.089261 -30.557034 3.222049 7.000000
6.150476 -30.366171 3.203945 8.000000
-9.471133 -25.210892 3.261422 2.000000
-3.703830 -23.411402 3.291117 33.000000
-3.286910 -23.387579 3.279289 4.000000
-2.362776 -23.100702 3.224277 14.000000
-3.159511 -23.005274 3.224277 29.000000
-6.425741 -22.662617 3.270762 11.500000
-5.306854 -22.590412 3.222076 8.000000
-6.127829 -22.554152 3.245181 1.000000
-5.369534 -22.538940 3.217125 6.000000
5.506723 -20.240171 3.287740 16.000000
5.560833 -20.188484 3.282165 12.000000
7.951834 -19.273500 3.267919 1.000000
4.650894 -18.100945 3.265101 3.500000
5.884233 -17.813133 3.277492 7.000000
6.020075 -17.663647 3.260282 4.000000
6.906171 -17.514410 3.289195 31.000000
6.920635 -17.233000 3.244449 16.000000
7.466331 -17.171387 3.271297 8.000000
7.254550 -16.975199 3.225173 71.000000
7.513509 -16.987202 3.245137 2.000000
7.793171 -16.966999 3.262003 48.000000
7.926238 -16.768085 3.240318 0.000000
7.781222 -16.664227 3.213126 2.000000
8.707322 -16.500944 3.259594 1.000000
-5.965775 -15.863277 3.267041 15.000000
-7.440751 -15.371386 3.292027 148.000000
-7.243669 -15.456559 3.290513 4.000000
-6.096117 -15.467974 3.204956 19.000000
-7.319314 -15.242436 3.259470 18.000000
-7.215008 -15.270369 3.255684 16.000000
-7.382213 -15.129082 3.245084 32.000000
-7.148091 -15.006501 3.204199 17.000000
-5.202093 -14.665812 3.284360 2.500000
-5.144539 -14.503589 3.248014 8.000000
-5.236679 -14.333149 3.220755 0.000000
-2.809529 -13.674838 3.206607 2.000000
-4.845635 -13.262836 3.243320 32.000000
-4.611111 -13.263666 3.225411 8.000000
-5.892361 -12.887859 3.254961 9.000000
-6.616925 -12.738122 3.297047 18.000000
-3.949801 -12.627000 3.284719 19.000000
-6.811156 -12.528937 3.275557 5.000000
-6.707736 -12.478466 3.254066 5.000000
-6.614982 -12.541126 3.256752 11.000000
-6.195572 -12.497325 3.203921 10.000000
-3.995959 -12.498396 3.257732 55.000000
-3.476202 -12.475578 3.215323 12.000000
-6.603119 -12.423893 3.231679 17.000000
-4.621684 -12.407146 3.287128 10.500000
-4.326274 -12.444074 3.270904 13.333333
-4.215805 -12.376760 3.246166 31.000000
-3.813604 -12.465952 3.236527 29.000000
-3.751941 -12.403554 3.217251 36.000000
-3.556652 -12.460957 3.217251 9.000000
-4.926882 -12.274574 3.283755 24.000000
-4.408381 -12.305359 3.245202 18.000000
-4.999503 -12.232594 3.280864 18.000000
-4.947931 -12.215857 3.272189 20.000000
-5.238399 -12.157580 3.286646 26.000000
-5.075318 -12.112894 3.260623 17.000000
-4.781778 -12.133094 3.237813 9.333333
-4.627884 -12.074946 3.210504 23.000000
-4.531495 -12.165319 3.223034 3.000000
-4.315193 -12.165479 3.204721 14.000000
-5.140704 -12.034743 3.249057 20.000000
-17.208036 -11.897652 3.279068 5.000000
-2.954114 -11.892509 3.274948 8.000000
-17.131321 -11.765226 3.257390 1.000000
-2.862468 -11.680286 3.214014 17.000000
-3.226906 -11.580888 3.212981 59.000000
-3.186407 -11.576065 3.208850 35.000000
18.224205 -2.211827 3.207275 14.000000
18.207586 -2.151787 3.203145 19.000000
-11.220600 4.340962 3.215391 16.333334
-11.173228 4.496529 3.218883 40.857143
-11.083639 5.137808 3.264965 39.666668
-11.067652 5.250631 3.273915 40.000000
-11.045044 5.410970 3.287083 38.000000
-11.026055 5.552786 3.299391 36.333332
-10.830610 7.041584 3.207291 29.333334
-10.807679 7.197016 3.223757 28.750000
-10.788613 7.356783 3.241989 26.333334
-10.768724 7.492872 3.257089 27.666666
-10.743078 7.651747 3.274599 26.250000
-10.722653 7.816288 3.294357 26.333334
-10.552521 9.128024 3.204816 22.500000
-10.541717 9.205853 3.214666 23.000000
-10.528373 9.311519 3.228396 21.000000
-10.504124 9.482973 3.250484 21.500000
-10.491508 9.606997 3.267498 20.500000
-10.468962 9.738680 3.284213 20.000000
-10.268316 11.249310 3.214697 17.333334
-10.248593 11.406259 3.236450 16.000000
-10.212976 11.474888 3.242232 0.000000
-10.020663 15.513323 3.226550 52.000000
-9.982518 15.561308 3.229992 0.000000
-9.918253 15.677002 3.241007 2.000000
-9.775754 15.668807 3.226550 3.000000
-8.751719 16.459591 3.256840 5.000000
-8.617051 16.454916 3.245137 37.000000
-8.578036 16.506378 3.249956 22.000000
-8.373955 16.491512 3.231369 8.000000
-8.065451 16.521980 3.212094 1.000000
-8.535171 16.550755 3.253398 7.000000
-12.231535 16.718355 3.246860 5.000000
-12.000593 16.676018 3.220226 8.000000
-8.804788 16.685642 3.296079 6.000000
-7.960233 16.703972 3.232746 0.000000
-8.350673 16.748850 3.269690 2.666667
-7.736497 16.774057 3.227239 8.000000
-11.910290 16.997019 3.253054 0.000000
-7.750965 16.945192 3.255463 7.000000
-7.689548 16.951519 3.252021 5.000000
-12.104338 17.101999 3.284024 13.500000
-11.944874 17.160849 3.277210 6.000000
-17.043468 34.079578 3.272005 3.000000
-16.658566 34.109772 3.259685 3.000000
-16.402485 34.127563 3.251472 4.000000
-16.293480 34.175323 3.251130 8.000000
-15.765890 34.167488 3.231281 6.000000
-16.599970 34.262367 3.269268 2.000000
-16.080118 34.280632 3.251472 3.000000
-15.573956 34.316685 3.236072 2.000000
-15.719841 34.350933 3.243943 2.000000
6.718109 -38.061417 3.318890 2.000000
6.951376 -37.987091 3.316152 5.000000
6.817899 -37.930294 3.309308 43.000000
9.046112 -37.883591 3.344557 3.000000
7.276653 -37.751614 3.301437 3.000000
13.230743 -37.259090 3.395206 3.000000
10.911833 -36.861359 3.301095 4.000000
-18.545469 -34.399509 3.355850 11.000000
-18.407223 -34.401375 3.350375 30.000000
-18.129391 -34.400009 3.339081 8.000000
-18.222420 -34.314724 3.336344 44.000000
-18.556581 -34.035294 3.328815 31.500000
-18.718758 -33.950974 3.329157 4.000000
3.052132 -32.714722 3.397737 10.000000
3.254462 -32.663227 3.394445 17.000000
3.442855 -32.483868 3.377987 16.000000
4.487584 -32.548889 3.397737 5.000000
2.802740 -32.229847 3.345483 9.000000
6.866245 -31.838345 3.368113 3.000000
8.988540 -31.450314 3.382513 3.000000
9.193786 -31.419949 3.385393 2.000000
9.268734 -31.310793 3.376753 1.000000
7.135308 -31.179405 3.307630 10.000000
7.326515 -31.114594 3.305573 4.000000
7.440864 -31.161083 3.312979 13.000000
-4.569278 -27.511377 3.377318 5.000000
-4.120681 -27.473722 3.364334 3.000000
-4.037231 -27.506178 3.366738 7.000000
-3.863226 -27.523136 3.365777 7.000000
-5.710615 -27.406836 3.390302 2.000000
-5.603741 -27.323502 3.377799 8.000000
-5.431951 -27.358171 3.377799 1.000000
-5.502162 -27.263123 3.368181 2.000000
-3.562471 -27.243326 3.327305 1.000000
-6.454630 -27.114687 3.375394 37.000000
-1.463093 -23.921373 3.327700 7.000000
-1.610168 -23.864275 3.321099 18.000000
-2.200585 -23.721592 3.307896 6.000000
-3.929487 -23.633709 3.326600 1.000000
-3.841836 -23.563818 3.315047 35.000000
-3.460869 -23.550697 3.305145 14.000000
7.105528 -20.222290 3.359590 18.000000
7.519928 -20.177343 3.375074 6.000000
8.265701 -19.510628 3.321187 0.000000
5.341403 -18.701572 3.397963 2.000000
5.357462 -18.537067 3.371115 9.000000
5.415668 -18.520147 3.371115 22.000000
7.264583 -17.686554 3.340481 3.000000
7.432475 -17.620935 3.341169 7.500000
7.583930 -17.592785 3.347021 17.000000
7.832716 -17.412071 3.335662 6.000000
8.854692 -17.303587 3.395898 2.000000
8.343746 -17.092072 3.322927 19.000000
8.576700 -17.157177 3.351151 19.000000
8.463230 -17.064018 3.327746 1.000000
9.088928 -16.837704 3.342891 7.000000
5.871864 -16.554075 3.385912 7.000000
-6.081102 -16.017038 3.302627 3.000000
-6.773200 -15.856530 3.323827 8.000000
-11.655000 -15.528610 3.392111 31.000000
-11.561711 -15.556511 3.386260 25.000000
-7.623744 -15.402449 3.312924 46.200001
-11.813112 -15.334128 3.381785 23.000000
-7.732509 -15.354345 3.313984 40.000000
-9.165246 -14.799325 3.355626 3.000000
-5.145841 -14.801794 3.307490 15.000000
-9.184675 -14.727133 3.345783 5.000000
-9.230907 -14.647129 3.337455 4.000000
-9.583301 -14.489719 3.348812 5.000000
-9.431374 -14.506325 3.335436 4.333333
-9.309018 -14.567324 3.332533 5.000000
-3.451921 -14.085545 3.331074 10.000000
-16.618275 -13.885180 3.394276 5.000000
-5.753678 -13.587772 3.389279 1.000000
-5.106276 -13.577826 3.331970 11.000000
-5.895467 -13.565123 3.397338 7.000000
-5.791744 -13.558874 3.386592 5.000000
-16.847437 -13.372277 3.371358 14.000000
-5.274604 -13.383510 3.304211 5.000000
-16.731245 -13.365939 3.356493 17.000000
-17.136871 -13.168604 3.387462 3.000000
-2.801747 -13.147247 3.337408 4.666667
-6.708155 -13.063940 3.373161 8.500000
-6.549270 -13.004804 3.344506 6.000000
-6.143778 -13.003139 3.303315 10.000000
-6.747309 -12.889966 3.341820 11.000000
-6.579504 -12.963308 3.339134 9.000000
-4.201146 -12.929857 3.375319 16.500000
-3.765549 -12.885518 3.332910 13.000000
-16.848354 -12.862906 3.322426 6.000000
-3.972071 -12.839616 3.336765 25.000000
-17.462385 -12.733794 3.387462 8.000000
-17.616983 -12.593933 3.394276 38.000000
-4.251311 -12.610667 3.303995 27.000000
-17.588802 -12.490472 3.381268 8.000000
-4.767681 -12.557614 3.334838 13.000000
-17.825628 -12.324655 3.396753 1.000000
-5.316796 -12.233635 3.311706 29.000000
-3.452083 -12.240164 3.398882 18.000000
-17.775705 -12.153093 3.375074 7.333333
-6.116718 -12.145889 3.376282 56.000000
-3.495682 -12.103142 3.366866 32.000000
-17.695633 -11.989850 3.350299 10.000000
-2.847639 -12.027672 3.303349 3.500000
-17.861692 -11.737391 3.349989 0.500000
-17.908527 -11.567824 3.341627 3.000000
-17.801758 -11.419751 3.314993 3.000000
-11.008334 5.696487 3.312645 37.250000
-10.995818 5.799888 3.322456 36.000000
-10.981819 5.881032 3.329341 36.000000
-10.957533 6.001606 3.338981 34.333332
-10.943049 6.151083 3.354989 34.000000
-10.918881 6.296437 3.368587 32.666668
-10.899941 6.446289 3.384423 32.000000
-10.882185 6.551612 3.394751 30.000000
-10.704588 7.958693 3.311706 25.333334
-10.683760 8.100657 3.328733 24.666666
-10.664263 8.245320 3.346725 25.000000
-10.642985 8.390330 3.364716 23.666666
-10.623960 8.538898 3.383993 24.000000
-10.603286 8.632428 3.394595 24.000000
-10.448393 9.904854 3.306897 20.000000
-10.419996 10.066092 3.327791 20.333334
-10.402350 10.208134 3.347640 19.500000
-10.385760 10.353295 3.368385 19.666666
-10.365358 10.496482 3.388383 18.500000
-11.382922 15.507318 3.360789 1.000000
-10.696659 16.002634 3.362854 43.000000
-10.617846 16.047920 3.361822 57.500000
-10.569112 16.138994 3.370427 50.000000
-10.135015 16.590792 3.396586 52.000000
-10.028192 16.591125 3.386949 64.500000
-9.914651 16.638588 3.383851 64.000000
-9.865165 16.734360 3.393832 54.000000
-12.836176 17.145985 3.357112 2.000000
-11.823883 17.569290 3.319329 3.000000
-9.918019 18.939213 3.350918 2.000000
-9.363921 19.030006 3.324284 1.000000
-9.437076 19.486807 3.393656 5.000000
-9.064839 19.492889 3.369500 2.000000
-8.924110 19.509928 3.362686 5.000000
-8.867665 19.548664 3.364545 2.000000
-16.021938 35.303795 3.329157 3.000000
9.598392 -39.107128 3.457833 7.000000
13.541940 -37.388809 3.414713 4.000000
-4.492527 -33.535992 3.498953 2.000000
-3.742091 -33.519909 3.487844 6.000000
-4.328859 -33.104130 3.452459 5.000000
3.787204 -32.781986 3.412549 7.000000
4.216570 -32.869934 3.426950 3.000000
4.729507 -32.779961 3.424892 4.000000
5.046707 -32.788982 3.430653 3.000000
3.366421 -32.743874 3.403908 12.000000
3.622602 -32.708473 3.403086 11.500000
8.303617 -32.505257 3.469329 2.000000
8.468334 -32.302345 3.453282 12.000000
8.914810 -32.342972 3.469329 7.000000
8.348866 -32.259453 3.445876 19.000000
8.766129 -32.198059 3.450814 12.000000
8.932970 -32.015881 3.437236 7.000000
9.054053 -32.060410 3.445053 4.000000
8.554385 -31.814318 3.406789 6.000000
-7.148499 -27.881866 3.485759 16.000000
-7.022339 -27.936464 3.488405 15.000000
-6.914463 -27.877449 3.478306 24.000000
-5.454812 -27.932426 3.446567 1.000000
-6.418430 -27.735018 3.447528 6.000000
-4.692810 -27.716141 3.404248 11.000000
-6.482846 -27.618071 3.435506 11.000000
-8.986233 -26.966461 3.442239 4.000000
-9.425782 -26.870697 3.448490 4.000000
-9.864536 -26.767767 3.454742 2.000000
-9.293119 -26.761379 3.430697 2.000000
-3.192079 -24.987267 3.497688 3.000000
-2.942953 -24.902136 3.481735 8.000000
-5.290888 -24.596006 3.493287 5.000000
-5.392250 -24.504990 3.483935 3.500000
-3.660742 -24.378176 3.422871 2.000000
-9.382891 -23.176868 3.471833 7.000000
-9.285995 -23.252094 3.476509 5.500000
-2.504642 -22.189102 3.499985 15.333333
-1.916732 -22.174831 3.488630 5.000000
-1.776555 -22.177326 3.487185 6.000000
-6.986163 -20.952333 3.461789 1.000000
-6.722137 -20.924383 3.444756 3.000000
5.263855 -18.764450 3.404847 9.000000
7.239432 -18.191891 3.420680 15.000000
8.572165 -17.988073 3.481260 13.000000
8.594509 -17.890020 3.467492 2.000000
6.066682 -17.103741 3.498346 5.000000
6.109383 -16.886194 3.461625 2.000000
6.598954 -16.899286 3.497211 5.000000
6.738538 -16.636650 3.460111 1.000000
-7.635341 -16.292244 3.468440 4.000000
-7.504703 -16.346424 3.467304 6.000000
-7.618686 -16.256773 3.460868 14.000000
-7.723227 -16.148590 3.450647 9.000000
8.301580 -16.104698 3.492668 19.000000
8.172245 -15.976842 3.459354 17.000000
-11.632148 -15.754419 3.421369 20.000000
-11.566283 -15.768645 3.416550 17.000000
8.889160 -15.756423 3.487368 1.000000
-11.848241 -15.632128 3.426876 26.000000
-11.832760 -15.510247 3.408289 33.000000
-7.804104 -14.409319 3.458656 5.500000
-7.870041 -14.368973 3.457830 20.000000
-5.654836 -14.088160 3.486883 2.000000
-5.481939 -14.104042 3.475690 7.000000
-5.863355 -13.968841 3.479719 6.000000
-5.350536 -13.960467 3.434051 35.000000
-16.916492 -13.865724 3.428342 6.000000
-6.146879 -13.786683 3.467183 2.000000
-6.236600 -13.754891 3.468974 2.000000
-5.985250 -13.596039 3.412113 12.500000
-17.750645 -13.202031 3.467364 18.000000
-4.359414 -13.204843 3.452425 26.000000
-4.704564 -13.003310 3.433148 14.000000
-5.017377 -12.969128 3.452425 1.000000
-17.719927 -12.836513 3.429581 53.000000
-17.521053 -12.861077 3.406663 4.000000
-17.724880 -12.755394 3.422768 43.000000
-5.622737 -12.718380 3.452425 12.000000
-17.908890 -12.633336 3.435156 6.000000
-5.829037 -12.609463 3.448890 19.333334
-17.887005 -12.533918 3.423387 26.000000
-6.553131 -12.471414 3.497724 18.500000
-5.507942 -12.565315 3.406161 3.000000
-17.897100 -12.457349 3.417813 11.000000
-6.072562 -12.445087 3.437967 73.000000
-4.007225 -12.399203 3.482537 5.000000
-3.544612 -12.418774 3.451554 13.000000
-6.104082 -12.312777 3.411944 46.000000
-3.948245 -12.349156 3.464980 5.000000
-3.862332 -12.302045 3.446045 18.333334
-3.702004 -12.308132 3.435029 17.500000
-3.605229 -12.336909 3.435029 13.000000
-3.268310 -12.326495 3.408177 2.000000
-18.340103 -12.217472 3.454047 2.000000
-4.642982 -12.229169 3.495963 15.000000
-4.466859 -12.265793 3.488734 14.333333
-4.357340 -12.243615 3.473242 18.000000
-3.772296 -12.193848 3.411275 23.000000
-4.696025 -12.138485 3.478406 18.000000
-4.614247 -12.153206 3.474275 9.000000
-4.509132 -12.163803 3.467045 8.000000
-18.664095 -11.890344 3.468603 0.000000
-10.879232 6.619896 3.403530 31.000000
-10.858942 6.748668 3.416955 30.000000
-10.840069 6.891311 3.432964 29.000000
-10.816336 7.056560 3.451554 28.750000
-10.795984 7.213689 3.470144 28.000000
-10.778597 7.349958 3.486668 27.666666
-10.598450 8.711885 3.406161 23.000000
-10.580304 8.837178 3.422546 23.000000
-10.562562 8.992706 3.444071 22.333334
-10.543168 9.090990 3.456280 22.000000
-10.533857 9.169889 3.467364 21.000000
-10.518173 9.302498 3.486158 21.000000
-10.344144 10.640936 3.408680 18.000000
-10.319636 10.817880 3.434051 18.000000
-10.299793 10.968212 3.455990 17.000000
-10.275468 11.116048 3.477033 17.333334
-10.256117 11.271369 3.500314 16.500000
-11.501307 15.772230 3.410354 5.000000
-11.395700 15.783108 3.401061 12.500000
-11.314573 15.880089 3.406568 17.000000
-11.236250 15.928400 3.405535 3.000000
-7.755139 16.085337 3.442318 10.000000
-7.739265 16.247585 3.469197 1.000000
-7.648528 16.276011 3.466673 9.666667
-7.579165 16.305559 3.466168 3.000000
-10.480207 16.488621 3.413337 51.666668
-10.345669 16.505201 3.403241 66.000000
-10.627170 16.566227 3.438579 52.000000
-10.265837 16.628334 3.414140 33.000000
-10.902910 16.763382 3.493651 68.000000
-10.003613 17.091736 3.459919 60.000000
-9.706080 17.517368 3.498814 37.500000
-9.589180 17.565922 3.496405 56.000000
-10.605188 19.211267 3.439491 2.000000
-9.894234 19.949276 3.490282 5.000000
-9.567762 20.077255 3.485946 2.000000
-9.482681 20.060772 3.477894 2.000000
-3.722569 -34.322613 3.570133 4.000000
-4.139212 -34.154629 3.557790 7.000000
-3.607845 -25.098755 3.520793 4.000000
-2.392990 -22.691591 3.576377 23.000000
-2.307214 -22.557472 3.554079 7.000000
-2.220361 -22.403376 3.528684 24.000000
-2.714838 -22.368750 3.531781 7.000000
-2.063490 -22.243753 3.501431 1.000000
-6.052678 -22.004095 3.576997 0.000000
6.060388 -19.362406 3.544593 19.000000
5.945930 -19.208202 3.512926 4.000000
6.350177 -19.223669 3.537020 6.000000
6.977931 -19.088736 3.550789 21.000000
7.029679 -19.044540 3.546658 7.000000
8.940099 -18.313692 3.560426 7.000000
9.243984 -18.347700 3.589339 8.000000
9.321205 -18.357216 3.596912 2.000000
9.392052 -18.072754 3.558361 2.000000
8.877552 -18.041569 3.512926 0.000000
9.308138 -18.049641 3.548035 2.000000
6.243275 -17.088268 3.507053 5.000000
7.188765 -17.126492 3.580496 19.000000
6.975029 -17.066233 3.553996 18.000000
7.867234 -16.925299 3.597910 57.000000
7.920369 -16.900499 3.597910 46.000000
7.565859 -16.756613 3.544153 8.500000
7.950086 -16.556013 3.540367 2.000000
8.641219 -16.508074 3.591853 6.000000
9.620745 -15.980008 3.595638 0.000000
9.668865 -15.946346 3.594881 16.000000
9.769865 -15.886864 3.595260 3.500000
-6.353606 -15.545760 3.544565 2.000000
6.391966 -15.500396 3.538783 0.000000
6.449652 -15.501920 3.543739 6.000000
6.639090 -15.542334 3.567143 11.000000
6.767229 -15.570992 3.583389 3.000000
7.076858 -15.350889 3.567694 22.000000
-11.166538 -14.921191 3.592610 9.000000
-11.355393 -14.686985 3.578729 31.333334
-11.512686 -14.572411 3.579991 31.000000
-11.472573 -14.647301 3.586553 5.000000
-5.862870 -14.091576 3.505687 3.000000
-2.891507 -14.073851 3.567120 11.000000
-3.375130 -13.961771 3.566156 2.000000
-3.586561 -13.700384 3.516037 4.000000
-18.208914 -13.631919 3.565228 32.000000
-18.118652 -13.653389 3.555937 4.000000
-5.069089 -13.543408 3.590251 13.000000
-4.520052 -13.548293 3.545916 5.000000
-4.053329 -13.553409 3.512182 19.000000
-4.858633 -13.298409 3.515073 44.000000
-5.842885 -13.104860 3.562301 10.000000
-6.337796 -12.885780 3.565192 21.000000
-6.136975 -12.883794 3.543024 15.000000
-6.077319 -12.967797 3.555554 41.000000
-5.838013 -12.875731 3.509933 3.666667
-6.567702 -12.839942 3.580613 11.000000
-6.364843 -12.738050 3.535314 15.000000
-6.146764 -12.698219 3.502543 9.000000
-6.809745 -12.620670 3.560373 0.000000
-4.244193 -12.589553 3.550701 12.000000
-4.130151 -12.643689 3.554832 27.000000
-6.679297 -12.567223 3.533386 1.000000
-6.528348 -12.567603 3.516037 4.000000
-6.467488 -12.546642 3.504471 14.000000
-4.141988 -12.546251 3.531078 19.000000
-4.281713 -12.442055 3.516619 14.000000
-5.403604 -12.327288 3.597176 25.000000
-5.282631 -12.367005 3.594078 24.000000
-4.847708 -12.319143 3.538135 27.333334
-5.097556 -12.252121 3.546570 28.000000
-5.229371 -12.136630 3.531904 26.200001
-5.077693 -12.097081 3.506291 17.000000
-4.943025 -12.148540 3.505258 17.500000
-17.071869 -11.180026 3.565245 3.000000
-17.203854 -11.074381 3.574538 8.000000
-17.080479 -11.109155 3.559738 6.000000
-17.161156 -10.932865 3.554919 4.000000
-19.966127 -10.376002 3.526826 4.000000
18.231703 -2.215965 3.540367 20.000000
18.238573 -2.158677 3.540367 17.000000
-10.757285 7.510062 3.506291 27.250000
-10.729651 7.667581 3.524537 26.333334
-10.712083 7.808572 3.542783 26.000000
-10.695997 7.926206 3.557930 25.500000
-10.683304 7.995039 3.566192 26.000000
-10.675901 8.094708 3.580651 24.333334
-10.652130 8.235934 3.598553 24.000000
-10.497315 9.461864 3.508648 22.666666
-10.475338 9.622532 3.531458 20.666666
-10.456252 9.757473 3.550735 19.500000
-10.437472 9.894500 3.570654 20.000000
-10.416346 10.062565 3.595713 20.333334
-10.247294 11.368798 3.515537 16.000000
-10.228630 11.456219 3.527626 8.000000
-11.112387 14.995770 3.597910 11.500000
-10.958811 15.033855 3.586300 9.333333
-12.082772 16.679428 3.598289 2.000000
-11.388797 16.695353 3.530825 24.000000
-11.818833 16.828949 3.592781 2.666667
-11.510677 17.045956 3.593470 30.500000
-10.102309 17.385410 3.512926 99.000000
-9.797169 17.486944 3.501912 40.000000
-9.523159 17.642141 3.502600 50.000000
-10.637276 19.855064 3.530542 0.000000
-10.785944 19.981514 3.559034 8.000000
-10.967016 20.090025 3.587526 5.000000
2.485919 -34.936890 3.621976 1.000000
2.594191 -34.909073 3.619919 11.000000
7.389410 -34.794308 3.678344 4.000000
12.057813 -33.620697 3.693568 10.000000
13.094773 -33.192051 3.689865 8.000000
13.216647 -33.195107 3.694802 16.000000
13.212582 -32.883911 3.664767 8.000000
13.259016 -32.702122 3.649132 13.000000
13.367714 -32.675037 3.650777 2.000000
-9.812293 -24.682285 3.688031 23.000000
-10.020510 -24.530025 3.679229 6.000000
-3.485209 -23.209242 3.678577 2.000000
-3.268518 -23.256710 3.681055 7.000000
-2.925439 -22.900036 3.618496 0.000000
-6.545687 -22.678059 3.699636 11.000000
-6.437105 -22.702927 3.698707 21.500000
-6.097490 -22.442486 3.645130 1.000000
-5.814695 -22.227516 3.601153 1.000000
5.511257 -20.008499 3.625825 1.000000
6.218670 -19.651320 3.601042 17.000000
7.740009 -19.273315 3.628578 7.000000
4.734739 -18.086329 3.603967 8.000000
4.827041 -18.090347 3.609267 11.500000
4.952015 -18.101332 3.617595 11.500000
5.241564 -18.076881 3.628195 6.666667
5.034056 -18.066481 3.615324 8.000000
5.124503 -18.061424 3.619110 6.500000
5.506010 -17.998117 3.628195 0.000000
5.666656 -18.016111 3.640688 24.500000
6.173010 -17.999199 3.668071 30.333334
6.211406 -17.866844 3.646366 1.000000
6.992422 -17.580111 3.647124 4.000000
6.694114 -17.548773 3.620624 58.000000
7.040302 -17.539833 3.643338 58.000000
7.214279 -17.494490 3.647881 9.000000
6.756986 -17.465740 3.610024 50.000000
7.257135 -17.442726 3.641824 5.000000
7.681816 -17.375919 3.662266 1.000000
7.340552 -17.335299 3.628952 1.000000
8.132826 -17.212902 3.669837 3.000000
7.638799 -17.132879 3.616081 3.000000
7.881445 -17.096174 3.628952 1.000000
8.137880 -17.084435 3.647881 7.000000
8.301867 -17.081779 3.661130 10.500000
8.438671 -17.089111 3.674002 16.000000
8.549741 -17.110712 3.687252 6.000000
8.619748 -16.983107 3.671352 0.000000
8.866618 -16.714428 3.647313 6.500000
9.470882 -16.423899 3.654695 17.000000
-5.832899 -16.281694 3.650299 6.000000
9.520333 -16.272535 3.634252 0.000000
9.660479 -16.276571 3.648638 1.000000
9.569415 -16.239162 3.633495 5.000000
6.009391 -15.979260 3.603214 0.000000
9.940168 -15.882977 3.611917 6.000000
10.073473 -15.873247 3.624031 1.500000
7.154812 -15.780017 3.656907 7.000000
7.245036 -15.846446 3.677558 34.000000
7.468670 -15.807234 3.689949 4.000000
10.171963 -15.807978 3.623652 4.000000
6.990178 -15.678104 3.623039 21.000000
-10.641303 -15.605416 3.641066 0.000000
6.910825 -15.631973 3.607344 5.000000
7.021743 -15.616800 3.613953 10.000000
7.427408 -15.592889 3.645343 1.000000
7.793465 -15.597168 3.680037 0.000000
-7.490614 -15.536535 3.640386 13.000000
7.520115 -15.535346 3.642864 5.000000
-10.743039 -15.439953 3.625924 0.000000
-10.685550 -15.460701 3.622895 20.000000
-7.868822 -15.383650 3.646995 9.000000
-7.732815 -15.415230 3.639973 11.500000
8.038246 -15.415056 3.669298 8.000000
-11.200894 -15.332131 3.660247 15.333333
-7.786798 -15.341985 3.631300 42.000000
8.114862 -15.326164 3.660212 2.000000
8.149993 -15.218800 3.643690 5.000000
-8.654757 -15.118176 3.676732 17.000000
8.191243 -15.067575 3.619735 2.000000
-8.649843 -14.855865 3.628271 27.000000
-8.571218 -14.863750 3.621387 31.000000
-7.776857 -14.093567 3.697314 11.000000
-4.820605 -14.008000 3.677960 3.000000
-4.923862 -13.881452 3.656756 4.000000
-7.913985 -13.824192 3.658809 5.000000
-5.506686 -13.844728 3.699164 3.000000
-5.675788 -13.763670 3.696272 3.000000
-5.374404 -13.763335 3.668322 3.000000
-5.950572 -13.575091 3.679888 23.000000
-5.662329 -13.609569 3.659647 23.000000
-5.535270 -13.665927 3.660611 1.000000
-5.349292 -13.573017 3.622058 30.000000
-5.022662 -13.614520 3.602781 6.000000
-5.735569 -13.545067 3.651937 4.000000
-4.464393 -13.106565 3.700454 5.000000
-4.297567 -12.881421 3.629192 2.000000
-16.855503 -12.784751 3.696042 46.000000
-16.718168 -12.763515 3.674701 8.000000
-4.468639 -12.724823 3.604405 17.000000
-10.044627 -12.578176 3.697314 24.400000
-16.721006 -12.518013 3.649230 8.000000
-16.675301 -12.565744 3.647854 32.000000
-5.151855 -12.493143 3.611635 28.000000
-5.039639 -12.555489 3.615766 16.000000
-5.794959 -12.433038 3.666028 10.333333
-17.497631 -11.855693 3.692600 3.000000
-17.470715 -11.598725 3.663687 4.000000
-17.395220 -11.470037 3.640281 1.000000
-10.636755 8.385404 3.619897 23.666666
-10.616490 8.532889 3.640208 23.000000
-10.595380 8.681553 3.660864 23.000000
-10.572403 8.830574 3.681520 21.666666
-10.559069 8.932588 3.696323 22.000000
-10.401103 10.174850 3.612420 20.000000
-10.391220 10.229260 3.620130 19.000000
-10.373394 10.340961 3.636515 18.333334
-10.350826 10.514806 3.663181 18.333334
-10.329665 10.659424 3.685188 17.500000
-10.318333 10.748587 3.699164 18.000000
-11.764965 15.069296 3.685359 5.000000
-11.409570 15.047913 3.640309 28.000000
-11.411869 15.149562 3.656209 2.000000
-10.947536 15.218289 3.613810 5.000000
-11.038975 15.447537 3.659995 4.000000
-10.919061 15.484492 3.652423 0.000000
-10.645728 15.611907 3.642581 6.000000
-10.623742 15.738333 3.660373 53.500000
-10.481281 15.793540 3.653938 22.000000
-10.594133 15.855238 3.675895 47.000000
-10.138832 16.285589 3.698041 60.250000
-12.691784 16.462772 3.631676 3.500000
-12.434456 16.501144 3.609762 6.333333
-9.730240 16.512072 3.694571 63.666668
-12.401836 16.895418 3.661622 16.000000
-12.311553 16.883354 3.650607 5.000000
-11.771329 17.140211 3.632709 6.000000
-12.035765 17.407804 3.697419 1.000000
-10.431593 18.082615 3.647165 18.000000
-10.465777 18.408133 3.699484 30.000000
-9.591919 18.457354 3.634085 7.000000
2.014074 -36.366047 3.766394 3.000000
2.128778 -36.367481 3.767217 3.000000
2.351063 -36.258099 3.757342 8.000000
2.462532 -36.214806 3.753639 2.000000
2.575438 -36.194988 3.752405 6.000000
7.408734 -35.432690 3.743353 16.000000
12.575395 -34.050491 3.753639 2.000000
12.329754 -33.875641 3.727924 6.000000
5.197420 -30.566746 3.754820 11.000000
5.077191 -30.438000 3.737027 12.000000
-9.747770 -24.975971 3.722689 8.000000
-9.546349 -25.038776 3.720764 2.500000
-9.831997 -24.959970 3.724890 11.000000
-9.650682 -24.958433 3.715537 5.000000
-1.913820 -23.890848 3.756621 11.000000
-1.489625 -23.742840 3.728748 6.500000
-3.692719 -23.581207 3.741136 3.000000
-1.632539 -23.642334 3.714502 15.500000
-2.408944 -23.552076 3.710786 3.000000
-2.255635 -23.511675 3.702114 20.000000
-3.588062 -23.393482 3.709547 6.000000
-5.643385 -23.362627 3.767150 1.000000
-3.883038 -23.354343 3.710786 29.000000
-5.515012 -23.149591 3.729987 5.000000
-5.439546 -23.155262 3.728129 1.000000
-8.859390 -22.490864 3.788829 9.000000
-8.906640 -22.404167 3.778919 7.000000
6.138050 -18.398035 3.738737 2.000000
6.878266 -18.289642 3.766751 18.000000
6.766749 -18.253695 3.752744 10.000000
8.421426 -17.823715 3.800065 5.000000
8.448667 -17.736891 3.787194 7.000000
8.818978 -17.511742 3.779622 8.000000
5.636961 -16.896084 3.759337 11.000000
9.569492 -16.716038 3.712994 5.000000
-6.440738 -16.648291 3.767597 1.000000
7.122489 -16.530294 3.798987 6.000000
-7.463102 -16.323408 3.788249 18.000000
-7.542424 -16.226505 3.776684 14.000000
-7.491408 -16.250120 3.776684 23.000000
7.128795 -16.262978 3.747772 17.000000
7.491280 -16.116482 3.751076 7.000000
-8.267569 -15.794248 3.762641 0.000000
-8.883747 -15.631872 3.794857 12.000000
-7.918879 -14.088074 3.712089 1.500000
-7.840037 -14.103138 3.706268 4.000000
-5.070882 -14.154635 3.732898 1.000000
-7.962973 -14.011676 3.701791 4.000000
-5.654550 -13.835338 3.710730 11.000000
-3.465982 -13.768139 3.794437 2.000000
-4.573448 -13.289796 3.756224 14.000000
-17.089582 -13.217859 3.774520 2.000000
-17.358177 -12.995025 3.788288 17.000000
-17.500942 -12.888639 3.797237 39.500000
-17.395752 -12.938080 3.787600 34.000000
-16.877945 -12.969636 3.718759 9.000000
-17.548754 -12.796774 3.794484 5.000000
-10.074734 -12.862647 3.752831 16.000000
-5.646997 -12.773255 3.732470 20.000000
-5.755824 -12.747890 3.738150 28.000000
-10.179908 -12.584604 3.717909 23.000000
-5.943093 -12.578395 3.718011 50.000000
-5.773316 -12.627482 3.710782 4.000000
-17.450605 -12.474995 3.747672 4.000000
-10.262471 -12.565197 3.726416 9.000000
-18.088392 -11.684007 3.762129 1.000000
-17.886070 -11.713231 3.735281 1.000000
-10.550629 9.011108 3.708200 22.000000
-10.537361 9.143947 3.728683 12.666667
-10.514414 9.299156 3.751405 12.666667
-10.494218 9.459093 3.775847 10.000000
-10.304989 10.836479 3.712657 17.500000
-10.288515 10.956202 3.731452 16.000000
-10.266656 11.106521 3.755066 16.000000
-10.247094 11.261460 3.780125 16.000000
-11.188187 15.760784 3.725866 3.000000
-11.256747 16.178259 3.799308 16.000000
-10.312007 16.305676 3.719051 55.000000
-10.071315 16.377094 3.706180 2.000000
-9.890657 16.486801 3.706180 54.500000
-10.632626 16.581116 3.797036 45.000000
-10.550948 16.568054 3.786437 61.000000
-9.648687 16.611429 3.703151 54.000000
-10.204043 16.710344 3.774322 5.000000
-10.155564 16.749037 3.775836 3.000000
-12.488322 17.353764 3.735281 10.000000
-12.189438 17.512207 3.727708 0.000000
-10.627340 18.556385 3.735969 3.000000
-10.025928 18.713949 3.709121 6.000000
-9.622697 18.950968 3.713252 1.000000
-9.488175 19.282522 3.754556 2.000000
-9.271692 19.614422 3.790353 7.000000
-8.968762 19.607546 3.766948 5.000000
-9.131652 19.636562 3.783469 3.000000
-15.212205 33.241650 3.780383 2.000000
-15.099467 33.271164 3.778326 2.000000
-14.183670 33.758095 3.786555 2.000000
4.306380 -37.275970 3.880365 10.000000
3.943558 -37.208076 3.869256 2.000000
4.753702 -37.057110 3.863496 19.000000
3.667877 -36.812443 3.825643 3.000000
4.141287 -36.862297 3.835929 10.000000
3.542665 -36.724777 3.815356 11.000000
7.977479 -36.710842 3.884891 41.000000
7.422907 -36.648426 3.866787 11.000000
7.447371 -36.184551 3.820294 28.000000
11.940817 -35.749535 3.897646 32.000000
12.053070 -35.711842 3.897646 13.000000
12.425654 -35.343609 3.874193 11.000000
13.271323 -35.251740 3.895177 9.000000
13.623354 -34.531872 3.838809 9.000000
14.072989 -34.092960 3.814122 12.000000
14.605101 -34.158539 3.841689 10.000000
14.932775 -34.033947 3.843335 3.000000
15.015472 -33.932293 3.837163 4.000000
14.584702 -33.816559 3.808362 7.000000
-18.919519 -32.598526 3.897646 5.000000
-19.033878 -32.559544 3.900115 12.000000
-18.978611 -32.232155 3.868022 7.000000
-19.071661 -32.158680 3.866376 19.000000
-19.107212 -31.762051 3.833049 4.000000
5.758380 -31.467741 3.874081 16.000000
6.151822 -31.385103 3.873120 14.000000
5.943418 -31.364613 3.865906 2.000000
5.772146 -30.992744 3.817817 9.000000
8.512200 -30.882303 3.879371 9.000000
7.939512 -30.677740 3.837533 3.000000
8.680665 -30.373079 3.825511 12.000000
-5.280473 -27.472740 3.884425 2.000000
-4.643304 -27.394711 3.858020 9.000000
-5.313546 -27.183826 3.845917 4.000000
-2.642663 -24.326132 3.835284 5.000000
-3.320180 -24.175146 3.824754 13.000000
-4.078562 -24.062824 3.825373 31.000000
-8.886072 -22.981012 3.861917 5.000000
-8.838975 -22.647432 3.810508 6.000000
-2.297218 -21.783428 3.826839 4.000000
-2.228370 -21.786617 3.826150 11.000000
-6.430674 -21.033779 3.842672 2.000000
-6.835764 -20.938803 3.848179 1.000000
-6.683682 -20.917530 3.836476 1.000000
-10.575692 -19.608383 3.892237 4.000000
-10.484860 -19.150993 3.814447 1.000000
6.190248 -19.153954 3.880321 16.000000
6.668871 -18.801016 3.845493 3.000000
7.310153 -18.548416 3.843222 10.000000
7.912479 -18.363750 3.854579 19.000000
8.270281 -18.088875 3.834136 22.000000
9.081934 -17.893730 3.868207 3.000000
9.450769 -17.781799 3.881836 1.000000
9.365541 -17.755816 3.869721 0.000000
9.530066 -17.706699 3.876283 1.333333
5.452601 -17.625401 3.893982 5.000000
6.759361 -16.994158 3.860115 17.000000
7.143609 -17.018913 3.895635 3.000000
-7.134470 -16.848621 3.861767 9.000000
6.760233 -16.842083 3.830377 7.000000
7.472740 -16.619844 3.846072 12.000000
7.769410 -16.578384 3.864245 6.000000
-7.875105 -16.532774 3.865071 25.000000
8.201538 -16.285698 3.848550 12.000000
8.261518 -16.277302 3.852680 1.000000
8.519857 -16.276226 3.877462 5.000000
8.314397 -16.254751 3.853506 7.000000
8.806325 -16.078421 3.869201 4.000000
8.862467 -16.060955 3.871679 0.000000
8.582471 -15.906105 3.814682 15.000000
9.242491 -15.969765 3.894396 15.000000
8.835075 -15.776167 3.816334 20.000000
9.265288 -15.723064 3.851854 6.000000
-5.667380 -15.664513 3.826258 1.000000
9.321660 -15.593963 3.834507 13.666667
6.934011 -15.486664 3.897447 2.000000
9.374878 -15.461490 3.816334 8.000000
-7.054483 -15.176766 3.844167 6.000000
-11.062790 -14.801922 3.900260 24.200001
-10.924060 -14.789992 3.880766 47.000000
-11.202512 -14.678804 3.897287 27.000000
-10.591069 -14.722762 3.827899 2.000000
-11.201155 -14.487375 3.865071 33.000000
-11.124592 -14.482145 3.854332 13.000000
-11.263268 -14.426697 3.863006 12.500000
-11.352497 -14.354094 3.862593 24.500000
-6.334337 -14.028927 3.821570 5.000000
-3.628808 -14.041664 3.876027 8.000000
-3.458111 -13.921474 3.833683 7.000000
-4.100099 -13.709799 3.824388 6.000000
-4.043596 -13.756763 3.832133 11.000000
-5.231439 -13.522445 3.874994 3.000000
-5.289380 -13.420999 3.855371 22.000000
-10.272711 -13.286542 3.857599 1.000000
-6.199324 -12.910062 3.827486 14.000000
-6.147102 -12.905053 3.820256 16.000000
-6.407399 -12.823149 3.831100 6.750000
-17.677521 -12.763516 3.809284 24.000000
-6.573634 -12.687166 3.818880 2.000000
-18.185659 -12.573581 3.862636 12.000000
-18.072416 -12.411539 3.830281 1.000000
18.224342 -2.234442 3.875259 17.333334
18.247812 -2.159770 3.878288 6.000000
-10.506015 9.589952 3.801666 0.000000
-10.449352 9.751029 3.819740 18.500000
-10.430824 9.888192 3.841256 18.666666
-10.407572 10.054084 3.867420 19.666666
-10.385799 10.191891 3.888937 17.500000
-10.224754 11.415823 3.804863 9.666667
-10.656268 14.911991 3.868375 41.000000
-10.532337 14.836890 3.840289 50.000000
-10.813440 14.982189 3.899765 39.000000
-12.569221 15.739516 3.882845 8.333333
-11.990851 15.918178 3.841707 20.000000
-11.017395 16.715105 3.859122 59.000000
-10.939017 16.710199 3.850036 70.000000
-10.740063 16.633417 3.816722 34.000000
-11.152379 16.804771 3.887893 10.000000
-9.878994 17.131620 3.812179 68.000000
-9.838978 17.249624 3.828079 57.000000
-9.788496 17.350540 3.840193 4.000000
-9.553677 17.639641 3.867071 24.500000
-9.395418 17.677704 3.859122 54.333332
-9.298781 17.764275 3.865179 49.000000
-9.241114 17.858463 3.876157 29.000000
-10.054019 19.495991 3.832346 1.000000
-9.503953 19.783087 3.834411 1.000000
-9.263556 19.757616 3.812382 12.000000
-9.839340 19.838596 3.868831 5.000000
-16.098894 33.767181 3.868433 3.000000
-15.649957 33.916241 3.862673 8.000000
-14.754353 33.916512 3.824820 5.000000
-15.937099 33.975735 3.880777 2.000000
-15.602941 34.095482 3.877485 8.000000
-15.194957 34.048454 3.855678 3.000000
-14.525661 34.270191 3.849095 1.000000
9.452295 -37.492653 3.998451 2.000000
9.313329 -37.437222 3.989399 5.000000
8.423948 -37.349628 3.959363 27.000000
9.152042 -37.288544 3.970472 15.000000
9.020806 -37.259106 3.964301 14.000000
7.863026 -37.024414 3.914104 11.000000
8.221982 -36.995270 3.919041 8.000000
10.663568 -36.872311 3.969238 45.000000
11.167583 -36.872490 3.984050 30.000000
11.433725 -36.709526 3.976027 11.500000
11.625237 -36.714073 3.982404 23.000000
11.752652 -36.715263 3.986519 22.000000
12.247384 -35.914818 3.923979 12.000000
13.087044 -35.956306 3.956895 13.000000
11.840932 -35.824650 3.901761 27.000000
12.809999 -35.718014 3.923979 5.000000
13.273121 -35.595226 3.928505 13.000000
-18.298029 -33.686764 3.964301 29.000000
-18.940176 -33.599693 3.988576 35.000000
-19.129185 -33.442032 3.984050 12.000000
-19.004381 -33.467365 3.979936 53.000000
-19.626640 -33.332729 4.000097 7.000000
-19.354910 -33.348709 3.987342 15.000000
-19.142780 -33.223186 3.965123 6.000000
-4.170329 -32.690289 3.990939 6.000000
4.799814 -32.543606 3.983725 2.000000
6.640270 -32.263088 3.989015 7.000000
6.507346 -32.128113 3.969779 5.000000
6.988259 -31.917198 3.956795 4.000000
7.088496 -31.895088 3.956795 10.000000
7.204383 -31.942390 3.965451 7.000000
7.712699 -31.856165 3.969298 12.000000
7.263064 -31.737665 3.942849 2.000000
8.095694 -31.691322 3.961123 9.000000
8.892778 -31.489334 3.962566 15.000000
7.825469 -31.456402 3.925537 10.000000
9.084942 -31.413763 3.960161 12.000000
9.199193 -31.438427 3.966894 7.000000
8.728707 -31.283798 3.933231 9.000000
9.921846 -31.334539 3.980359 9.000000
9.513194 -31.174618 3.947177 9.333333
9.195344 -31.062870 3.923132 7.000000
9.274661 -30.972965 3.915438 11.000000
9.596703 -30.982803 3.927942 19.000000
9.695179 -30.956291 3.928422 7.000000
-6.492748 -28.033880 3.995551 3.000000
-6.394944 -28.011652 3.989499 3.000000
-6.947322 -27.802166 3.979047 23.000000
-9.052026 -27.148102 3.973546 2.000000
-9.435347 -26.882940 3.955942 1.000000
-9.592052 -26.789555 3.950990 1.000000
-5.370285 -24.589108 3.944916 3.000000
-5.252241 -24.604458 3.943368 2.500000
-2.663719 -22.539371 3.965208 8.000000
-2.516798 -22.508673 3.956947 5.000000
-1.801304 -22.486282 3.941114 10.000000
-1.869977 -22.456953 3.936983 11.000000
-3.744105 -22.089584 3.914266 17.000000
6.354802 -19.248949 3.907578 26.000000
7.566499 -19.198854 3.977992 3.000000
8.203397 -18.875530 3.967392 3.000000
7.874351 -18.759830 3.921964 1.000000
6.652153 -17.604477 3.972044 50.000000
6.742772 -17.593048 3.976587 42.000000
7.374877 -17.416130 3.991869 2.500000
7.082102 -17.328215 3.950980 2.000000
7.544103 -17.358534 3.994760 25.000000
-7.732749 -17.198111 3.979891 12.000000
7.613460 -17.221302 3.974109 13.000000
7.798051 -17.198687 3.985674 17.000000
-7.801517 -17.134754 3.973696 9.500000
8.298313 -17.006531 3.993934 8.000000
8.036681 -16.871981 3.944371 31.000000
8.004540 -16.804821 3.928677 30.000000
8.544931 -16.835699 3.984848 2.000000
-8.276365 -16.694574 3.932807 1.000000
8.780932 -16.647478 3.972457 17.000000
8.754207 -16.471201 3.936937 2.000000
9.002517 -16.559893 3.978239 2.000000
9.146780 -16.453785 3.973283 7.000000
9.080749 -16.096024 3.900591 26.000000
9.164145 -16.125261 3.914634 31.000000
9.187537 -16.048838 3.903069 21.000000
