# This PCD file was generated using the MATLAB® pcwrite function
# from Computer Vision Toolbox®.
# .PCD v.7 - Point Cloud Data file format
VERSION .7
FIELDS x y z intensity
SIZE 4 4 4 4
TYPE F F F F
COUNT 1 1 1 1
WIDTH 1215
HEIGHT 1
VIEWPOINT 0 0 0 1 0 0 0
POINTS 1215
DATA ascii
-7.057962 -1.466770 -0.133129 12.000000
-6.748545 -1.402538 -0.127294 16.000000
-6.484744 -1.422203 -0.122605 59.000000
-5.499622 -1.416150 -0.104879 11.000000
-6.860065 -1.324765 -0.129030 1.000000
-6.876179 -1.260775 -0.129104 50.000000
-6.559862 -1.215499 -0.123210 16.000000
-5.049739 -1.263794 -0.156005 27.333334
-4.940052 -1.280164 -0.147741 18.400000
-4.385026 -1.254910 -0.163421 5.333333
-6.520614 -1.104062 -0.122137 40.666668
-6.355300 -1.082906 -0.119059 27.000000
-5.834548 -0.937746 -0.109138 34.000000
-5.359884 -0.947986 -0.100521 4.000000
-6.460261 -0.872314 -0.120389 5.000000
-6.120749 -0.846057 -0.114111 12.000000
-5.825699 -0.833266 -0.108682 16.000000
-6.526341 -0.768544 -0.121364 4.600000
-6.408496 -0.749565 -0.119158 12.333333
-5.475000 -0.783108 -0.102146 5.000000
-6.643796 -0.643235 -0.123269 24.000000
-6.586693 -0.633879 -0.122206 26.200001
-6.537896 -0.498507 -0.121090 1.000000
-6.459825 -0.441520 -0.119576 12.000000
-6.084726 -0.416007 -0.112634 2.500000
-6.571117 -0.345419 -0.121521 69.333336
-5.980947 -0.322974 -0.110618 77.285713
-6.269893 -0.191173 -0.115846 8.500000
-6.093292 -0.171869 -0.112578 31.250000
-0.496765 -0.109160 -0.127299 2.700000
-0.470165 -0.108157 -0.133085 14.481482
0.477353 -0.096635 -0.133266 1.000000
-6.806591 -0.058212 -0.125707 130.000000
-6.530720 -0.014655 -0.120610 1.000000
-6.050303 -0.089765 -0.111747 2.000000
-0.501433 -0.006512 -0.126508 4.212500
-0.467829 -0.018155 -0.131322 25.360796
0.476278 -0.016393 -0.127924 26.361158
-6.474730 0.046333 -0.119576 6.000000
0.404033 0.071359 -0.118270 7.000000
-6.532087 0.120626 -0.120655 32.400002
-6.436438 0.106361 -0.118887 31.000000
-5.446012 0.107420 -0.100595 12.000000
-0.497524 0.148291 -0.133621 8.104000
-0.476930 0.130671 -0.135731 13.070271
0.470779 0.132856 -0.129488 11.910321
-5.599714 0.286608 -0.103549 27.000000
-5.502271 0.229651 -0.101703 42.000000
-0.497267 0.285077 -0.145709 8.198953
-0.482911 0.271945 -0.140584 7.183333
0.477924 0.278755 -0.137863 8.613057
-5.821607 0.353024 -0.107710 40.166668
-0.501079 0.393841 -0.141795 31.347517
-5.628593 0.409948 -0.104224 27.714285
-0.424275 0.416967 -0.142558 27.465544
-0.275361 0.414015 -0.134589 4.658291
-0.134380 0.437667 -0.129103 5.868966
0.000934 0.451735 -0.100181 22.992022
0.197244 0.433211 -0.130803 6.719807
0.335626 0.433652 -0.139021 6.496416
0.460538 0.419085 -0.138235 38.968517
-5.708423 0.508458 -0.105839 7.000000
-5.492667 0.602147 -0.150421 15.000000
-0.498596 0.544142 -0.129115 14.464286
-0.424754 0.564789 -0.139709 17.051064
-0.262338 0.569114 -0.140356 7.972112
-0.110429 0.565673 -0.137169 22.876335
0.057545 0.569085 -0.136102 36.061672
0.184185 0.583016 -0.140586 19.915310
0.335854 0.590788 -0.138793 12.110092
0.443363 0.574124 -0.128776 23.146341
-6.674523 0.615653 -0.123786 9.000000
-6.299388 0.631002 -0.116917 10.000000
-6.278343 0.678722 -0.116622 12.000000
-0.506422 0.705101 -0.122803 17.462265
0.454955 0.680349 -0.119739 5.407407
-6.357533 0.707532 -0.118136 10.000000
-5.787833 0.801000 -0.107907 3.000000
-5.474098 0.727943 -0.178776 16.000000
-0.427106 0.742316 -0.126701 14.572973
-0.260403 0.751158 -0.137166 20.993938
-0.113847 0.736798 -0.114641 56.392429
0.057258 0.732523 -0.103169 57.781971
0.176967 0.762125 -0.135813 36.142857
0.312058 0.765878 -0.133325 17.490740
-6.835567 0.891232 -0.127307 29.666666
-6.712745 0.853969 -0.124968 34.000000
-6.567263 0.856434 -0.122309 51.000000
-6.086060 0.891114 -0.113594 94.000000
-5.724607 0.819830 -0.106799 26.000000
-5.424868 0.875993 -0.164805 7.000000
-0.435644 0.883993 -0.130508 37.880001
-0.268252 0.877068 -0.129593 36.033897
0.234853 0.878777 -0.128369 13.390244
0.333444 0.806614 -0.133802 17.333334
-6.517164 0.996071 -0.121755 15.500000
-6.463820 0.987949 -0.120758 22.000000
-0.500570 0.931066 -0.111760 4.500000
-0.145106 0.985950 -0.116956 45.777779
-6.860338 1.092709 -0.128292 51.000000
-6.766078 1.099500 -0.126593 40.000000
-5.497530 1.022629 -0.103272 27.500000
-0.503121 1.035351 -0.127642 45.024391
-0.418077 1.043607 -0.131833 22.190790
-0.255009 1.060405 -0.126804 45.900661
0.040945 1.019781 -0.119265 95.676468
0.181364 1.052915 -0.134235 45.994999
0.316917 1.085918 -0.129745 33.285713
-6.857282 1.136446 -0.128365 71.000000
-6.668705 1.148291 -0.124968 24.000000
-6.406495 1.180135 -0.120304 41.857143
-5.958508 1.142036 -0.112043 87.000000
-5.344463 1.188141 -0.155453 29.500000
-5.548884 1.208838 -0.104879 17.000000
-0.518416 1.272834 -0.121088 1.550000
-6.534604 1.380630 -0.123343 0.000000
-6.561517 1.407866 -0.123934 5.000000
-6.343018 1.486573 -0.120315 17.000000
-6.175947 1.474723 -0.117262 22.666666
-5.489719 1.442196 -0.104823 15.250000
-6.262681 1.530151 -0.119059 17.000000
-6.174339 1.570375 -0.117656 14.000000
-5.705584 1.604843 -0.109458 5.000000
-5.949502 1.653298 -0.114037 98.000000
-5.885247 1.615543 -0.112708 65.000000
-6.210356 1.789004 -0.119355 77.000000
-6.139295 1.789729 -0.118099 74.333336
-5.917402 1.781406 -0.114126 32.200001
-5.781918 1.784275 -0.111747 5.000000
-6.778705 1.830323 -0.129670 30.666666
-5.587720 1.840391 -0.108645 32.000000
-6.734561 1.962946 -0.129547 37.000000
-6.291683 1.963255 -0.121718 29.000000
-5.966118 1.944268 -0.115883 38.000000
-5.668435 1.963524 -0.110787 36.857143
-6.436674 2.058502 -0.124802 19.250000
-6.005589 2.040960 -0.117139 98.000000
-5.746834 2.054269 -0.112708 30.000000
-6.526774 2.172436 -0.127036 4.000000
-6.303851 2.120255 -0.122826 48.000000
-6.642183 2.280606 -0.129695 5.000000
-6.117439 2.252205 -0.120389 2.000000
-5.995371 2.293007 -0.118542 27.000000
-5.787536 2.286768 -0.114923 13.500000
-6.279143 2.383507 -0.124037 8.200000
-5.772987 2.312537 -0.114849 9.000000
-5.336858 2.381952 -0.107931 19.666666
-5.969625 2.413099 -0.118912 5.000000
-5.472087 2.497235 -0.111083 35.000000
-5.090311 2.483308 -0.104598 8.800000
-6.274599 2.570825 -0.125226 0.000000
-5.327445 2.533076 -0.108941 31.000000
-5.251155 2.598704 -0.108202 22.000000
-6.230618 2.635974 -0.124940 25.375000
-6.129230 2.692752 -0.123639 8.000000
-5.709591 2.643605 -0.116197 34.000000
-6.335034 2.771659 -0.127701 0.000000
-5.836430 2.957219 -0.120832 37.000000
-5.666050 2.994974 -0.118358 23.500000
-5.549836 2.982030 -0.116351 28.000000
-5.936161 3.078326 -0.123491 47.000000
-6.519369 3.200865 -0.134126 15.000000
-5.768118 3.130530 -0.121201 81.000000
-6.049502 3.307889 -0.127331 48.000000
-6.594326 3.472390 -0.137635 13.500000
-6.238747 3.436875 -0.131541 20.000000
-6.105700 3.457190 -0.129581 39.909092
-6.002224 3.493373 -0.128255 41.000000
-6.067266 3.599705 -0.130286 11.666667
5.975602 3.646098 -0.129276 18.666666
-6.095480 3.755919 -0.132225 2.000000
5.853833 3.707727 -0.127972 47.111111
-6.109453 3.871286 -0.133572 2.750000
5.839287 3.849492 -0.129163 30.200001
-6.141495 4.042026 -0.135781 1.600000
-6.168478 4.171727 -0.137524 4.000000
-6.184591 4.296803 -0.139075 6.000000
-6.208089 4.320562 -0.139684 2.250000
-6.225647 4.457145 -0.141401 7.500000
-6.398263 4.641724 -0.145981 35.500000
-6.436109 4.739021 -0.147605 33.750000
-6.292040 4.732764 -0.145402 8.333333
-6.304794 4.899326 -0.147458 4.500000
-6.416935 4.986463 -0.150080 7.000000
-6.473468 5.095945 -0.152148 25.000000
-5.737807 5.296440 -0.144208 41.000000
-5.568455 5.304620 -0.142029 4.000000
-5.283641 5.292869 -0.138115 17.000000
-6.406104 5.400198 -0.154733 27.666666
-5.768637 5.325008 -0.144984 54.000000
-5.509440 5.337177 -0.141660 23.333334
-6.090041 5.447037 -0.150892 44.000000
-6.019392 5.417985 -0.149563 21.000000
-6.286480 5.587288 -0.155324 61.000000
-6.063352 5.509479 -0.151298 14.500000
-5.517006 5.596533 -0.145131 20.000000
-5.315593 5.546896 -0.141881 3.500000
-5.269635 5.568571 -0.141586 11.500000
-6.385788 5.615792 -0.157047 22.000000
-5.798882 5.664824 -0.149710 48.000000
-6.158038 5.903285 -0.157539 4.000000
-6.009220 5.907304 -0.155619 50.000000
-6.306273 6.251555 -0.163990 30.333334
-6.290742 6.462138 -0.166550 21.000000
-6.022466 6.485438 -0.163448 35.500000
-6.246138 6.579679 -0.167547 51.666668
-5.997236 6.519663 -0.163596 40.000000
-6.351112 6.648381 -0.169800 29.000000
-6.110282 6.726940 -0.167830 62.000000
-5.993038 6.731053 -0.166439 37.833332
-5.875347 6.732668 -0.165024 22.333334
-5.795011 6.972692 -0.167436 2.000000
-5.650069 7.065063 -0.167067 8.000000
-6.006762 7.181463 -0.172902 67.000000
-5.657422 7.189389 -0.168950 23.500000
-5.744779 7.229946 -0.170538 14.000000
-5.341840 7.317375 -0.167313 11.666667
-5.066769 7.503697 -0.167215 73.000000
-5.895180 7.564519 -0.177112 83.000000
-6.446530 7.658212 -0.184867 25.000000
-5.316054 7.628897 -0.171720 53.000000
-5.279348 7.678624 -0.172089 49.000000
-5.962694 7.776371 -0.180971 41.750000
-5.037598 7.763165 -0.170908 7.500000
-4.884772 7.765904 -0.169431 2.000000
-5.644430 7.900043 -0.179309 27.750000
-5.507662 7.851163 -0.177112 26.000000
-5.326967 7.853110 -0.175247 43.750000
-5.929768 7.912192 -0.182602 43.666668
-5.707509 8.028273 -0.181913 66.000000
-6.074241 8.211862 -0.188634 27.000000
-5.361324 8.406095 -0.184128 43.666668
-6.242608 8.495169 -0.194690 80.000000
-5.578743 8.450978 -0.187009 22.000000
-5.580675 8.511941 -0.187969 7.000000
-5.339262 8.559976 -0.186315 46.200001
-5.252827 8.588523 -0.185926 26.000000
-5.293861 8.655740 -0.187378 30.000000
-5.202257 8.627090 -0.186049 7.500000
-5.105738 8.619591 -0.185015 25.500000
-4.704418 8.903878 -0.185975 11.000000
-4.743642 8.910237 -0.186418 32.000000
-4.933334 9.127642 -0.191613 6.666667
-5.327542 9.291131 -0.197792 1.000000
-4.855926 9.440508 -0.196056 2.000000
-4.786119 9.487275 -0.196241 18.500000
8.145972 -38.323803 -0.043764 66.000000
8.261268 -38.274559 -0.043738 67.000000
8.309550 -37.920204 -0.043362 58.000000
8.411271 -37.815823 -0.043273 69.000000
7.769439 -37.716045 -0.043014 11.000000
7.901819 -37.758011 -0.043090 56.000000
8.530033 -37.789211 -0.043273 68.000000
-2.766936 -37.678516 -0.042201 6.000000
-2.648830 -37.691017 -0.042205 10.000000
7.758498 -34.371204 -0.039359 1.000000
7.857504 -34.307674 -0.039314 64.000000
8.515318 -34.203938 -0.039372 63.000000
7.914554 -34.064636 -0.039064 63.000000
7.995843 -33.930584 -0.038939 62.000000
8.104261 -33.913078 -0.038948 66.000000
8.284426 -33.958000 -0.039044 59.000000
-3.388032 -31.289085 -0.035155 35.000000
-3.455298 -31.000010 -0.034842 13.000000
-3.473399 -30.297529 -0.034064 2.000000
-3.647352 -30.140095 -0.033912 35.000000
-3.109177 -30.035448 -0.033729 6.000000
-4.054636 -29.599566 -0.033372 9.000000
-2.638736 -29.566465 -0.033157 7.000000
-3.466052 -29.416489 -0.033086 8.000000
-2.659832 -28.781338 -0.032286 20.000000
-2.736157 -28.625513 -0.032121 29.000000
-3.854403 -27.495132 -0.031013 34.000000
-4.728375 -27.431450 -0.031093 12.000000
-4.778555 -27.211594 -0.030861 18.000000
-3.910673 -27.273035 -0.030776 14.000000
-4.589473 -27.134594 -0.030740 30.000000
-4.232701 -27.091322 -0.030628 11.000000
-4.912886 -26.980335 -0.030633 9.000000
-4.450520 -26.825304 -0.030374 30.000000
-4.022690 -26.852339 -0.030329 5.000000
-3.935410 -26.845058 -0.030307 36.000000
-5.137403 -26.331499 -0.029967 6.000000
-4.029585 -26.333460 -0.029757 9.000000
-4.942949 -26.209959 -0.029793 13.000000
-4.700636 -26.282944 -0.029824 31.000000
-5.023760 -26.186445 -0.029784 11.000000
-3.914834 -26.132374 -0.029516 13.000000
-5.931737 -26.024538 -0.029815 8.000000
-5.240288 -25.988934 -0.029614 8.000000
-4.052402 -25.937323 -0.029324 7.000000
10.884531 -25.893276 -0.031375 255.000000
11.006429 -25.841660 -0.031375 1.500000
11.156605 -25.855652 -0.031455 2.000000
11.283933 -25.815580 -0.031471 255.000000
13.747626 -25.833765 -0.032688 3.000000
14.275508 -25.838717 -0.032974 255.000000
14.424444 -25.819992 -0.033037 255.000000
14.583311 -25.817961 -0.033122 255.000000
14.717741 -25.802944 -0.033181 179.666672
11.457268 -25.769768 -0.031502 129.000000
13.809815 -25.755196 -0.032644 255.000000
13.902069 -25.732800 -0.032670 255.000000
13.994311 -25.710079 -0.032697 188.000000
14.109634 -25.729118 -0.032778 4.000000
14.857993 -25.734795 -0.033193 1.000000
-5.249646 -25.619671 -0.029212 11.000000
11.567922 -25.691813 -0.031473 1.000000
8.277135 -25.565456 -0.030016 11.000000
-5.052765 -25.471666 -0.029007 25.000000
16.237478 -25.468113 -0.033738 15.000000
16.351986 -25.470833 -0.033810 26.000000
16.431925 -25.419334 -0.033810 21.000000
-5.286084 -25.391584 -0.028971 35.000000
8.293960 -25.345446 -0.029788 39.000000
8.333353 -25.197739 -0.029645 43.000000
16.441870 -25.260313 -0.033667 21.000000
16.556231 -25.262062 -0.033738 14.000000
-5.512247 -24.905268 -0.028493 19.000000
-4.136273 -24.931194 -0.028229 1.000000
8.351616 -24.989334 -0.029431 255.000000
8.433921 -24.974340 -0.029444 255.000000
8.563866 -24.970222 -0.029487 145.500000
8.737078 -24.963127 -0.029543 32.000000
10.129770 -24.971617 -0.030101 89.000000
10.257244 -24.947605 -0.030130 255.000000
-5.571176 -24.801968 -0.028394 34.000000
-5.416934 -24.844299 -0.028403 4.000000
-5.282586 -24.599169 -0.028104 11.000000
-5.812050 -24.434256 -0.028055 9.000000
-5.163074 -24.416059 -0.027876 13.000000
-5.520169 -24.218847 -0.027747 10.000000
4.344238 -24.144274 -0.027403 29.000000
-6.352628 -24.009796 -0.027742 4.000000
2.776423 -23.995897 -0.026983 5.000000
4.404213 -24.043945 -0.027304 23.000000
-6.132725 -23.781981 -0.027434 15.000000
-3.616946 -23.636850 -0.026710 4.000000
-4.587431 -23.512651 -0.026759 5.000000
-3.106031 -23.497559 -0.026475 255.000000
-2.957071 -23.506691 -0.026464 149.500000
-2.846760 -23.524363 -0.026469 4.000000
-3.214828 -23.468822 -0.026460 1.000000
4.820490 -23.400637 -0.026688 51.000000
2.780956 -23.391254 -0.026312 255.000000
2.891884 -23.383816 -0.026319 255.000000
3.040311 -23.377083 -0.026332 11.500000
4.388484 -23.336916 -0.026525 106.500000
4.541131 -23.340294 -0.026560 167.500000
4.691243 -23.328949 -0.026580 255.000000
4.877595 -23.307074 -0.026598 2.000000
-5.337116 -22.916676 -0.026283 14.000000
-4.588710 -22.943586 -0.026136 4.000000
-4.846710 -22.569445 -0.025785 3.000000
-4.285221 -22.528017 -0.025615 8.500000
-4.173920 -22.520456 -0.025584 3.000000
-5.994246 -22.370829 -0.025870 5.000000
-4.862203 -22.300076 -0.025495 11.000000
-6.296275 -22.235716 -0.025814 10.500000
-4.896798 -22.124565 -0.025311 4.000000
-3.555359 -22.073463 -0.024974 8.500000
-6.414155 -21.991690 -0.025588 34.000000
-5.279174 -21.888353 -0.025151 2.000000
-4.433855 -21.638393 -0.024673 0.000000
-4.555653 -21.543581 -0.024597 6.000000
-3.897490 -21.404032 -0.024302 16.000000
-5.792171 -21.348175 -0.024708 4.000000
-6.236147 -20.655113 -0.024101 17.000000
-5.734364 -20.621536 -0.023908 28.000000
-6.600563 -20.570942 -0.024132 20.500000
-5.850670 -20.538935 -0.023855 18.000000
-6.394771 -20.480877 -0.023967 15.000000
-7.772516 -20.311646 -0.024293 20.000000
-7.572376 -20.361502 -0.024266 1.000000
-7.634296 -20.235764 -0.024159 29.500000
-7.305398 -20.225048 -0.024020 2.000000
-6.598306 -20.235376 -0.023774 58.000000
-7.359307 -20.175694 -0.023989 3.000000
-7.757018 -20.081905 -0.024047 7.000000
-6.647682 -20.065435 -0.023611 42.000000
-5.005799 -19.928917 -0.022952 29.000000
-4.949900 -19.971724 -0.022984 29.000000
-6.743897 -19.832750 -0.023399 6.000000
-5.073002 -19.844467 -0.022879 24.666666
-4.850080 -19.835642 -0.022809 24.000000
-5.396048 -19.724516 -0.022842 41.000000
-4.769920 -19.776899 -0.022724 15.000000
-7.650068 -19.621405 -0.023524 0.000000
-5.241291 -19.684113 -0.022754 16.000000
-5.433231 -19.538624 -0.022653 3.000000
-6.529732 -19.402704 -0.022867 62.000000
-5.458824 -19.394398 -0.022506 22.000000
-5.079157 -19.443531 -0.022447 73.000000
-7.587169 -19.280891 -0.023144 1.000000
-6.874078 -19.219685 -0.022800 27.000000
-6.602125 -19.217541 -0.022698 53.000000
-5.557477 -19.166504 -0.022291 2.500000
-6.689495 -19.081261 -0.022586 29.500000
-6.433552 -18.920074 -0.022322 10.000000
-6.035661 -18.912224 -0.022175 1.000000
-6.607609 -18.847277 -0.022309 34.000000
-5.627783 -18.853981 -0.021978 16.000000
-5.565126 -18.860058 -0.021965 21.000000
-6.227335 -18.698265 -0.022014 5.000000
-6.124565 -18.782602 -0.022068 2.333333
-5.858297 -18.762682 -0.021956 10.000000
-5.707729 -18.763025 -0.021907 18.666666
-6.731946 -18.637444 -0.022135 33.000000
-5.768638 -18.681625 -0.021840 30.000000
-6.753456 -18.514742 -0.022014 29.000000
-6.741081 -18.302006 -0.021786 39.000000
-6.904763 -18.215218 -0.021759 4.000000
-6.825157 -18.264385 -0.021779 13.500000
-7.327633 -18.118315 -0.021831 3.000000
-6.953378 -18.171021 -0.021733 4.000000
-7.349756 -18.010023 -0.021728 3.000000
-7.508343 -17.914131 -0.021697 28.000000
-7.443398 -17.970057 -0.021727 9.000000
-7.178443 -17.992859 -0.021639 10.500000
-7.563027 -17.886770 -0.021692 0.000000
-7.781661 -17.626717 -0.021523 8.000000
-7.771921 -17.456015 -0.021344 15.000000
-7.859670 -17.214613 -0.021138 0.000000
-7.733330 -17.223520 -0.021089 2.000000
-8.129639 -17.159599 -0.021210 0.000000
-7.937351 -17.170097 -0.021129 4.000000
5.807765 -15.717285 -0.018717 37.000000
5.848735 -15.601715 -0.018612 53.500000
5.927395 -15.514208 -0.018551 49.000000
6.203092 -15.500872 -0.018650 51.000000
6.322649 -15.586411 -0.018788 13.000000
6.050060 -15.469611 -0.018554 59.000000
-6.175538 -11.995690 -0.015071 1.000000
-6.462633 -11.902693 -0.015129 0.000000
-6.216877 -11.983331 -0.015080 2.000000
-5.332355 -11.926167 -0.014593 13.500000
-6.329875 -11.400618 -0.014566 2.000000
-4.574306 -11.413465 -0.013735 12.000000
-4.482618 -11.444334 -0.013729 21.750000
-4.554650 -11.261834 -0.013569 28.000000
-4.538622 -11.121550 -0.013418 28.000000
-6.032221 -10.705469 -0.013726 2.000000
-7.085735 -10.616584 -0.014258 5.000000
-4.814330 -10.632857 -0.013038 31.000000
-4.840521 -10.536238 -0.012952 24.250000
-7.195965 -10.493716 -0.014213 10.000000
-7.014197 -10.438229 -0.014048 15.000000
-5.865780 -10.486979 -0.013422 25.000000
-6.716106 -10.271111 -0.013708 2.000000
-6.638433 -10.292936 -0.013681 3.000000
-6.000805 -10.232149 -0.013250 12.500000
-4.803836 -10.208842 -0.012603 39.333332
-7.113384 -10.166516 -0.013860 0.000000
-6.656746 -10.042006 -0.013458 71.000000
-6.403265 -9.997121 -0.013261 8.000000
-6.039750 -10.043886 -0.013091 1.000000
-5.982642 -10.091960 -0.013105 10.000000
-5.186866 -10.075241 -0.012658 12.000000
-4.733248 -10.031384 -0.012390 28.000000
-4.781502 -9.930824 -0.012312 27.000000
-6.605401 -9.763476 -0.013167 4.000000
18.358509 -9.781959 -0.023236 22.000000
-4.752879 -9.599840 -0.011965 50.000000
-8.037234 -9.510783 -0.013909 26.000000
-7.609187 -9.569472 -0.013657 16.500000
-6.518948 -9.570765 -0.012935 31.000000
-5.880820 -9.574106 -0.012551 16.000000
-7.777541 -9.472003 -0.013690 2.000000
-6.196244 -9.411387 -0.012586 72.000000
-5.843532 -9.446726 -0.012408 18.000000
-5.630861 -9.430881 -0.012269 36.000000
-4.608360 -9.456918 -0.011751 26.000000
-7.833815 -9.389098 -0.013659 3.000000
-4.668708 -9.355799 -0.011679 36.000000
-8.141180 -9.273437 -0.013784 21.000000
-7.828663 -9.205156 -0.013498 5.000000
-6.919266 -9.195524 -0.012855 8.000000
-6.065948 -9.276808 -0.012381 6.000000
-5.850143 -9.197048 -0.012175 3.000000
-8.043151 -9.103926 -0.013569 11.000000
-8.098338 -9.022624 -0.013543 6.000000
-7.922681 -9.081941 -0.013462 2.000000
-7.810270 -9.010066 -0.013319 0.000000
-6.744249 -9.021788 -0.012582 32.000000
-4.591432 -9.034739 -0.011321 36.333332
-4.444061 -9.047463 -0.011259 48.000000
-6.561972 -8.952675 -0.012399 11.000000
-5.351260 -8.898952 -0.011599 21.000000
-5.281354 -8.973122 -0.011630 4.000000
-5.015069 -8.900315 -0.011411 19.000000
-4.981227 -8.905553 -0.011398 8.000000
-4.857472 -8.946353 -0.011371 18.000000
-4.720433 -8.960679 -0.011313 30.000000
-4.611445 -8.922676 -0.011219 28.000000
-8.001137 -8.830215 -0.013310 1.000000
-7.893638 -8.878328 -0.013270 7.000000
-5.562738 -8.836905 -0.011664 36.000000
-4.504954 -8.887439 -0.011130 23.000000
-6.058545 -8.775807 -0.011912 10.000000
-5.985703 -8.728819 -0.011822 13.000000
-5.128015 -8.775547 -0.011353 17.000000
-4.719285 -8.757337 -0.011112 33.000000
-4.664785 -8.754759 -0.011081 33.000000
-5.203057 -8.560850 -0.011190 53.000000
-4.708553 -8.556369 -0.010909 25.400000
-6.076572 -8.400628 -0.011581 81.000000
-5.251686 -8.450366 -0.011114 22.333334
-6.595152 -8.374928 -0.011907 32.000000
-6.456480 -8.305669 -0.011751 33.000000
-5.133418 -8.357318 -0.010956 5.000000
-6.672887 -8.205133 -0.011814 29.000000
-6.584460 -8.227499 -0.011771 15.500000
-5.221118 -8.208154 -0.010866 20.000000
-4.787291 -8.251869 -0.010656 59.000000
-6.651802 -8.100953 -0.011709 24.500000
-6.551085 -8.159563 -0.011688 15.000000
-6.317730 -8.127211 -0.011499 46.000000
-5.835408 -8.120831 -0.011170 18.000000
-5.246573 -8.134810 -0.010813 17.000000
-4.667710 -8.133821 -0.010475 24.500000
-6.627382 -7.994069 -0.011599 55.000000
-6.099785 -7.949396 -0.011192 42.000000
-6.022316 -7.925494 -0.011119 29.000000
-6.562310 -7.815208 -0.011399 11.250000
-5.938014 -7.891467 -0.011032 24.000000
-5.393966 -7.647496 -0.010453 23.400000
-5.279870 -7.613743 -0.010349 25.000000
-5.637900 -7.566496 -0.010540 9.500000
-5.419444 -7.592174 -0.010419 25.000000
-6.477954 -7.332302 -0.010929 7.000000
-4.866585 -7.341466 -0.009839 3.000000
-4.878867 -7.285204 -0.009794 15.000000
-5.800236 -6.996349 -0.010151 0.000000
-6.377432 -6.608639 -0.010259 5.000000
-7.326315 -6.568912 -0.010991 9.000000
-6.426210 -6.493860 -0.010205 0.000000
-6.200568 -6.506689 -0.010040 2.000000
-6.106727 -6.308287 -0.009807 15.000000
-6.413104 -6.280175 -0.010026 0.000000
-6.762173 -6.101523 -0.010174 69.000000
-6.007520 -6.109030 -0.009571 29.000000
-5.447239 -6.155873 -0.009182 8.500000
-6.654130 -6.042068 -0.010040 2.000000
-6.126360 -6.018283 -0.009593 5.500000
-5.491690 -6.029094 -0.009110 24.500000
-5.214375 -6.024849 -0.008900 22.250000
-6.537673 -5.973901 -0.009892 5.000000
-5.101185 -5.972729 -0.008774 20.000000
-6.072881 -5.872711 -0.009437 5.000000
-6.519238 -5.627254 -0.009620 1.000000
-5.951235 -5.541854 -0.009084 7.000000
-5.085404 -5.507142 -0.008373 48.000000
-5.880540 -5.441628 -0.008949 13.000000
-5.195994 -5.405533 -0.008375 16.375000
-5.052490 -5.403005 -0.008263 29.333334
-7.363755 -5.373682 -0.010183 1.000000
-5.196069 -5.209639 -0.008219 23.500000
-6.426824 -5.137624 -0.009191 2.500000
-5.617420 -5.141241 -0.008506 32.750000
-5.222330 -5.137284 -0.008183 22.000000
-5.107233 -5.193531 -0.008136 3.000000
-6.210618 -5.061650 -0.008949 6.000000
-5.561291 -5.002224 -0.008355 11.500000
-5.328595 -5.088559 -0.008230 28.000000
-6.298776 -4.970907 -0.008963 3.000000
-5.189644 -4.956007 -0.008016 28.500000
-6.674263 -4.743151 -0.009146 0.000000
-6.548302 -4.747149 -0.009034 7.000000
-5.371327 -4.770588 -0.008025 25.500000
-5.054898 -4.766827 -0.007761 29.000000
-5.359236 -4.685398 -0.007952 25.333334
-5.018335 -4.692783 -0.007675 23.000000
-6.576523 -4.519919 -0.008914 2.000000
-6.360032 -4.549980 -0.008735 11.000000
-5.189600 -4.498522 -0.007672 34.666668
-5.376985 -4.298539 -0.007690 31.000000
-5.212039 -4.385976 -0.007609 29.000000
-5.179244 -4.275515 -0.007502 35.000000
-5.080569 -4.275204 -0.007417 47.000000
-7.792913 -4.053278 -0.009812 0.000000
-5.099170 -4.050254 -0.007274 20.000000
-4.937789 -4.024238 -0.007115 20.250000
-6.204525 -3.901339 -0.008187 23.666666
-5.636693 -3.902076 -0.007658 30.615385
-5.542866 -3.939109 -0.007596 18.000000
-4.949462 -3.914662 -0.007049 33.000000
-5.702518 -3.827601 -0.007672 33.500000
-5.294040 -3.812567 -0.007287 12.000000
-5.226200 -3.845323 -0.007248 33.875000
-5.068194 -3.859565 -0.007116 33.500000
-4.961319 -3.815221 -0.006991 41.666668
-5.844815 -3.743453 -0.007754 53.333332
-5.697344 -3.619752 -0.007540 50.000000
-6.916089 -3.514770 -0.008666 2.000000
-7.015324 -3.400408 -0.008708 13.000000
-5.757044 -3.372237 -0.007453 1.000000
-5.443066 -3.351217 -0.007140 86.000000
-5.374401 -3.355692 -0.007077 2.000000
-5.171106 -3.335123 -0.006873 22.666666
-6.771509 -3.242918 -0.008387 31.000000
-5.899179 -3.235060 -0.007515 6.000000
-4.960597 -3.245517 -0.006622 33.750000
-6.613172 -3.128857 -0.008172 32.000000
-6.061850 -3.177146 -0.007645 0.000000
-5.021163 -3.113253 -0.006599 0.000000
-6.735129 -3.007156 -0.008239 26.000000
-6.521578 -3.060486 -0.008047 43.000000
-5.003706 -3.016300 -0.006526 35.666668
-6.266434 -2.916761 -0.007721 82.000000
-4.967593 -2.973068 -0.006467 39.333332
-7.027227 -2.889199 -0.008487 65.000000
-6.658072 -2.823442 -0.008078 48.000000
-6.489621 -2.800247 -0.007895 24.000000
-5.593053 -2.805681 -0.006990 33.000000
-5.571758 -2.838936 -0.006985 33.666668
-5.415294 -2.816622 -0.006818 45.000000
-4.992098 -2.888217 -0.006442 31.857143
-4.943722 -2.812991 -0.006354 35.000000
-6.956961 -2.704035 -0.008337 49.333332
-6.609049 -2.717462 -0.007982 58.000000
-6.459184 -2.739099 -0.007837 28.000000
-5.605969 -2.747262 -0.006973 29.625000
-5.353027 -2.762902 -0.006729 18.000000
-5.186761 -2.718493 -0.006541 19.000000
-5.002891 -2.723135 -0.006362 39.000000
-4.936650 -2.709872 -0.006291 35.333332
-6.843476 -2.594068 -0.008175 74.666664
-6.719100 -2.692920 -0.008086 58.000000
-5.855243 -2.685156 -0.007195 21.200001
-5.001345 -2.641372 -0.006318 31.000000
-6.591512 -2.506514 -0.007877 11.000000
-6.691200 -2.464564 -0.007965 27.000000
-6.610879 -2.466447 -0.007882 18.000000
-6.923843 -2.338204 -0.008163 108.000000
-6.729220 -2.307901 -0.007946 10.500000
-6.561839 -2.308173 -0.007770 8.000000
-5.431497 -2.365571 -0.006618 13.583333
-5.740593 -2.245091 -0.006885 0.000000
-7.133561 -2.113123 -0.008311 53.500000
-7.087592 -2.099439 -0.008257 22.000000
-6.512632 -2.097239 -0.007643 3.000000
-6.486471 -2.145194 -0.007631 15.000000
-5.869975 -2.116801 -0.006970 12.500000
-7.064759 -2.020450 -0.008208 26.000000
-6.512952 -1.996184 -0.007609 9.000000
-6.227065 -2.037724 -0.007319 39.000000
-7.262242 -1.905212 -0.008387 18.000000
-7.149839 -1.962446 -0.008282 32.599998
-6.762516 -1.957017 -0.007864 59.000000
-6.742250 -1.836885 -0.007806 77.000000
-6.677516 -1.640154 -0.007681 52.000000
-6.426110 -1.606966 -0.007399 44.000000
-6.309102 -1.612863 -0.007274 4.000000
-7.173593 -1.509091 -0.008188 8.000000
-7.020428 -1.561535 -0.008034 26.000000
-6.915895 -1.515496 -0.007908 26.000000
-6.430393 -1.515547 -0.007380 29.000000
-6.043486 -1.585477 -0.006979 12.000000
-7.092295 -1.414606 -0.008078 19.000000
-6.604448 -1.403821 -0.007542 17.000000
-6.508250 -1.469085 -0.007453 36.000000
-6.226156 -1.446581 -0.007140 15.000000
-5.952393 -1.422453 -0.006836 33.000000
-5.169283 -1.487199 -0.006008 9.000000
-6.844761 -1.387606 -0.007801 18.000000
-6.763064 -1.326862 -0.007698 5.000000
-4.559851 -1.320446 -0.087670 1.000000
-4.318313 -1.293913 -0.005035 0.000000
-4.629765 -1.276993 -0.005365 11.333333
-4.568150 -1.284052 -0.087633 5.000000
-4.299345 -1.273523 -0.005009 14.000000
-7.250827 -1.140637 -0.008199 10.000000
-6.463682 -1.131591 -0.007330 43.000000
-5.606713 -1.027002 -0.006367 5.000000
-5.146954 -1.035019 -0.005864 10.000000
-6.508437 -0.940199 -0.007345 15.000000
-5.387736 -0.937890 -0.006109 13.400000
-5.130941 -0.981590 -0.005835 19.000000
-6.775613 -0.740854 -0.007614 94.000000
-6.574876 -0.711858 -0.007387 25.000000
-6.249823 -0.749590 -0.007031 18.666666
-6.923739 -0.669119 -0.007770 82.000000
-6.584251 -0.646582 -0.007390 51.500000
-6.392021 -0.597320 -0.007171 15.500000
-5.314569 -0.631843 -0.005978 8.000000
-6.664540 -0.559638 -0.007471 40.000000
-6.492454 -0.504127 -0.007274 5.000000
-6.440336 -0.449286 -0.007211 11.000000
-6.087144 -0.395771 -0.006814 2.000000
-6.519050 -0.341650 -0.007292 30.000000
-5.527121 -0.098405 -0.006175 71.000000
-5.334431 -0.128549 -0.005960 19.000000
-5.179348 -0.158281 -0.095696 7.000000
-5.320707 -0.040466 -0.005944 31.250000
-5.147047 -0.027849 -0.095055 4.000000
-5.213784 0.046413 -0.005824 43.000000
-5.019408 0.193704 -0.092766 36.000000
-4.957551 0.170519 -0.091609 22.000000
-0.081528 0.193846 -0.012375 1.000000
-6.237144 0.290975 -0.006975 14.000000
-6.116589 0.256544 -0.006838 15.000000
-5.300983 0.254624 -0.098010 56.000000
-5.038067 0.226135 -0.093135 35.000000
-6.232450 0.379047 -0.006975 4.500000
-5.073300 0.402952 -0.005685 40.000000
-0.158607 0.329850 -0.097359 1.000000
-6.529305 0.438253 -0.007310 7.000000
-5.234089 0.488831 -0.051820 39.333332
-0.062423 0.433885 -0.003785 83.388512
-6.581410 0.545715 -0.007377 0.000000
-5.181057 0.556999 -0.096237 20.000000
-4.603267 0.571837 -0.005181 5.333333
-0.083429 0.592720 -0.015853 78.708954
-6.583731 0.691977 -0.007395 5.000000
-5.370962 0.606275 -0.099819 48.500000
-0.101700 0.684098 -0.040220 74.285713
-6.859638 0.757368 -0.007709 42.333332
-6.402062 0.733949 -0.007198 63.000000
-6.224934 0.733465 -0.007001 22.000000
-6.107440 0.739081 -0.006872 32.000000
-5.145573 0.803936 -0.005817 1.000000
0.074962 0.711384 -0.008184 34.683937
-7.002194 0.869689 -0.007882 24.000000
-6.662153 0.848714 -0.007502 16.000000
-6.358014 0.830275 -0.007162 25.000000
-6.217930 0.851750 -0.007010 120.000000
-6.109564 0.817361 -0.006885 88.000000
-0.095727 0.871650 -0.085252 82.984123
0.070334 0.867862 -0.052149 52.766968
0.112372 0.820339 -0.000925 1.000000
-7.016204 1.006013 -0.007917 63.000000
-6.523204 0.977228 -0.007368 19.000000
-6.446566 0.993387 -0.007286 19.333334
-5.536153 0.990126 -0.006282 21.000000
-0.191711 0.993675 -0.001130 2.000000
-0.173211 0.955669 -0.003780 9.500000
-6.731050 1.019273 -0.007605 70.000000
-5.904916 1.017835 -0.006693 75.000000
-5.779559 1.014932 -0.006555 38.000000
-5.231796 1.049752 -0.098545 27.500000
-5.134846 1.045921 -0.035981 30.425926
-7.027609 1.143259 -0.007953 57.000000
-6.675875 1.136230 -0.007564 36.000000
-5.177263 1.110855 -0.097788 24.000000
-6.489650 1.245012 -0.007381 7.000000
-6.485668 1.223136 -0.007372 3.000000
-5.268965 1.218375 -0.006041 37.000000
-6.785934 1.434968 -0.007748 1.000000
-5.915977 1.535459 -0.006827 28.500000
-5.877740 1.555162 -0.006791 28.000000
-5.775203 1.566922 -0.006684 38.000000
-5.650681 1.552214 -0.006546 35.000000
-5.900557 1.630939 -0.006838 60.500000
-6.245690 1.800363 -0.007261 6.000000
-5.650216 1.793354 -0.006622 41.500000
-5.513072 1.774944 -0.006470 28.600000
-5.374566 1.761891 -0.006318 33.000000
-6.286601 1.908767 -0.007339 36.000000
-6.179446 2.079613 -0.007283 38.000000
-6.002466 2.041067 -0.007082 26.000000
-5.778878 2.094266 -0.006866 29.333334
-6.227177 2.150316 -0.007359 26.500000
-6.078890 2.174163 -0.007211 95.000000
-6.511764 2.305936 -0.007716 18.000000
-6.013087 2.214770 -0.007158 2.000000
-6.264995 2.379207 -0.007486 22.400000
-6.041082 2.355319 -0.007243 21.000000
-5.909005 2.335986 -0.007097 22.000000
-5.162891 2.396534 -0.006358 16.000000
-6.411860 2.581398 -0.007721 3.500000
-6.093396 2.553790 -0.007380 8.000000
-5.958085 2.519132 -0.007226 15.750000
-6.034636 2.652824 -0.007363 10.000000
-7.874339 2.753759 -0.009318 5.250000
-5.697214 2.754141 -0.007068 32.000000
-6.201131 2.817230 -0.007608 12.000000
-6.147018 2.876785 -0.007581 16.000000
-5.972735 2.864221 -0.007399 47.000000
-6.035368 2.985828 -0.007522 25.200001
-6.095117 3.149958 -0.007664 27.000000
-5.783249 3.163612 -0.007363 63.000000
-6.048396 3.274955 -0.007683 17.266666
-6.042930 3.380046 -0.007734 8.000000
-6.003777 3.432853 -0.007725 16.000000
-6.040349 3.580832 -0.007844 15.500000
5.961099 3.652905 -0.007809 20.833334
-6.060724 3.709741 -0.007937 3.250000
5.855399 3.720304 -0.007749 51.000000
-6.102663 3.828194 -0.008047 6.000000
5.848315 3.853946 -0.007824 32.400002
-6.220241 3.956630 -0.008235 3.000000
-6.576400 4.096632 -0.008655 0.000000
-6.132823 4.065470 -0.008219 4.500000
-6.162158 4.254162 -0.008364 5.000000
-6.756733 4.342735 -0.008972 14.500000
-6.380510 4.345966 -0.008623 28.000000
-6.193471 4.480089 -0.008538 2.666667
-6.182478 4.413175 -0.008485 5.000000
-6.874758 4.682528 -0.009291 13.500000
-6.236787 4.677593 -0.008708 3.000000
-6.243374 4.728682 -0.008748 1.000000
-5.324743 5.063600 -0.008208 33.000000
-6.542815 5.152386 -0.009302 76.000000
-5.384327 5.163386 -0.008333 31.000000
-6.641644 5.298159 -0.009490 72.000000
-6.564707 5.236857 -0.009381 121.000000
-6.468122 5.226644 -0.009289 54.000000
-6.620669 5.349842 -0.009508 62.000000
-6.477465 5.404486 -0.009423 72.000000
-5.601225 5.405262 -0.008695 1.000000
-6.594215 5.501750 -0.009593 70.500000
-6.199185 5.476862 -0.009240 26.000000
-6.392471 5.534098 -0.009445 55.799999
-6.005891 5.592713 -0.009167 33.333332
-5.592566 5.534307 -0.008789 8.000000
-5.482959 5.581336 -0.008739 12.500000
-6.618723 5.664924 -0.009731 73.000000
-5.436152 5.621439 -0.008735 1.000000
-6.459955 5.743486 -0.009655 25.000000
-6.239368 5.707360 -0.009445 32.000000
-6.611032 5.859352 -0.009868 15.000000
-5.349246 5.854039 -0.008858 7.000000
-6.582349 5.945527 -0.009908 8.500000
-6.400510 5.910357 -0.009731 28.000000
-5.431555 5.944143 -0.008994 118.000000
-6.523232 6.177347 -0.010035 2.000000
-6.224217 6.198200 -0.009812 30.000000
-6.381290 6.255473 -0.009982 7.500000
-6.396848 6.410256 -0.010116 13.000000
-6.219454 6.472007 -0.010026 54.000000
-6.506131 6.602283 -0.010354 19.666666
-6.450430 6.649311 -0.010348 27.000000
-6.234571 6.716302 -0.010236 13.000000
-6.546020 6.876433 -0.010605 49.500000
-6.119276 6.892253 -0.010295 43.777779
-6.554328 6.979592 -0.010695 40.666668
-6.302897 6.941380 -0.010473 102.000000
-5.664785 7.085955 -0.010134 46.666668
-5.627536 7.153806 -0.010167 36.500000
-5.522545 7.158217 -0.010099 43.000000
-5.518776 7.270722 -0.010196 29.000000
-5.997251 7.349080 -0.010596 41.799999
-6.175180 7.480443 -0.010835 105.000000
-4.926102 7.465156 -0.009991 5.000000
-4.799494 7.475976 -0.009924 7.000000
-4.673392 7.484803 -0.009857 19.000000
-6.389860 7.516480 -0.011020 28.000000
-6.335090 7.564593 -0.011022 51.250000
-4.821051 7.587969 -0.010042 10.500000
-6.587831 7.631912 -0.011262 75.500000
-5.803503 7.736332 -0.010803 50.400002
-5.063074 7.778674 -0.010367 21.666666
-5.819376 7.870178 -0.010933 45.000000
-5.239793 7.833022 -0.010527 7.000000
-4.966030 8.009382 -0.010527 91.000000
-4.476227 8.192923 -0.010428 0.500000
-6.142723 8.362309 -0.011590 71.000000
-6.034832 8.435583 -0.011586 36.000000
-6.118999 8.534200 -0.011730 58.333332
-5.951183 8.543554 -0.011630 61.000000
-6.323920 8.665904 -0.011983 53.000000
-6.168185 8.679475 -0.011894 42.000000
-5.958592 8.669801 -0.011751 49.000000
-5.374272 8.688085 -0.011411 27.000000
-5.289076 8.651309 -0.011326 49.000000
-5.309313 8.777094 -0.011458 49.000000
-5.244834 8.794824 -0.011438 45.500000
-5.079462 8.734402 -0.011286 2.000000
-6.016695 8.843267 -0.011948 49.000000
-5.694131 8.869516 -0.011773 25.000000
-5.813024 8.930786 -0.011903 3.000000
-5.696342 8.934584 -0.011836 7.000000
-5.251596 8.922550 -0.011565 41.333332
-4.757925 8.940827 -0.011313 1.000000
-4.893862 9.058565 -0.011501 7.000000
-4.844589 9.035117 -0.011452 23.000000
-5.908717 9.140480 -0.012158 7.000000
-5.787002 9.203850 -0.012144 13.000000
-4.781500 9.122890 -0.011505 4.000000
-6.220717 9.257380 -0.012458 28.000000
-6.158140 9.268741 -0.012430 21.000000
-5.843708 9.229556 -0.012202 33.000000
-4.797117 9.223035 -0.011612 13.000000
-4.939033 9.351876 -0.011814 1.000000
-4.843338 9.383792 -0.011796 5.000000
-4.794325 9.470541 -0.011857 7.750000
19.955009 16.315556 -0.028792 14.000000
19.877932 16.409424 -0.028792 13.000000
18.235878 18.778578 -0.029239 2.000000
18.106455 18.881237 -0.029221 3.000000
18.149017 18.806990 -0.029194 32.000000
5.696428 19.083954 -0.022246 58.000000
5.885506 19.274712 -0.022511 49.000000
6.047847 19.298506 -0.022590 29.000000
-6.275887 19.700474 -0.023095 6.000000
-6.179377 19.718410 -0.023082 7.000000
-6.577975 21.705116 -0.025334 0.000000
-11.824341 22.135759 -0.028032 6.000000
-11.777837 22.300900 -0.028171 12.000000
-11.755992 22.429911 -0.028287 7.000000
-11.722388 22.537703 -0.028377 7.000000
8.377125 28.389837 -0.033064 20.000000
-5.059665 -3.310281 0.072057 5.250000
-5.324312 -3.096338 0.099982 16.000000
-5.343249 -3.051448 0.099885 32.000000
-5.147954 -2.823094 0.095308 41.000000
-5.271577 -2.433585 0.094253 17.250000
-5.700087 -2.270667 0.028628 12.000000
-5.326646 -1.826744 0.091412 6.500000
-5.904061 -1.638431 0.099463 11.500000
-4.914592 -1.506336 0.083443 4.000000
-5.050975 -1.339258 0.054568 3.666667
-4.641586 -1.311687 0.078298 17.000000
-4.440668 -1.315385 0.075181 2.000000
-5.045473 -1.281396 0.039393 6.000000
-4.466788 -1.292542 0.075484 16.000000
-5.517828 -1.010523 0.042932 18.000000
-4.965508 -1.088104 0.082518 4.000000
-5.482666 -0.948012 0.074325 25.333334
-5.129639 -0.823471 0.084335 6.000000
-5.234225 -0.766027 0.012202 5.400000
-5.243414 -0.662315 0.024374 8.000000
-5.053728 -0.633097 0.082680 4.000000
-5.791191 -0.431375 0.094269 9.000000
-5.614358 -0.435945 0.091412 16.000000
-5.542479 -0.456671 0.090276 3.500000
-6.087816 -0.299873 0.098943 89.000000
-5.979989 -0.329604 0.030345 73.714287
-6.077368 -0.203746 0.019542 41.250000
-5.983390 -0.213126 0.097190 53.333332
-5.747431 -0.168566 0.093338 28.000000
-5.666319 -0.000835 0.079698 34.750000
-5.495630 0.012800 0.032387 29.799999
-5.520783 0.109764 0.039009 43.529411
-5.334832 0.173246 0.040703 13.500000
-5.209021 0.169072 0.016505 10.250000
-5.119480 0.198461 0.083167 16.000000
0.016516 0.195260 0.048791 1.000000
-5.499112 0.299747 0.089400 2.000000
-5.134716 0.264374 0.049652 21.725491
-0.041604 0.272452 0.042875 7.782560
-6.121922 0.459235 0.099657 33.500000
-0.001692 0.434387 0.005033 107.766457
-5.529982 0.551215 0.035090 28.142857
-5.029665 0.551613 0.072451 26.555555
0.036656 0.577673 0.005290 90.462502
-4.883084 0.612192 0.079888 35.000000
-4.784735 0.640120 0.078363 34.000000
-4.765509 0.729003 0.078262 42.090908
-4.936570 0.877673 0.081392 23.000000
-4.709913 0.811851 0.077583 39.000000
-5.045141 0.925309 0.029688 34.200001
-5.395058 1.017692 0.025833 30.666666
-5.485291 1.123975 0.090893 2.000000
-5.348958 1.188525 0.051154 34.466667
-5.541625 1.366118 0.053037 18.000000
-5.408906 1.317217 0.013058 30.000000
-5.508996 1.551152 0.060814 27.005682
-5.382619 1.622854 0.054663 29.000000
-5.205632 1.648425 0.088639 36.714287
-5.762294 1.899085 0.098489 26.000000
-5.599564 1.943401 0.096216 3.000000
-5.657261 2.063406 0.097753 55.333332
-5.485797 2.069634 0.095178 35.500000
-5.645120 2.386689 0.099495 8.000000
-5.484783 2.400804 0.097190 3.000000
-5.081950 2.397888 0.091217 11.000000
-5.515413 2.741483 0.099982 44.500000
-5.373119 2.744739 0.045373 10.000000
-4.202785 -11.246791 0.194900 6.500000
-5.583433 -10.845555 0.198016 4.000000
-4.347508 -10.373058 0.182578 25.000000
-6.497553 -10.286060 0.197497 6.000000
-4.394320 -10.213313 0.180487 36.000000
-4.365354 -10.234425 0.180617 35.000000
-6.900847 -10.131451 0.198990 0.000000
-4.397726 -10.133418 0.179318 31.000000
-6.499954 -10.009053 0.193731 56.000000
-6.436939 -10.049695 0.193731 7.000000
-4.833911 -9.999423 0.180292 21.000000
-4.564684 -10.039532 0.179026 27.000000
-6.669621 -9.993117 0.195030 13.000000
-6.504244 -9.913101 0.192465 49.000000
-6.431629 -9.972285 0.192628 12.000000
-4.860044 -9.973403 0.180098 12.000000
-4.740247 -9.924610 0.178539 26.500000
-6.512237 -9.824007 0.191329 4.000000
-4.479263 -9.892996 0.176289 24.666666
-5.757402 -9.781937 0.184253 114.000000
-4.512910 -9.722231 0.173995 28.000000
-4.317508 -9.779935 0.173540 35.333332
-5.571395 -9.603432 0.180227 4.000000
-7.757097 -9.538303 0.199575 3.000000
-7.664464 -9.546309 0.198731 22.000000
-5.813054 -9.564426 0.181688 5.000000
-7.512414 -9.478308 0.196328 0.000000
-5.747270 -9.489873 0.180098 12.000000
-5.630123 -9.429645 0.178280 3.000000
-5.588234 -9.426643 0.177890 8.000000
-4.374887 -9.309950 0.166983 31.000000
-5.737567 -9.275421 0.177046 29.000000
-6.822388 -9.126314 0.184967 5.000000
-4.611050 -9.096746 0.165555 30.000000
-4.510483 -9.182689 0.166074 55.000000
-8.061794 -9.010295 0.196263 5.000000
-4.652627 -9.037739 0.165009 24.400000
-4.504383 -9.026500 0.163758 35.000000
-6.709149 -8.916285 0.181136 0.000000
-5.978081 -8.908142 0.174151 14.000000
-4.712358 -8.945351 0.164126 17.000000
-7.989346 -8.817203 0.193147 20.000000
-7.827605 -8.859952 0.191914 0.000000
-6.097161 -8.861498 0.174611 8.000000
-5.645480 -8.844394 0.170327 4.000000
-4.639761 -8.875047 0.162568 12.000000
-8.042959 -8.728359 0.192671 16.333334
-7.812879 -8.787496 0.190875 5.000000
-6.040560 -8.779202 0.172988 23.000000
-4.920170 -8.731897 0.162698 31.000000
-4.990129 -8.539583 0.160556 4.000000
-4.901411 -8.554555 0.160045 27.428572
-4.522918 -8.520717 0.156595 50.000000
-7.942516 -8.413799 0.187823 34.500000
-5.197835 -8.344175 0.159582 56.000000
-5.110631 -8.379135 0.159322 18.000000
-4.611797 -8.368059 0.155102 31.000000
-4.493039 -8.306385 0.153300 25.250000
-6.551996 -8.213423 0.170554 6.000000
-5.175418 -8.288975 0.158630 40.000000
-5.063666 -8.243761 0.157050 14.000000
-4.891366 -8.251165 0.155708 9.000000
-7.607828 -8.135592 0.180812 81.000000
-6.709561 -8.118956 0.170976 9.000000
-6.597764 -8.123098 0.169879 13.200000
-5.132682 -8.125379 0.156011 13.000000
-4.911549 -8.167728 0.154712 7.000000
-4.554794 -8.173294 0.151888 18.500000
-8.346661 -7.995706 0.187629 2.000000
-5.898224 -7.994314 0.161270 16.000000
-8.165113 -7.895981 0.184382 0.000000
-6.319967 -7.973814 0.165165 19.000000
-6.106813 -7.906996 0.162179 16.000000
-5.864861 -7.949285 0.160361 31.500000
-7.855581 -7.814596 0.179870 3.000000
-7.645582 -7.873113 0.178150 1.000000
-7.277309 -7.831317 0.173540 4.000000
-6.072713 -7.811988 0.160620 14.000000
-5.961582 -7.851870 0.160036 27.500000
-5.658578 -7.822638 0.156725 25.666666
-7.487502 -7.758952 0.175033 14.000000
-6.004502 -7.649568 0.157861 27.000000
-5.469853 -7.662794 0.152830 41.000000
-6.662491 -7.589095 0.163932 11.000000
-5.327527 -7.538210 0.149843 30.500000
-5.255203 -7.548615 0.149308 19.500000
-6.521397 -7.151861 0.157115 4.000000
-5.805045 -7.024554 0.147928 11.000000
-6.552701 -6.928401 0.154803 16.000000
-5.793239 -6.943398 0.146792 27.000000
-6.547781 -6.806596 0.153317 6.500000
-6.056311 -6.811804 0.147960 38.000000
-5.785870 -6.803184 0.144974 27.000000
-5.991114 -6.738595 0.146370 13.500000
-5.716375 -6.786015 0.144033 34.500000
-6.030023 -6.644497 0.145656 13.500000
-6.407742 -6.516014 0.148350 12.000000
-6.001835 -6.499573 0.143611 14.000000
-7.288889 -6.473742 0.158251 12.500000
-6.535136 -6.399677 0.148480 3.000000
-6.566674 -6.390272 0.148740 0.000000
-6.369783 -6.356455 0.146078 10.000000
-5.423885 -6.296996 0.134911 30.333334
-5.481787 -6.283891 0.135365 13.000000
-5.934800 -6.111418 0.138287 8.000000
-6.609281 -6.077545 0.145753 3.000000
-5.939992 -6.078442 0.137962 31.000000
-6.298322 -5.976884 0.140949 1.000000
-6.325961 -5.853805 0.139910 12.000000
-7.166660 -5.369152 0.145363 43.000000
-5.902554 -5.309115 0.128873 7.500000
-6.429499 -5.106930 0.133288 2.000000
-6.575501 -5.056509 0.134651 5.000000
-5.212342 -4.930799 0.116473 18.000000
-6.525780 -4.857083 0.132054 102.000000
-6.359632 -4.610374 0.127510 2.000000
-6.283766 -4.615894 0.126568 11.500000
-6.057434 -4.627911 0.123744 15.000000
-5.911498 -4.665622 0.122251 15.000000
-5.806855 -4.692199 0.121190 28.666666
-5.186959 -4.621412 0.112772 3.000000
-4.940750 -4.615353 0.109753 23.500000
-4.815902 -4.613476 0.108260 26.000000
-4.595671 -4.635719 0.105964 18.285715
-6.670132 -4.522811 0.130821 4.000000
-6.536358 -4.532691 0.129122 19.333334
-6.428948 -4.568539 0.128029 23.333334
-5.866937 -4.541029 0.120433 30.000000
-5.062006 -4.524050 0.110207 11.500000
-4.953144 -4.521963 0.142171 25.285715
-4.722607 -4.552906 0.191782 31.750000
-4.660596 -4.571124 0.105971 25.750000
-6.942628 -4.487953 0.134197 19.000000
-6.871003 -4.395973 0.132411 13.000000
-5.794788 -4.398483 0.118096 24.000000
-6.502284 -4.349615 0.126990 12.000000
-5.728843 -4.348534 0.116754 28.666666
-5.079356 -4.328890 0.108336 36.666668
-4.895567 -4.350016 0.138720 32.285713
-5.195062 -4.261201 0.109071 30.000000
-4.929764 -4.268794 0.105858 25.500000
-6.747259 -4.183477 0.128873 2.000000
-5.815986 -4.133205 0.115823 45.000000
-5.016295 -4.154238 0.105728 41.000000
-6.803174 -4.013774 0.128224 13.000000
-6.713888 -4.082927 0.127558 29.250000
-6.589364 -4.063924 0.125675 25.750000
-6.440583 -4.077862 0.123744 13.000000
-5.673003 -4.047117 0.199324 34.142857
-5.415464 -4.004310 0.109331 1.000000
-4.937761 -4.076235 0.103942 24.666666
-4.825907 -4.060911 0.102384 39.000000
-5.561206 -3.943770 0.110673 23.666666
-5.037770 -3.941558 0.103834 21.333334
-4.978656 -3.948176 0.103147 17.500000
-8.140247 -3.882698 0.146402 2.000000
-6.620817 -3.850316 0.124328 0.000000
-6.087130 -3.880918 0.117187 2.000000
-5.965143 -3.856175 0.115304 11.500000
-5.861214 -3.854522 0.113876 15.500000
-5.333119 -3.866247 0.106929 16.666666
-5.553221 -3.791025 0.109149 12.800000
-6.825552 -3.604795 0.125302 2.000000
-6.536349 -3.692067 0.121861 1.000000
-6.073371 -3.608784 0.155817 88.666664
-7.979865 -3.502914 0.141468 39.000000
-5.483592 -3.423794 0.104942 8.800000
-7.606766 -3.367680 0.135041 72.000000
-6.802742 -3.350315 0.123095 13.000000
-7.484756 -3.257572 0.132509 19.000000
-6.703217 -3.292649 0.121234 18.000000
-6.675031 -3.196717 0.120141 23.500000
-5.511924 -3.248156 0.103856 27.833334
-4.884417 -3.278471 0.197513 25.000000
-7.013872 -3.184586 0.125042 14.000000
-4.902544 -3.189179 0.196372 28.500000
-7.202846 -3.067835 0.127088 2.000000
-6.720631 -3.031109 0.119680 52.200001
-6.532827 -3.033633 0.188287 29.285715
-5.754919 -3.022000 0.105517 26.250000
-5.409445 -3.042641 0.100752 32.714287
-6.389181 -2.973895 0.155236 20.000000
-5.486234 -2.991897 0.101443 36.250000
-7.536441 -2.865836 0.130886 31.000000
-7.295904 -2.800634 0.126860 32.000000
-6.939842 -2.844877 0.121753 68.166672
-6.560408 -2.873546 0.147221 21.750000
-5.532021 -2.860940 0.101102 32.000000
-6.824694 -2.743478 0.195956 26.200001
-6.682951 -2.699038 0.180020 25.000000
-5.645397 -2.765641 0.102049 12.500000
-5.542999 -2.778716 0.127570 24.500000
-4.906950 -2.705027 0.188130 25.600000
-6.261956 -2.628888 0.143682 34.285713
-7.502866 -2.520594 0.128483 47.000000
-6.536811 -2.517088 0.154012 2.000000
-5.163760 -2.512935 0.192815 0.000000
-6.678553 -2.408338 0.177020 12.500000
-6.583459 -2.423326 0.150230 18.000000
-5.208745 -2.454304 0.193330 12.000000
-6.576328 -2.336552 0.113291 3.000000
-7.119997 -2.094381 0.172003 20.000000
-7.044433 -2.106662 0.183014 24.333334
-6.439619 -2.107280 0.168850 20.500000
-6.592400 -2.020534 0.111928 15.000000
-6.531125 -2.069287 0.111214 0.000000
-6.229713 -2.008319 0.174487 37.200001
-6.987787 -1.951024 0.117771 52.000000
-6.185603 -1.981217 0.105436 1.000000
-5.114147 -1.926359 0.183486 3.000000
-6.635956 -1.774385 0.111506 89.500000
-7.116002 -1.606270 0.118420 8.000000
-6.887681 -1.676626 0.197001 9.666667
-6.756837 -1.682164 0.113032 3.000000
-6.577513 -1.681597 0.188459 27.333334
-6.422083 -1.673943 0.165035 24.750000
-6.046778 -1.647408 0.101735 139.000000
-7.609097 -1.517686 0.125951 49.000000
-7.134545 -1.540168 0.118485 6.500000
-6.529065 -1.516942 0.166966 15.333333
-6.442357 -1.551787 0.173414 43.142857
-6.320268 -1.531369 0.105565 59.000000
-7.051000 -1.452494 0.116862 11.000000
-5.601227 -1.413167 0.193956 144.000000
-5.401285 -1.398926 0.187334 5.000000
-4.296848 -1.466132 0.152435 19.000000
-7.089103 -1.298536 0.116992 13.000000
-6.555302 -1.353401 0.191596 11.571428
-5.495754 -1.331296 0.189862 3.000000
-4.606101 -1.340832 0.161071 12.000000
-4.304537 -1.364215 0.151621 11.200000
-7.179632 -1.198882 0.118161 8.000000
-6.670621 -1.232718 0.168945 4.000000
-6.531179 -1.249405 0.165800 15.250000
-7.304355 -1.102072 0.119914 59.000000
-4.766288 -1.107396 0.164292 9.000000
-4.316160 -1.183257 0.150265 5.333333
-7.608677 -1.087062 0.124767 35.750000
-6.578570 -1.087683 0.195250 21.500000
-5.399875 -1.006657 0.184426 5.000000
-7.228663 -0.951673 0.118355 39.000000
-6.647084 -0.928294 0.167188 100.000000
-6.418575 -0.916984 0.161165 13.000000
-6.257327 -0.899852 0.124794 8.000000
-5.345618 -0.937767 0.182225 11.600000
-7.265825 -0.863869 0.118777 15.500000
