# This PCD file was generated using the MATLAB® pcwrite function
# from Computer Vision Toolbox®.
# .PCD v.7 - Point Cloud Data file format
VERSION .7
FIELDS x y z intensity
SIZE 4 4 4 4
TYPE F F F F
COUNT 1 1 1 1
WIDTH 1236
HEIGHT 1
VIEWPOINT 0 0 0 1 0 0 0
POINTS 1236
DATA ascii
-8.817995 9.918015 0.445584 10.333333
-8.575886 9.935263 0.440662 11.000000
-8.399195 9.918020 0.436367 18.000000
-8.793333 10.090619 0.449387 9.500000
-8.643534 10.077463 0.445763 25.000000
-7.854537 10.181031 0.431736 36.000000
-7.257739 10.349735 0.424421 7.000000
-6.539732 10.328856 0.410462 23.000000
-7.625910 10.450070 0.434354 35.000000
-7.293735 10.470898 0.428448 56.000000
-9.824087 10.566425 0.484420 32.000000
-8.050447 10.537168 0.445226 8.000000
-7.715502 10.503388 0.437575 1.000000
-10.254792 10.604318 0.495292 0.000000
-10.165947 10.623197 0.493682 28.000000
-10.027472 10.633456 0.490729 15.000000
-9.363626 10.643394 0.475964 19.000000
-7.039307 10.667566 0.429119 1.000000
-6.044701 10.675138 0.411893 43.500000
-10.165398 10.712098 0.495829 26.000000
-9.390657 10.741986 0.479051 34.000000
-6.877326 10.786932 0.429522 25.000000
-6.642226 10.712809 0.423213 17.000000
-5.940700 10.768683 0.412931 32.000000
-6.962696 10.808174 0.431669 7.500000
-9.863533 10.931522 0.494353 11.000000
-9.656719 10.907261 0.489118 9.000000
-7.494998 10.905284 0.444287 4.000000
-5.342836 10.934972 0.408627 30.000000
-5.117187 10.904199 0.404422 10.000000
-4.964883 10.934881 0.403214 29.000000
-4.694929 10.975252 0.400797 2.000000
-6.883341 11.024210 0.436367 11.000000
-6.021475 11.090297 0.423705 35.333332
-5.511842 11.059637 0.414891 31.000000
-4.676543 11.076441 0.403683 7.000000
-9.617329 11.106446 0.493279 15.500000
-6.986034 11.110832 0.440662 33.000000
-6.053827 11.419242 0.433951 34.500000
-6.177485 11.520956 0.438917 32.000000
-5.842807 11.586891 0.435696 4.000000
-5.911785 11.632627 0.438112 29.000000
-5.402123 11.701993 0.432743 12.000000
-7.990385 11.704689 0.475830 14.000000
-6.125943 11.868792 0.448447 10.000000
-5.531641 11.884305 0.440126 30.000000
-5.170618 11.880268 0.435025 1.000000
-4.761926 11.845412 0.428649 17.500000
-6.097734 11.905772 0.449119 23.000000
-4.786468 11.906708 0.430864 19.000000
-4.668215 11.936397 0.430327 0.000000
-5.280228 12.028690 0.441065 0.000000
-5.023226 12.272278 0.445226 14.000000
-4.895032 12.401367 0.447642 7.000000
-5.142631 12.452275 0.452340 15.000000
-6.541144 12.512034 0.474040 19.666666
-6.827349 12.732946 0.485091 0.000000
-6.950923 12.866198 0.490997 6.000000
-5.595865 13.081353 0.477709 15.000000
-5.427740 13.026494 0.473816 15.000000
5.476952 24.745806 0.411420 57.000000
5.593519 24.719685 0.411420 52.500000
5.413667 24.829321 0.412523 2.000000
-6.144897 26.447954 0.440765 1.000000
-7.221468 26.506266 0.445959 1.000000
-5.727869 26.537304 0.440700 2.000000
-6.785161 26.893614 0.450244 3.000000
-6.807881 27.345592 0.457450 1.000000
-6.555436 27.431879 0.457840 1.000000
-6.006196 28.256918 0.468942 4.000000
-5.374444 28.335007 0.468163 1.000000
-6.181002 28.636675 0.475564 4.000000
-5.547529 28.753885 0.475369 1.000000
-5.088239 28.798088 0.474720 1.000000
-6.421597 28.870556 0.480109 3.000000
-6.319742 28.839798 0.479265 4.000000
-5.821182 29.185204 0.483095 2.000000
-6.033495 29.289072 0.485432 5.000000
-6.654041 29.478352 0.490561 4.000000
-5.981983 29.507790 0.488743 2.000000
-2.384027 -32.464294 0.528412 10.000000
-2.068003 -32.329659 0.525880 21.000000
-1.965696 -32.324020 0.525685 41.000000
-2.459433 -32.109707 0.522763 19.000000
-2.552031 -31.998161 0.521075 21.000000
-2.196231 -31.970390 0.520199 28.000000
-3.243268 -31.818922 0.519192 14.000000
-2.935148 -31.760460 0.517764 17.000000
-1.773394 -31.620098 0.514096 10.000000
-3.111851 -31.510544 0.513999 13.000000
-2.817221 -31.566359 0.514453 23.000000
-2.718037 -31.575052 0.514453 8.000000
-3.009416 -31.484331 0.513414 19.000000
-5.106102 -31.387190 0.516206 2.000000
-2.603301 -31.396105 0.511402 5.000000
-5.488358 -31.253580 0.515102 4.000000
-2.391624 -31.224417 0.508350 6.000000
-5.153626 -31.063242 0.511142 32.000000
-2.269205 -30.900709 0.502962 11.000000
-5.878370 -30.641115 0.506467 2.000000
-3.616350 -16.461945 0.565895 14.000000
-5.238428 -16.194174 0.571465 14.250000
-5.428102 -15.800181 0.560929 13.000000
-5.160507 -14.869077 0.528446 11.000000
-4.889426 -14.758373 0.522003 2.000000
-5.839329 -14.658825 0.529788 11.666667
-6.396257 -14.126679 0.520661 0.000000
-6.287861 -14.122764 0.519050 5.000000
-6.490999 -13.535630 0.504017 0.000000
7.387244 -13.470744 0.515829 36.000000
7.373463 -13.345992 0.511936 62.000000
7.402359 -13.201746 0.508178 60.666668
7.484663 -13.058581 0.505359 66.000000
8.058527 -13.042630 0.514755 33.000000
7.555877 -12.945845 0.503279 70.000000
7.682812 -12.929047 0.504956 57.333332
7.830639 -12.899328 0.506657 67.666664
-5.384662 -10.379195 0.595811 11.000000
-4.648715 -10.353527 0.578306 0.000000
-5.632222 -10.219609 0.594590 16.000000
-5.596429 -10.079622 0.587466 115.000000
-5.472590 -10.079259 0.584412 20.000000
-5.507098 -9.955430 0.579731 19.000000
-5.215505 -9.976344 0.573624 16.000000
-5.209116 -9.838213 0.567246 16.666666
-5.469624 -9.600937 0.563039 4.000000
-4.154053 -9.626978 0.534269 7.000000
-7.202045 -9.028308 0.588483 3.000000
-7.507957 -8.828061 0.590519 38.000000
-7.201710 -8.522074 0.568535 18.000000
-7.043443 -8.415051 0.559171 15.500000
-6.878860 -8.297405 0.549197 55.000000
-6.576725 -8.351528 0.541665 13.000000
-6.774020 -8.223390 0.542887 2.000000
-7.005241 -8.133006 0.546958 21.500000
-7.019549 -8.046660 0.544108 24.000000
-6.919316 -8.033098 0.540240 44.000000
-3.443621 -7.970408 0.593746 28.571428
-8.057971 -7.792370 0.571181 0.000000
-7.970466 -7.756354 0.566703 0.000000
-6.815503 -7.763387 0.526399 20.000000
-3.915671 -7.782059 0.595734 91.000000
-8.046102 -7.683650 0.566906 1.000000
-7.952793 -7.642458 0.562021 11.000000
-3.883989 -7.599726 0.583636 28.333334
-3.442334 -7.620366 0.571810 57.333332
-7.942700 -7.537341 0.557950 8.000000
-7.734849 -7.574523 0.551640 5.000000
-3.941455 -7.594101 0.585091 17.000000
-8.301327 -7.443126 0.568128 0.000000
-8.027991 -7.428798 0.557339 16.000000
-6.627908 -7.454705 0.508282 4.000000
-3.440845 -7.470416 0.562441 47.000000
-6.592694 -7.368350 0.503804 4.000000
-3.422747 -7.370288 0.555709 30.000000
-8.373614 -7.227909 0.563649 11.000000
-8.151119 -7.239437 0.555507 10.500000
-6.751292 -7.242422 0.504516 5.000000
-5.086595 -7.052619 0.594643 26.166666
-4.978874 -7.065856 0.591095 29.000000
-7.437449 -6.925833 0.517849 40.000000
-5.354661 -6.841339 0.594097 8.000000
-7.243673 -6.788000 0.505839 6.000000
-5.190751 -6.727107 0.581052 25.799999
-5.083477 -6.731394 0.576836 30.750000
-7.759507 -6.655404 0.520903 9.000000
-7.293243 -6.601484 0.501259 16.500000
-3.819913 -6.539090 0.517877 24.400000
-3.735370 -6.558834 0.516157 18.400000
-5.507930 -6.474142 0.581271 1.000000
-6.081018 -6.299279 0.598736 8.000000
-5.942201 -6.352172 0.594824 52.666668
-5.480827 -6.360811 0.574175 9.000000
-4.265706 -6.345649 0.522871 2.000000
16.638672 -6.307150 0.597438 65.000000
-5.867921 -6.259639 0.586729 24.000000
-6.303639 -6.093735 0.599555 24.000000
-6.441971 -5.959069 0.600100 1.000000
-6.133475 -5.985394 0.586046 32.000000
-6.418469 -5.881473 0.595325 14.500000
-3.654552 -5.844018 0.591877 22.500000
-6.400775 -5.773407 0.589457 40.000000
-6.299870 -5.718385 0.581816 14.000000
-5.839388 -5.752392 0.560530 9.000000
-3.664719 -5.759027 0.586173 27.833332
-8.336276 -5.463419 0.507875 0.000000
-8.228806 -5.448627 0.502888 11.000000
-6.190176 -5.409555 0.562168 7.000000
-4.335192 -5.437025 0.597138 10.375000
-8.336902 -5.315286 0.503804 9.000000
-6.222086 -5.377357 0.562372 19.000000
-4.414451 -5.368507 0.596839 22.000000
-4.426420 -5.280816 0.591706 30.666666
-4.382187 -5.250340 0.587257 27.000000
-4.448506 -5.162745 0.585203 3.000000
-4.742225 -5.037608 0.594101 85.000000
-4.497981 -4.900093 0.571172 8.000000
-4.518722 -4.861010 0.569917 32.000000
14.132826 -4.855289 0.501735 255.000000
14.235063 -4.840466 0.504822 255.000000
15.611368 -4.793692 0.548311 8.000000
15.634430 -4.666826 0.547819 14.666667
-7.302297 -4.557669 0.588639 3.000000
-6.840923 -4.558857 0.562168 5.000000
15.626506 -4.504490 0.546029 15.000000
-6.537766 -4.476521 0.541837 9.000000
-7.319989 -4.316902 0.581134 37.000000
-7.200565 -4.347371 0.575189 40.285713
-7.004515 -4.341290 0.563532 1.000000
-6.831346 -4.383961 0.555072 12.000000
15.599842 -4.364373 0.543882 17.000000
15.861298 -4.303475 0.551801 24.000000
-7.340527 -4.256816 0.580270 20.333334
15.620256 -4.290805 0.543882 15.000000
15.891039 -4.231252 0.552137 9.500000
-7.652464 -4.070601 0.592732 37.000000
-7.306288 -3.960293 0.568308 34.500000
9.011309 -3.995086 0.502277 254.000000
9.157082 -3.991059 0.508994 119.000000
9.304987 -3.986152 0.515814 132.000000
9.467926 -3.985713 0.523447 15.500000
9.642293 -3.987973 0.531691 15.000000
9.804094 -3.982955 0.539223 10.000000
-6.963818 -3.817318 0.543065 28.000000
-6.862320 -3.808519 0.536697 25.666666
-6.518978 -3.729560 0.513592 31.400000
-7.737588 -3.688981 0.586183 9.000000
-7.664814 -3.683886 0.581543 26.000000
-7.326438 -3.599498 0.558211 26.500000
-6.788446 -3.638406 0.526691 52.000000
-5.928077 -3.674130 0.598892 40.000000
-5.865791 -3.661086 0.593759 54.000000
-6.960321 -3.577112 0.535151 72.000000
-6.686060 -3.516196 0.516594 11.500000
-7.438959 -3.404250 0.559439 28.000000
-6.847344 -3.464851 0.524781 6.000000
-6.571454 -3.442778 0.507315 18.000000
-6.475908 -3.418691 0.500766 17.000000
-7.193184 -3.355783 0.542792 26.666666
-7.137096 -3.239033 0.535970 39.000000
-7.798754 -3.153664 0.575267 37.571430
-7.670201 -3.109869 0.565988 50.000000
2.771181 -3.164270 0.509387 7.000000
2.814732 -3.140376 0.510709 8.000000
-7.882238 -3.095312 0.579087 39.000000
-6.817228 -3.055228 0.510863 8.000000
-6.738032 -2.964811 0.503404 76.000000
-6.270274 -2.989423 0.596497 52.000000
-6.163866 -2.962496 0.587257 52.000000
2.363672 -2.924765 0.589415 8.200000
2.395426 -2.889798 0.521203 8.000000
3.084517 -2.858299 0.509267 5.750000
3.132871 -2.821834 0.510613 4.000000
3.205746 -2.744727 0.511103 3.181818
-8.085114 -2.665260 0.582157 16.000000
-7.959275 -2.686326 0.574448 1.000000
3.271743 -2.670287 0.511431 4.000000
-7.989764 -2.502307 0.572538 18.000000
-7.149342 -2.513475 0.518231 6.000000
2.747336 -2.522693 0.517902 3.857143
3.342541 -2.574101 0.510950 3.714286
-7.145897 -2.487065 0.517413 1.000000
-6.010818 -2.436990 0.556970 25.250000
2.793259 -2.485201 0.519134 3.000000
2.869050 -2.425970 0.521729 8.384615
3.035888 -2.407710 0.538021 143.000000
3.125666 -2.400100 0.547190 255.000000
3.465817 -2.433793 0.512908 4.714286
-7.703270 -2.306696 0.549887 17.000000
-7.524549 -2.304796 0.538153 3.000000
-5.942747 -2.366108 0.549270 30.000000
-1.064530 -2.356456 0.525598 6.571429
1.288664 -2.352818 0.517124 2.000000
2.278132 -2.298902 0.507283 28.000000
2.339484 -2.302217 0.573441 22.000000
3.643470 -2.391260 0.527781 78.666664
3.793149 -2.380118 0.542311 195.714279
3.950666 -2.385415 0.599864 7.750000
-1.879896 -2.213780 0.503706 200.500000
-1.638662 -2.244234 0.516875 128.156860
-16.597527 -2.105597 0.561734 0.500000
-1.933938 -2.187457 0.510107 0.000000
1.467705 -2.196576 0.557581 255.000000
1.843573 -2.182547 0.517411 251.928574
2.116616 -2.173157 0.508917 255.000000
-7.780229 -2.078892 0.550706 2.000000
-7.278877 -2.080311 0.517686 21.000000
-7.129534 -1.997364 0.506315 17.000000
-8.182765 -1.899674 0.574448 1.000000
-7.086563 -1.953295 0.502676 38.000000
-6.523259 -1.990624 0.585660 21.333334
-5.071729 -1.923987 0.599075 4.600000
-4.843079 -1.971523 0.540745 4.650000
-4.850806 -1.896128 0.538585 1.000000
-16.517010 -1.779735 0.557774 0.000000
-7.183756 -1.787117 0.506224 4.000000
-6.542679 -1.759226 0.581781 11.000000
-5.579483 -1.773115 0.502727 23.333334
-16.484753 -1.645400 0.556231 0.000000
-7.230293 -1.606891 0.506497 10.000000
-6.764234 -1.615212 0.597181 9.000000
-16.466433 -1.565257 0.555358 1.000000
-6.649074 -1.466764 0.584690 63.000000
-6.081295 -1.311490 0.534212 37.000000
-5.709429 -1.382311 0.504438 8.000000
-5.091059 -1.368907 0.545168 10.000000
-4.942348 -1.388557 0.530885 11.857142
-6.801564 -1.222571 0.593417 30.000000
-8.534451 -1.122068 0.588639 1.000000
-6.814278 -1.100054 0.592732 37.666668
-6.760378 -1.046649 0.587452 50.428570
-7.499295 -0.926160 0.516730 5.000000
-7.297949 -0.912889 0.502949 39.000000
-6.802332 -0.937886 0.589652 44.666664
-5.651365 -0.942673 0.592485 161.000000
-16.311026 -0.880532 0.548446 2.500000
-8.462132 -0.883414 0.581816 10.500000
-7.585401 -0.884299 0.522234 4.333333
-6.634281 -0.872243 0.574594 3.000000
-6.360283 -0.815899 0.550639 8.000000
-5.243167 -0.798626 0.548460 6.000000
-16.296272 -0.777058 0.547774 2.500000
-8.469810 -0.763359 0.581543 4.000000
-8.372773 -0.728105 0.574721 3.000000
-6.844337 -0.725407 0.591021 0.000000
-6.668464 -0.791625 0.576648 16.000000
-6.532352 -0.754665 0.564670 4.000000
-5.325542 -0.617431 0.554426 8.500000
-5.128284 -0.674242 0.534882 0.000000
-4.979176 -0.678533 0.519659 5.000000
-4.789477 -0.634805 0.585088 10.666667
-16.251913 -0.595933 0.546029 2.000000
-6.326317 -0.502116 0.544958 10.000000
-16.241964 -0.493411 0.545582 3.000000
-8.422384 -0.484139 0.576904 15.333333
-5.330816 -0.482998 0.553535 5.000000
-16.235289 -0.340083 0.545224 0.000000
-8.412611 -0.359930 0.575813 8.000000
-6.561101 -0.322174 0.564100 5.666667
-6.409401 -0.375175 0.551323 14.000000
-6.977234 -0.123005 0.599235 63.000000
-6.565019 -0.190063 0.563985 12.600000
-5.625317 -0.169741 0.581993 33.000000
-5.564122 -0.170927 0.575684 43.833332
-6.884398 -0.056505 0.591192 100.000000
-6.504052 -0.012486 0.558510 24.000000
-5.702143 -0.034225 0.589687 29.600000
-16.138897 0.016900 0.541868 2.000000
-6.304679 0.037395 0.541399 19.000000
-6.248649 0.066528 0.536608 14.000000
-6.188634 0.085336 0.531474 14.000000
-5.625081 0.095240 0.581787 7.500000
-16.130424 0.118220 0.541600 3.000000
-7.609310 0.109677 0.520415 29.600000
-7.493784 0.103333 0.512501 10.000000
-5.787118 0.152551 0.598657 11.000000
-16.100628 0.269793 0.540660 5.000000
-6.118300 0.296023 0.525999 64.000000
-5.935360 0.244461 0.510110 31.285715
-6.822171 0.416068 0.586914 97.000000
-6.211366 0.411503 0.534554 44.666668
-5.952549 0.428763 0.512481 13.250000
-8.222157 0.553320 0.563532 6.000000
-5.869322 0.541412 0.506150 28.444445
-8.106894 0.699283 0.556437 1.000000
-7.961902 0.661581 0.546340 32.000000
-6.099495 0.680909 0.527025 9.500000
-6.676930 0.787904 0.577332 66.000000
-8.187901 0.874922 0.563123 1.500000
-6.248976 0.837122 0.541399 62.000000
-5.887029 0.864071 0.510941 1.000000
-6.769423 0.971871 0.587257 62.000000
-6.362511 0.984959 0.552863 8.500000
-16.026199 1.025133 0.539184 1.000000
-6.501451 1.037872 0.565354 40.000000
-6.296257 1.029263 0.502940 40.000000
-6.137957 1.049381 0.534725 38.500000
-6.265313 1.142006 0.546874 38.333332
-6.103221 1.186903 0.533912 31.750000
-5.817223 1.231261 0.510598 15.666667
-8.137266 1.351494 0.564078 9.000000
-5.937080 1.354320 0.522919 41.000000
-5.800393 1.354059 0.511488 27.200001
-5.695503 1.327324 0.502214 38.000000
-5.760602 1.467374 0.510484 20.666666
-5.697738 1.585491 0.507861 30.250000
-6.251751 1.818498 0.559097 51.285713
-6.020127 1.818730 0.540030 63.000000
-6.300681 1.968469 0.566837 33.333332
-7.031613 2.196836 0.503768 65.000000
-6.617234 2.113101 0.596497 79.000000
-7.624579 2.277335 0.544157 7.000000
-7.583714 2.343201 0.542792 4.000000
-7.802769 2.478232 0.559848 7.000000
-7.649035 2.522284 0.550774 5.500000
-7.544664 2.566942 0.544975 24.000000
-7.764483 2.614546 0.560257 29.000000
-6.226376 2.645516 0.580926 10.500000
-7.857874 2.784163 0.570082 3.000000
-6.041489 2.753896 0.570145 4.750000
-7.850574 2.921162 0.572811 3.000000
-7.828135 3.025338 0.573902 0.000000
-7.787436 3.080089 0.572674 8.000000
5.499088 4.991517 0.507861 48.000000
5.581829 4.939981 0.509733 50.857143
5.727921 4.911035 0.515957 40.000000
5.829693 4.935199 0.522325 8.000000
5.451621 5.074948 0.509343 47.571430
5.425735 5.212295 0.514502 48.333332
5.448421 5.311297 0.520324 8.000000
-6.696239 8.286789 0.542887 16.000000
-6.622803 8.284371 0.540444 23.000000
-6.952807 8.355378 0.553879 22.750000
-6.725001 8.304689 0.544515 23.000000
-6.589524 8.349872 0.542005 24.000000
-6.658115 8.546570 0.552047 1.000000
-7.764701 8.742502 0.595811 6.000000
-6.670970 8.703220 0.558764 11.500000
-7.711759 8.832747 0.597481 40.000000
-7.589673 8.830009 0.593301 34.000000
-6.662180 8.820312 0.563242 28.750000
-6.584659 8.875877 0.563141 19.500000
-6.463325 8.842411 0.558103 24.750000
-7.354681 8.966494 0.590926 27.000000
-5.695979 8.954759 0.540783 10.666667
-5.479217 9.057976 0.539426 13.500000
-6.586724 9.186687 0.575999 18.333334
-6.210228 9.158687 0.563853 18.000000
-5.617705 9.188845 0.548790 5.000000
-6.552382 9.240612 0.577220 35.000000
-6.421336 9.280363 0.575049 63.250000
-6.235780 9.216910 0.567042 14.000000
-6.584976 9.390357 0.584412 1.000000
-6.216779 9.573022 0.581630 29.333334
-5.613114 9.582646 0.565889 20.000000
-5.574950 9.586420 0.565074 12.000000
-6.058457 9.771286 0.585837 5.000000
-5.977461 9.708632 0.580952 49.000000
-5.223311 9.741623 0.563242 0.500000
-10.155538 11.044068 0.503748 3.000000
-9.801732 11.427802 0.505493 10.000000
-9.851358 11.558943 0.509923 6.000000
-9.750403 11.513568 0.506567 2.000000
-9.209735 12.704064 0.526835 0.000000
-7.290019 13.049335 0.501869 8.500000
-7.034328 13.490120 0.510818 11.000000
-6.262332 13.678114 0.505091 11.000000
-5.824755 13.735593 0.500930 1.000000
-6.714115 14.544009 0.537842 3.000000
-6.116202 14.549864 0.529922 1.000000
-7.512893 14.783130 0.556768 1.000000
-6.849790 14.961232 0.552472 1.000000
-7.781410 15.431340 0.580257 2.000000
-4.841027 15.750484 0.553244 2.750000
-5.080169 15.860898 0.559184 4.000000
-4.957697 15.820024 0.556633 5.000000
-5.064120 15.983490 0.562942 4.000000
-4.805553 16.038086 0.562137 1.000000
-5.927394 16.276524 0.581599 8.500000
-4.861877 16.413416 0.574754 1.000000
-4.774795 16.597073 0.579854 0.500000
-4.644217 16.634045 0.579854 0.000000
-5.958943 16.855576 0.600257 14.000000
-6.762866 30.404852 0.505623 3.000000
-5.567268 -20.020639 0.697704 24.000000
-3.988234 -19.309292 0.662000 13.500000
-4.128843 -19.226587 0.660255 23.000000
-4.060977 -19.204266 0.659047 34.000000
-6.507153 -19.136524 0.678644 18.000000
-6.255412 -18.782568 0.664685 16.000000
-5.195801 -18.459915 0.643880 0.000000
-5.073084 -18.355083 0.639383 11.500000
-4.982862 -18.365307 0.638914 6.000000
-4.496025 -18.387644 0.635558 18.000000
-4.357279 -18.318298 0.632202 38.000000
-6.464201 -18.254337 0.650189 16.000000
-4.656306 -18.294088 0.633813 3.000000
-3.983980 -18.272181 0.627907 3.000000
-5.282546 -18.182835 0.635737 26.333334
-4.525957 -18.139330 0.627706 19.000000
-4.291693 -18.126970 0.625446 31.333334
-4.140402 -18.034370 0.621263 35.500000
-4.013892 -18.001514 0.619249 19.500000
-5.486054 -17.966497 0.630726 16.000000
-5.379898 -17.819078 0.624954 32.000000
-5.253122 -17.802683 0.623209 44.000000
-3.343521 -17.805527 0.608277 255.000000
-5.976482 -17.758755 0.629115 36.000000
-3.470217 -17.786425 0.608444 10.000000
-3.237128 -17.777496 0.606699 255.000000
-3.116417 -17.746229 0.604954 255.000000
-2.965036 -17.699228 0.602538 255.000000
-2.710277 -17.711739 0.601599 7.000000
-5.543719 -17.657763 0.621397 17.500000
-5.019392 -17.620712 0.615156 52.000000
-2.831482 -17.685429 0.601357 208.399994
-5.419800 -17.551918 0.616766 2.000000
-6.316130 -17.400686 0.621531 2.500000
-5.219837 -17.487295 0.612740 30.000000
-5.016040 -17.401266 0.608042 2.000000
-6.394621 -17.361368 0.621196 2.000000
-4.883858 -17.351627 0.605223 3.000000
7.698624 -17.389315 0.638511 57.000000
7.740178 -17.335838 0.637437 61.000000
7.842868 -17.273458 0.636945 64.333336
7.898763 -17.110170 0.632739 70.000000
6.986041 -16.915880 0.614484 36.000000
7.879938 -16.929424 0.626967 56.000000
7.030142 -16.797943 0.611397 63.000000
7.951899 -16.807264 0.624283 66.333336
8.250435 -16.818781 0.628981 39.000000
7.112848 -16.700102 0.609451 63.000000
7.343467 -16.728886 0.613411 44.000000
8.088936 -16.755104 0.624686 72.000000
7.225612 -16.673409 0.610122 67.000000
-5.465958 -12.276740 0.684766 17.000000
-6.247978 -11.996965 0.689244 7.500000
-6.363826 -11.809028 0.683545 3.000000
-6.114513 -11.877153 0.680695 1.000000
-6.409770 -11.717361 0.680559 20.666666
-6.536828 -11.686693 0.682323 9.000000
-6.522521 -11.575611 0.677031 6.000000
-6.810439 -10.204107 0.625124 1.000000
-7.985673 -9.946384 0.649958 2.000000
-8.354221 -9.823102 0.657082 3.500000
-8.190786 -9.389276 0.634894 5.000000
-8.653834 -9.196078 0.643444 2.000000
-8.460189 -8.933899 0.626956 19.000000
-7.805909 -8.863382 0.601816 24.000000
-3.118689 -8.802022 0.638579 3.000000
-3.509149 -8.711863 0.642263 6.500000
-3.458107 -8.742978 0.642945 17.000000
-3.161743 -8.731466 0.635031 32.000000
-8.226402 -8.632538 0.607618 11.000000
-5.148717 -8.619941 0.686609 70.000000
-5.078863 -8.563992 0.680878 19.000000
-4.196082 -8.505064 0.648540 18.000000
-3.493655 -8.556670 0.632029 28.000000
-3.331267 -8.539852 0.626844 14.000000
-3.151949 -8.525430 0.621568 37.666668
-4.161279 -8.490170 0.646584 27.666666
-4.017477 -8.407688 0.637214 7.000000
-5.174280 -8.361544 0.672418 26.000000
-5.048230 -8.391707 0.669689 23.000000
-3.462598 -8.349336 0.618112 33.000000
-3.241124 -8.386491 0.614837 8.000000
-3.161606 -8.355984 0.610948 19.750000
-5.046095 -8.270093 0.662503 24.666666
-5.051839 -8.043339 0.649529 22.000000
-3.552750 -8.043768 0.601328 24.000000
-3.420547 -8.085753 0.600373 35.000000
-5.987229 -7.699247 0.666960 2.000000
-4.944345 -7.716376 0.626708 16.500000
-5.342161 -7.683501 0.639943 54.000000
-5.137640 -7.694812 0.632712 12.000000
-5.942518 -7.592409 0.659319 19.000000
-5.171638 -7.549020 0.625753 21.400000
-6.556637 -7.418752 0.677057 27.000000
-6.398012 -7.322233 0.664941 23.200001
-6.288763 -7.345005 0.661229 18.000000
-6.677022 -7.251013 0.674056 37.000000
-5.802488 -7.236189 0.634281 14.750000
-5.064206 -7.235123 0.603921 2.000000
-7.015687 -7.042677 0.679786 4.000000
-6.348680 -7.070820 0.649836 52.000000
-5.236052 -7.078670 0.602102 31.333334
-6.625073 -6.949724 0.656590 19.000000
-6.333494 -6.943358 0.642672 43.000000
-5.473454 -6.925593 0.603648 22.000000
-6.775130 -6.872791 0.659956 27.000000
-3.969861 -6.717982 0.670075 5.500000
-7.713583 -6.655837 0.696706 3.000000
-7.286809 -6.614229 0.672964 3.000000
-6.674358 -6.616367 0.642672 10.000000
-6.541713 -6.691851 0.639943 3.000000
-3.972411 -6.603538 0.661747 33.666668
-7.692040 -6.595207 0.692885 22.000000
-7.536389 -6.586002 0.684426 25.000000
-4.003090 -6.537541 0.658268 33.000000
-6.725717 -6.420501 0.635850 6.000000
-6.292644 -6.477650 0.617566 3.000000
-6.157890 -6.419145 0.608287 2.000000
-6.719648 -6.354450 0.632439 11.000000
16.897932 -6.344783 0.606028 86.000000
16.914032 -6.290273 0.605894 3.000000
-7.250002 -6.157217 0.650450 29.000000
-3.998946 -6.113358 0.627297 14.000000
-3.984702 -6.060565 0.622848 16.500000
-3.690963 -5.964530 0.602315 27.000000
-6.558066 -5.841022 0.600555 7.666667
-5.815317 -5.568974 0.620722 3.500000
-5.207517 -5.497179 0.650226 14.000000
-5.033855 -5.536011 0.642526 6.000000
-4.984330 -5.551219 0.640644 3.000000
-5.451206 -5.403843 0.659124 7.000000
-5.357672 -5.446286 0.656044 10.000000
-5.242664 -5.476538 0.651024 26.000000
-7.800653 -5.198411 0.641035 27.500000
-7.911327 -5.182895 0.646766 16.666666
-8.143056 -5.011602 0.653861 0.000000
-7.850471 -4.977144 0.635645 19.250000
11.858508 -4.709486 0.650161 1.000000
-7.802957 -4.601796 0.619476 33.000000
12.029032 -4.646429 0.657082 8.333333
-6.682406 -4.498941 0.621134 51.500000
12.078212 -4.520683 0.657150 12.333333
12.123946 -4.508856 0.659118 12.000000
-6.635714 -4.437223 0.685475 38.500000
12.065720 -4.401105 0.654436 13.000000
-6.446103 -4.369262 0.668706 2.000000
-6.340170 -4.326594 0.659124 6.000000
7.946499 -4.332558 0.618930 8.500000
12.167163 -4.373170 0.658812 16.500000
12.321306 -4.363204 0.666039 12.000000
12.496391 -4.358955 0.674385 11.500000
12.667905 -4.352020 0.682527 92.000000
12.772286 -4.343066 0.687412 159.000000
12.895666 -4.339871 0.693315 88.000000
13.030521 -4.339729 0.699829 187.000000
-8.189733 -4.257858 0.631211 2.000000
-6.415593 -4.217557 0.659295 16.500000
7.909256 -4.209286 0.612693 20.714285
-6.366771 -4.128314 0.651595 15.000000
-8.043001 -4.053978 0.615928 8.000000
-7.957504 -4.010911 0.609379 18.000000
-6.332498 -4.063830 0.646119 8.000000
7.902997 -4.038949 0.606923 35.000000
7.947888 -4.061732 0.610380 15.333333
8.136461 -4.014186 0.620431 11.500000
8.254862 -4.008300 0.627527 14.500000
8.416425 -4.005292 0.637396 26.000000
8.586254 -4.003787 0.647857 26.000000
8.721878 -4.000496 0.656181 18.500000
8.833317 -4.001395 0.663140 22.000000
9.017695 -3.999797 0.674601 15.500000
9.172510 -3.999682 0.684289 13.500000
9.288380 -3.998286 0.691521 14.000000
-7.006279 -3.927167 0.618872 37.500000
-6.909600 -3.930026 0.682600 52.400002
-6.502285 -3.955032 0.653534 22.666666
-6.317942 -3.952578 0.639959 4.333333
8.893167 -3.994882 0.666687 29.000000
9.359622 -3.994148 0.695887 11.000000
-6.354052 -3.806764 0.636058 31.000000
-6.743621 -3.724216 0.661519 11.000000
-6.508497 -3.783476 0.646461 15.000000
-6.325667 -3.717170 0.630035 35.000000
-6.711123 -3.618162 0.654713 25.666666
-7.009817 -3.588649 0.676235 15.000000
-6.725750 -3.514620 0.651652 28.833334
-5.732368 -3.590349 0.699461 22.000000
-7.352822 -3.440838 0.636236 30.142857
-6.897277 -3.422337 0.661177 7.000000
-7.014599 -3.317284 0.666310 43.000000
-6.748170 -3.354912 0.647146 21.750000
-6.637315 -3.371671 0.639275 44.000000
-6.858700 -3.151784 0.648173 17.500000
2.372613 -3.162055 0.632261 4.928571
-6.815432 -3.093052 0.642697 21.000000
2.367188 -3.027682 0.632843 6.400000
-6.719274 -2.986039 0.631404 59.250000
-6.744377 -2.896228 0.630291 63.250000
-3.346937 -2.823365 0.647139 3.375000
-6.476348 -2.709152 0.602828 59.000000
-3.360044 -2.719235 0.638847 10.388889
-7.710720 -2.602436 0.698822 2.000000
-7.645580 -2.620650 0.694031 6.500000
-6.817433 -2.646408 0.627981 20.500000
-3.365684 -2.569803 0.625868 9.722222
-3.518418 -2.435869 0.632468 206.100006
-3.409375 -2.453290 0.620796 154.888885
2.472488 -2.399974 0.626713 13.600000
2.587292 -2.415439 0.626439 12.000000
2.719265 -2.413817 0.615606 9.850000
2.878270 -2.410535 0.625974 208.222229
3.025240 -2.403349 0.638057 255.000000
3.177612 -2.400307 0.624065 198.388885
-7.147503 -2.312716 0.645093 24.000000
-1.062466 -2.368340 0.635017 8.133333
1.289276 -2.357999 0.628775 1.461538
3.333486 -2.396855 0.606808 255.000000
3.474958 -2.392519 0.623565 255.000000
3.627305 -2.389656 0.641962 198.571426
3.782499 -2.383574 0.638461 157.000000
4.085013 -2.383576 0.610879 10.636364
4.225253 -2.378266 0.634950 9.000000
4.327394 -2.380438 0.642085 5.333333
-7.482350 -2.274763 0.671558 18.000000
-6.276248 -2.217573 0.688352 23.500000
-6.097500 -2.197594 0.670249 23.000000
-6.007501 -2.229373 0.662637 0.500000
-2.003192 -2.201474 0.655960 27.500000
-1.919060 -2.212046 0.620741 247.082199
-1.768303 -2.211762 0.625436 255.000000
-1.611026 -2.223933 0.626629 218.360001
-1.536106 -2.263288 0.653603 47.090908
-1.265533 -2.215330 0.633776 63.666668
-1.171261 -2.225649 0.623941 255.000000
-1.073534 -2.272683 0.627664 47.827587
1.295707 -2.277476 0.622581 14.250000
1.379421 -2.209800 0.629546 253.075470
1.480833 -2.205243 0.607812 123.181816
1.760327 -2.245605 0.614578 14.064815
-6.426295 -2.140797 0.640565 11.250000
-6.292666 -2.173553 0.688455 17.500000
-5.982442 -2.188078 0.658728 15.000000
-2.011659 -2.183052 0.640484 1.250000
-1.983130 -2.189774 0.624197 128.250000
-1.271316 -2.188731 0.676471 3.000000
1.753988 -2.196396 0.645620 61.000000
1.826850 -2.180459 0.625364 250.916672
1.980227 -2.178187 0.621691 255.000000
2.128294 -2.176572 0.629191 255.000000
2.224429 -2.171455 0.637207 199.333328
-7.554871 -2.031389 0.671786 4.000000
-7.322576 -2.049384 0.652964 12.750000
-7.518844 -1.996395 0.668022 1.000000
-7.013945 -1.909592 0.624217 43.000000
-5.931952 -1.919400 0.644739 25.000000
-5.956321 -1.875745 0.645767 38.000000
-5.107877 -1.846863 0.657783 12.166667
-7.651602 -1.776361 0.674524 79.000000
-6.179396 -1.776563 0.664900 10.000000
-5.492936 -1.777400 0.622494 27.750000
-5.407857 -1.784344 0.639179 14.500000
-4.930245 -1.768198 0.634299 12.000000
-4.730192 -1.746000 0.684919 15.166667
-7.159878 -1.638514 0.630719 19.000000
-5.504289 -1.676542 0.696815 5.500000
-7.709440 -1.586729 0.675893 2.000000
-6.842312 -1.543236 0.602315 1.000000
-6.392622 -1.568994 0.622806 2.500000
-5.252777 -1.519112 0.662191 7.666667
-7.088064 -1.482064 0.621821 16.000000
-7.032510 -1.332622 0.614635 4.000000
-6.444019 -1.356480 0.664561 21.000000
-6.305009 -1.339019 0.666546 14.000000
-6.132434 -1.383128 0.650088 75.000000
-6.035764 -1.341414 0.639390 5.000000
-6.526712 -1.199476 0.627772 44.750000
-6.397928 -1.235450 0.661178 37.222221
-6.161322 -1.217705 0.649471 56.500000
-6.713536 -1.184829 0.644763 45.500000
-6.609385 -1.123826 0.693290 41.000000
-5.161749 -1.165257 0.640839 14.666667
-3.924016 -1.037710 0.628526 15.193750
-3.773231 -1.064873 0.684962 0.000000
-7.595609 -0.958261 0.657413 18.666666
-5.515083 -0.932734 0.620724 4.571429
-7.341210 -0.801401 0.634141 12.000000
-7.259351 -0.884905 0.627981 19.000000
-6.245975 -0.761019 0.650705 10.000000
-5.216213 -0.761146 0.638387 7.750000
-5.023431 -0.692590 0.614102 0.000000
-6.585676 -0.551858 0.683415 0.000000
-6.983580 -0.452831 0.600946 8.000000
-6.636353 -0.451121 0.658801 5.000000
-5.864470 -0.435804 0.608120 24.000000
-7.768278 -0.332377 0.667679 60.000000
-5.833302 -0.318462 0.629695 28.250000
-5.628410 -0.322237 0.642973 39.200001
-5.566628 -0.341643 0.635955 8.400000
-5.134646 -0.243931 0.622517 1.500000
-7.403152 -0.153783 0.635853 4.000000
-7.113074 -0.103049 0.610870 75.000000
-5.850648 -0.158313 0.605240 38.000000
-5.215134 -0.164363 0.631895 5.857143
-7.137492 -0.058550 0.612924 90.000000
-5.270254 -0.076322 0.638306 12.333333
-6.552273 0.100731 0.677655 17.000000
-5.507605 0.041335 0.667000 12.000000
-5.365303 0.031848 0.649768 4.333333
-5.021906 0.093810 0.697420 3.750000
-7.117652 0.142932 0.611326 29.500000
-5.953066 0.194363 0.615938 5.000000
-5.496878 0.143005 0.646125 21.000000
-7.131480 0.225501 0.612695 51.666668
-6.679972 0.228582 0.632467 87.000000
-5.501483 0.286613 0.667160 13.333333
-5.433076 0.274293 0.658825 6.000000
-6.593088 0.318995 0.682592 111.000000
-6.558768 0.389600 0.621710 128.500000
-6.431545 0.303173 0.620537 102.599998
-5.601092 0.394614 0.679984 87.000000
-5.554760 0.373815 0.674213 50.000000
-7.245781 0.441995 0.623361 51.500000
-6.648129 0.405453 0.688764 121.000000
-6.452177 0.454548 0.640463 34.750000
-6.292139 0.423437 0.652145 3.000000
-5.379064 0.446942 0.653672 9.428572
-7.053213 0.541478 0.607448 3.000000
-6.573853 0.594801 0.682592 11.000000
-6.485398 0.600490 0.673540 6.500000
-5.307127 0.525044 0.645841 3.000000
-5.257903 0.610308 0.641032 14.400000
-6.411335 0.719802 0.644542 31.799999
-6.268759 0.789662 0.653379 36.000000
-7.011955 0.805109 0.606079 30.000000
-6.314944 0.835870 0.658728 38.500000
-6.096615 0.875349 0.636921 85.333336
-6.602181 0.905560 0.630410 88.500000
-5.965728 0.923413 0.624269 8.750000
-5.674082 0.979065 0.697296 42.000000
-6.954385 1.015207 0.603512 46.500000
-5.955439 1.031111 0.625027 26.818182
-5.821342 1.089457 0.612440 7.000000
-5.543001 1.043353 0.683070 26.083334
-5.833129 1.175142 0.615343 36.222221
-5.704823 1.192390 0.602689 38.799999
-5.823117 1.280280 0.616555 14.000000
-5.542135 1.212340 0.687037 18.333334
-5.717101 1.351463 0.607503 2.500000
-5.517354 1.331693 0.687372 29.181818
-5.403723 1.331196 0.673973 18.500000
-7.280426 1.469432 0.637792 12.000000
-6.018158 1.452611 0.640213 112.000000
-5.758491 1.409093 0.613057 130.000000
-5.516146 1.468983 0.691312 18.666666
-7.345652 1.554667 0.644750 8.000000
-5.557585 1.565308 0.699220 0.000000
-6.378905 1.638973 0.681083 24.888889
-6.426208 1.772532 0.689362 31.909090
-7.158856 1.943617 0.636993 4.666667
-6.409452 1.904906 0.624564 34.428570
-7.215671 2.032312 0.643724 7.000000
-6.895530 2.249841 0.622848 31.333334
-6.994717 2.330902 0.633115 26.000000
-6.888276 2.367688 0.625472 7.333333
-7.176207 2.416455 0.650226 77.000000
-6.707780 2.424201 0.612467 11.666667
-6.666715 2.498668 0.611383 10.500000
-6.630023 2.543162 0.609775 26.600000
-12.483394 2.639765 0.650161 6.000000
-6.656362 2.620667 0.614292 6.000000
-7.553169 3.058126 0.655370 25.511110
5.713176 4.898415 0.646233 50.666668
5.503524 4.995544 0.638248 44.000000
5.578606 4.937145 0.639715 54.714287
5.824006 4.919891 0.654675 26.666666
5.459333 5.066129 0.639560 56.166668
5.439971 5.222466 0.647564 45.555557
-18.972782 8.447228 0.697302 32.000000
-18.730982 8.410175 0.689382 47.000000
-18.705669 8.504972 0.689919 59.500000
-18.679350 8.670689 0.691440 59.333332
-18.652288 8.800973 0.692470 3.000000
-7.628680 8.979712 0.600392 8.500000
-8.743992 9.257885 0.648889 33.500000
-8.749852 9.396213 0.654232 20.000000
-9.033772 9.430245 0.665428 13.000000
-8.721708 9.454955 0.655454 31.500000
-7.687376 9.432373 0.620035 40.000000
-8.801036 9.631609 0.664817 81.000000
-8.703396 9.605212 0.660475 39.333332
-8.675202 9.675461 0.662171 37.000000
-8.728981 9.828230 0.669804 32.000000
-8.336242 9.843684 0.657286 30.000000
-7.201156 9.868014 0.622477 2.000000
-6.576829 9.898918 0.605582 28.000000
-8.765699 9.963744 0.676217 19.000000
-8.507214 9.918335 0.665835 16.000000
-7.706776 9.924816 0.640289 40.500000
-7.071223 10.083759 0.627566 49.000000
-6.812238 10.183687 0.624309 10.000000
-6.721714 10.186277 0.621867 16.000000
-7.061028 10.205194 0.632350 37.500000
-6.494335 10.257157 0.618610 29.000000
-5.855774 10.291288 0.603343 10.000000
-7.326342 10.378059 0.647311 5.000000
-6.801359 10.377744 0.632248 57.000000
-7.728534 10.452142 0.662375 3.000000
-6.640346 10.415233 0.629398 48.000000
-8.140900 10.586457 0.680491 29.000000
-6.798211 10.589296 0.641205 10.000000
-8.146407 10.662769 0.683748 0.000000
-6.627719 10.652142 0.639271 22.000000
-5.719897 10.667558 0.616778 11.000000
-5.234929 10.685825 0.606329 21.000000
-6.744885 10.727301 0.645683 20.000000
-5.969726 10.785011 0.628126 66.250000
-6.070386 10.826155 0.632452 0.000000
-14.405211 10.981776 0.608176 0.000000
-6.422744 10.912392 0.645208 19.000000
-5.849623 10.992286 0.634487 68.000000
-5.627003 10.944175 0.627058 41.500000
-5.554524 10.929646 0.624717 38.000000
-4.998877 10.918489 0.611893 24.000000
-4.969502 10.945053 0.612503 24.000000
-14.380153 11.034283 0.608579 0.000000
-5.975539 11.060756 0.640594 78.000000
-6.605825 11.116637 0.658914 64.000000
-5.824492 11.134226 0.640289 40.500000
-5.652252 11.238329 0.641001 32.000000
-5.623566 11.328595 0.644462 29.000000
-5.500862 11.348742 0.642630 15.000000
-5.441718 11.347675 0.641273 19.000000
-6.497855 11.419720 0.669499 25.000000
-4.959946 11.445290 0.635607 13.500000
-5.456874 11.533689 0.650161 12.000000
-5.223754 11.601709 0.648329 4.000000
-5.061193 11.529716 0.641612 18.000000
-6.976379 11.628948 0.691008 41.666668
-6.274896 11.702627 0.676624 20.000000
-5.173059 11.635316 0.648838 14.500000
-6.765225 11.717709 0.689448 15.000000
-6.595952 11.763468 0.687209 38.000000
-6.815784 11.891404 0.698404 12.000000
-4.389028 11.993577 0.650772 5.000000
-5.930353 12.041459 0.683952 18.000000
-5.007376 12.017629 0.663392 0.000000
-5.113224 12.163874 0.672349 4.000000
-5.255534 12.285769 0.680898 14.000000
-5.249666 12.379453 0.685173 13.000000
-4.599164 12.386560 0.673265 7.500000
-5.743083 12.440576 0.698201 16.000000
-5.534029 12.500026 0.696572 0.000000
-4.700417 12.478794 0.679473 4.000000
-14.483074 12.594366 0.644417 1.000000
-5.583042 12.504467 0.697794 2.000000
-5.044184 12.662612 0.694537 1.000000
-4.939394 12.629854 0.691025 8.750000
-15.251278 12.765644 0.667772 3.500000
-14.395618 12.718295 0.644954 3.000000
-14.151517 12.762182 0.639820 8.250000
-15.200140 12.845119 0.668175 4.000000
-15.101851 12.843595 0.665624 5.000000
-14.966883 12.850737 0.662336 17.000000
-14.497573 12.808331 0.649517 6.000000
-14.064642 12.865324 0.639987 13.000000
-14.018723 12.986042 0.641598 1.500000
-14.155954 13.237642 0.650725 2.000000
-14.143414 13.309443 0.652068 14.000000
-14.179052 13.469560 0.656631 13.000000
-13.946692 13.501045 0.651732 3.000000
-14.089478 13.511330 0.655423 15.000000
-13.884350 13.610874 0.652806 1.500000
-13.866660 13.765425 0.656027 2.000000
-13.839102 13.911800 0.658846 2.000000
-13.808838 14.056955 0.661598 2.000000
-13.775929 14.185963 0.663924 2.000000
-13.786457 14.346283 0.668040 0.000000
-6.534120 16.746197 0.603545 8.750000
-6.520059 16.985327 0.610860 5.000000
-6.076121 16.932690 0.604015 8.000000
-5.858953 16.996368 0.603612 4.000000
-5.933359 17.038280 0.605760 9.000000
-6.546233 17.214983 0.618377 13.000000
-5.596666 17.286341 0.610055 5.000000
-6.531579 17.340216 0.622135 6.000000
-6.464497 17.326937 0.620927 4.000000
-5.856937 17.343426 0.614619 5.000000
-5.699957 17.326199 0.612404 2.000000
-6.392594 17.468578 0.624551 3.000000
-6.797995 17.709377 0.636900 3.000000
-5.040428 18.386879 0.640122 0.500000
-6.928260 18.749636 0.671128 3.000000
-6.382599 18.705942 0.663611 2.000000
-6.395565 19.338394 0.683879 6.000000
-5.282296 20.134907 0.698912 0.000000
-4.587869 -23.128061 0.791662 3.000000
-5.988091 -22.632029 0.786025 34.000000
-6.033297 -22.516567 0.782669 35.000000
-6.846323 -21.927090 0.771260 8.000000
-5.349117 -21.582472 0.746562 8.000000
6.230034 -21.528034 0.752468 46.000000
6.274041 -21.427788 0.749650 65.000000
6.918112 -21.482807 0.757770 58.500000
7.055373 -21.446537 0.758039 56.500000
7.461068 -21.425272 0.761730 60.000000
6.364638 -21.363483 0.748442 66.000000
7.120287 -21.305006 0.754213 53.000000
7.362453 -21.357897 0.758509 55.000000
6.488876 -21.290556 0.747301 65.000000
6.629636 -21.272270 0.748106 61.500000
6.734050 -21.254154 0.748576 57.000000
7.204532 -21.223869 0.752535 52.000000
-5.170191 -21.144819 0.730858 8.000000
-5.322901 -20.913063 0.724549 11.000000
-5.003443 -20.745123 0.716496 8.000000
-5.505767 -20.677460 0.718442 4.000000
-5.364266 -20.534960 0.712603 27.000000
-5.218868 -20.238150 0.701731 29.000000
-6.787723 -19.961636 0.707905 2.000000
-6.974228 -19.893005 0.707771 3.000000
-6.873685 -19.805292 0.703879 0.000000
-6.546734 -19.865253 0.702268 22.000000
-5.739456 -14.320662 0.786137 5.000000
7.611973 -13.676016 0.797537 37.000000
7.547032 -13.361243 0.781931 55.333332
8.140783 -13.175823 0.789191 27.000000
-5.792551 -13.010279 0.725681 3.000000
7.529574 -13.089206 0.769446 59.000000
-5.716155 -12.948012 0.721203 9.000000
7.542219 -12.922593 0.762423 55.000000
7.577494 -12.797594 0.757843 54.500000
7.611078 -12.717184 0.755197 52.000000
7.778520 -12.723280 0.759879 50.000000
7.672991 -12.684572 0.755400 55.500000
-6.098950 -12.465997 0.707157 5.500000
-8.113714 -12.239908 0.748276 0.000000
-7.136869 -12.213290 0.720796 1.000000
-6.495530 -12.236917 0.705936 6.000000
-6.225799 -12.282347 0.701661 4.000000
-7.367883 -12.080012 0.720999 4.000000
-5.599904 -10.232676 0.797678 37.000000
-5.294492 -10.201032 0.785943 0.000000
-5.458897 -10.163847 0.788945 28.500000
-5.773947 -10.094131 0.795222 4.000000
-5.309915 -9.999125 0.774209 25.000000
-5.257154 -10.013430 0.773390 24.000000
-5.511100 -9.921590 0.776119 10.666667
-5.341058 -9.832915 0.765203 41.000000
-5.759143 -9.177304 0.740915 2.000000
-6.051247 -9.001813 0.741734 18.000000
-6.168423 -8.931627 0.742280 2.000000
-6.537589 -8.799664 0.749648 3.000000
-7.157795 -8.413355 0.755379 2.000000
-5.874296 -8.392481 0.700527 26.000000
-6.497285 -8.247688 0.717992 2.000000
-7.697305 -8.176754 0.767932 0.000000
-7.046222 -8.151537 0.736822 10.000000
-8.196181 -8.074073 0.786762 3.000000
-7.566792 -7.937590 0.749921 17.000000
-3.581630 -7.906662 0.745364 11.000000
-3.591549 -7.862745 0.742284 28.000000
-8.104605 -7.712557 0.765067 5.500000
-7.967777 -7.702458 0.757835 4.000000
-7.355194 -7.764318 0.731364 21.000000
-3.819063 -7.710340 0.738862 31.000000
-3.744130 -7.741776 0.738463 18.000000
-5.261048 -7.617784 0.794987 31.000000
-3.549838 -7.633251 0.722892 23.666666
-5.444602 -7.549187 0.799265 1.500000
-5.178474 -7.548829 0.786089 16.000000
-7.724290 -7.420279 0.732455 29.000000
-7.371162 -7.353171 0.711988 9.000000
-5.672652 -7.108552 0.780956 10.000000
-5.472579 -7.083244 0.768636 15.000000
-5.602620 -6.975729 0.768293 11.000000
-7.803341 -6.862647 0.710624 10.000000
-5.564378 -6.883707 0.760080 0.000000
-5.717984 -6.657135 0.753578 12.500000
-5.415313 -6.635100 0.735440 17.000000
-5.655290 -6.521743 0.741258 27.000000
-5.549673 -6.523149 0.735440 9.000000
-6.501598 -6.404736 0.783693 6.000000
-6.351618 -6.436424 0.776507 4.000000
-6.721941 -6.323270 0.792477 23.666666
-6.581730 -6.362566 0.786089 52.000000
-6.215355 -6.358003 0.763502 27.000000
-6.109266 -6.288880 0.752893 15.000000
-5.509440 -6.273471 0.716960 4.000000
-6.852472 -6.141898 0.790196 72.000000
-6.310324 -6.138665 0.755973 71.000000
-4.267224 -6.158038 0.774756 29.500000
-4.188054 -6.125589 0.767350 16.000000
-3.725849 -6.149680 0.743569 18.700001
-3.575194 -6.171533 0.737572 17.750000
-4.035704 -6.064919 0.753361 25.000000
-3.833368 -6.076335 0.742972 16.250000
-3.997720 -5.946995 0.741018 24.000000
-6.604427 -5.845159 0.757342 20.000000
-3.882125 -5.846197 0.725712 21.600000
-6.469965 -5.762503 0.743995 33.000000
-4.163391 -5.710069 0.730795 21.307692
-6.612882 -5.694061 0.749357 21.333334
-6.589048 -5.613669 0.743311 32.000000
-4.275982 -5.680605 0.735257 7.000000
-4.479142 -5.303365 0.717859 23.571428
-7.834925 -4.924372 0.794645 31.000000
-7.993495 -4.646726 0.793960 1.000000
-5.074113 -4.649378 0.772493 6.000000
-5.197252 -4.513127 0.711805 0.000000
-8.020377 -4.396486 0.785405 0.000000
7.951600 -4.335335 0.777704 8.000000
13.142737 -4.331282 0.705122 76.000000
13.281614 -4.330840 0.711839 105.000000
13.424417 -4.330795 0.718760 53.000000
13.559739 -4.327465 0.725274 103.000000
13.691362 -4.322124 0.731584 11.000000
13.845963 -4.323144 0.739116 12.000000
13.996888 -4.322055 0.746444 13.000000
14.151762 -4.321228 0.753975 13.000000
14.299119 -4.317159 0.761100 12.000000
14.438933 -4.309921 0.767817 11.000000
14.601830 -4.308632 0.775756 12.000000
14.749519 -4.301886 0.782880 14.000000
14.908825 -4.297575 0.790616 12.000000
7.914741 -4.212210 0.769907 16.571428
15.075933 -4.294492 0.798758 8.000000
-7.815872 -4.094728 0.757684 3.000000
-6.593105 -4.029187 0.799032 0.000000
7.902006 -4.054119 0.762647 28.000000
7.936443 -4.071732 0.765983 14.000000
8.103183 -4.013566 0.776507 13.333333
8.272485 -4.016850 0.789682 15.000000
9.481328 -3.993313 0.703528 21.000000
9.635286 -3.987079 0.713080 16.000000
9.772190 -3.989947 0.721812 8.000000
9.858664 -3.989164 0.727270 8.000000
-7.804062 -3.872272 0.748102 46.000000
-7.716811 -3.778776 0.737835 32.666668
-7.573982 -3.698986 0.723804 46.000000
-5.758398 -3.657222 0.705427 4.500000
-6.778385 -3.497086 0.788746 20.000000
-6.896633 -3.422017 0.796152 44.000000
-6.946128 -3.324987 0.796357 14.500000
-5.044552 -3.350189 0.733363 6.750000
-4.988318 -3.312975 0.725188 15.000000
-8.066996 -3.182556 0.744680 28.000000
-7.705459 -3.152386 0.714906 8.000000
-8.511381 -3.022347 0.775594 11.000000
-8.387136 -3.057730 0.766582 36.333332
-6.725132 -3.014035 0.762104 52.250000
2.369082 -3.072707 0.768289 6.857143
-8.019133 -2.961596 0.734071 49.000000
-7.829966 -2.960279 0.718823 45.000000
-6.745002 -2.908977 0.759615 69.599998
-6.083846 -2.985426 0.748716 55.200001
-3.344698 -2.830494 0.765505 1.000000
-6.547670 -2.751041 0.734435 36.000000
-3.360045 -2.718768 0.794194 10.777778
-6.825453 -2.631002 0.756447 36.500000
-4.961020 -2.642825 0.780488 11.250000
-4.830329 -2.661565 0.765773 2.250000
-3.363825 -2.567911 0.777616 10.555555
-3.528054 -2.442082 0.788377 4.900000
-3.407820 -2.451674 0.771375 10.611111
2.482707 -2.398360 0.728573 17.000000
2.585118 -2.423661 0.782693 15.052631
2.733333 -2.420182 0.774175 17.850000
2.880186 -2.417066 0.757253 12.764706
3.034627 -2.415274 0.783168 12.375000
3.182616 -2.409262 0.774659 11.000000
3.330547 -2.403119 0.754592 12.428572
3.476540 -2.402139 0.776381 12.000000
3.627177 -2.406490 0.799860 101.500000
4.372432 -2.402661 0.781984 18.500000
4.539662 -2.441732 0.774411 19.818182
-5.247232 -2.370224 0.799468 2.750000
-5.026690 -2.376068 0.772007 9.333333
-4.920547 -2.394913 0.784048 19.625000
-1.609132 -2.391935 0.770455 8.000000
1.295232 -2.338755 0.714512 3.333333
1.844840 -2.350255 0.779654 3.333333
3.782823 -2.391208 0.754946 12.333333
3.930490 -2.390476 0.762417 11.333333
4.091458 -2.396471 0.781195 74.333336
4.213758 -2.389214 0.791818 102.000000
-5.234544 -2.295661 0.793646 10.000000
-2.020508 -2.213514 0.744074 33.000000
-1.915798 -2.210692 0.752951 255.000000
-1.777422 -2.211681 0.737737 255.000000
-1.614047 -2.213636 0.732242 255.000000
-1.539430 -2.250078 0.728627 33.750000
1.466778 -2.220956 0.711354 195.125000
1.777027 -2.239725 0.737035 13.500000
2.260292 -2.231642 0.788272 193.750000
-8.704854 -2.107512 0.769092 13.000000
-8.481332 -2.109918 0.750498 2.000000
-6.587918 -2.120155 0.715714 5.500000
-6.412811 -2.159855 0.795474 19.200001
-5.076190 -2.108377 0.763228 14.250000
-1.985971 -2.196364 0.763220 255.000000
1.837161 -2.180749 0.739953 250.136368
1.979335 -2.178320 0.757619 255.000000
2.132946 -2.177832 0.759301 255.000000
2.212709 -2.164576 0.710987 255.000000
-6.634732 -2.032242 0.717565 4.000000
-8.672256 -1.970297 0.763673 12.000000
-8.456745 -1.991298 0.746049 28.000000
-7.156589 -1.960816 0.767350 15.500000
-6.281528 -1.945659 0.796360 10.000000
-8.672884 -1.827681 0.761107 2.500000
-5.918755 -1.894608 0.752599 43.000000
-5.863297 -1.851220 0.771557 22.500000
-5.051432 -1.800824 0.776767 5.777778
-6.329675 -1.723295 0.794437 4.000000
-5.424716 -1.754228 0.791628 95.000000
-5.202099 -1.727421 0.761097 3.500000
-5.133985 -1.749699 0.753120 2.750000
-4.750005 -1.761675 0.703471 10.500000
-7.185539 -1.644346 0.762276 3.666667
-7.047267 -1.612744 0.747601 33.000000
-6.706741 -1.645999 0.714136 0.666667
-5.384768 -1.629859 0.781176 15.000000
-7.225396 -1.581996 0.764882 2.000000
-6.723293 -1.583124 0.714274 20.000000
-5.698484 -1.532235 0.714608 14.000000
-5.363706 -1.499923 0.773337 2.000000
-5.191819 -1.506617 0.782688 15.666667
-5.894020 -1.407416 0.733844 20.000000
-6.401514 -1.351586 0.792333 21.750000
-6.428877 -1.238802 0.792898 38.400002
-6.735514 -1.172535 0.767275 50.500000
-6.483674 -1.144413 0.797322 62.000000
-6.215179 -1.177742 0.766064 53.000000
-6.110069 -1.177719 0.753561 60.000000
-8.492624 -1.053496 0.734869 5.333333
-6.811431 -1.041167 0.753086 20.000000
-6.732985 -1.061269 0.788223 60.076923
-3.861280 -1.024208 0.776662 213.121216
-3.743512 -1.081573 0.784277 198.714279
-8.487211 -0.915760 0.733044 10.600000
-6.843145 -0.951639 0.760411 32.375000
-5.533201 -0.909991 0.778609 119.666664
-4.018837 -0.941791 0.756276 255.000000
-3.923372 -0.987828 0.761567 255.000000
-4.159588 -0.860156 0.775032 109.008766
-8.479488 -0.750794 0.730991 11.000000
-6.221351 -0.748459 0.758851 5.000000
-5.274790 -0.764338 0.787808 100.250000
-5.076670 -0.720819 0.742842 0.333333
-4.919835 -0.740542 0.779816 0.000000
-6.904807 -0.687976 0.717565 3.000000
-5.040299 -0.645769 0.781096 19.500000
-4.928749 -0.678568 0.779816 11.000000
-8.458341 -0.495109 0.727569 8.000000
-6.781519 -0.439729 0.702753 6.000000
-8.369096 -0.366883 0.719355 7.333333
-6.768730 -0.310918 0.700696 3.000000
-8.382745 -0.200478 0.720040 13.000000
-5.113488 -0.121399 0.710210 0.000000
-7.396543 -0.014199 0.764882 18.000000
-7.292863 -0.059825 0.754184 2.000000
-5.092038 -0.064967 0.752481 9.000000
-7.129973 0.008710 0.737315 1.000000
-7.067842 0.186311 0.731143 13.000000
-6.809841 0.158105 0.704399 7.000000
-5.129028 0.180619 0.712617 2.125000
-7.117425 0.254827 0.736492 21.000000
-5.201519 0.295377 0.760868 22.200001
-6.830464 0.351991 0.707279 95.000000
-5.352506 0.338646 0.744685 32.333332
-5.106822 0.394930 0.756901 32.375000
-5.081835 0.318835 0.798088 31.000000
