# This PCD file was generated using the MATLAB® pcwrite function
# from Computer Vision Toolbox®.
# .PCD v.7 - Point Cloud Data file format
VERSION .7
FIELDS x y z intensity
SIZE 4 4 4 4
TYPE F F F F
COUNT 1 1 1 1
WIDTH 1241
HEIGHT 1
VIEWPOINT 0 0 0 1 0 0 0
POINTS 1241
DATA ascii
-4.456317 2.718582 -0.096405 34.636364
-4.349408 2.777315 -0.095305 28.500000
16.598904 2.718174 -0.018788 0.000000
-7.516468 2.876273 -0.008990 1.000000
-7.200757 2.794470 -0.008628 3.500000
-5.909689 2.856855 -0.007332 27.000000
-5.803638 2.873379 -0.007234 4.000000
-4.269959 2.843219 -0.094739 31.857143
-7.158827 2.921463 -0.008637 39.000000
-6.095364 2.923027 -0.007551 38.000000
-4.611729 2.892933 -0.006081 5.000000
-4.477350 2.961130 -0.005996 6.666667
-6.849268 3.075309 -0.008387 26.000000
-6.736449 3.033283 -0.008252 34.000000
-5.907157 3.041081 -0.007421 17.000000
-5.683290 3.062694 -0.007211 22.000000
-4.444653 3.017174 -0.006001 13.500000
-7.870073 3.125521 -0.009459 33.000000
-7.556473 3.111466 -0.009128 6.000000
-7.392764 3.180767 -0.008990 16.000000
-4.208481 3.115170 -0.005849 10.000000
-4.149686 3.152098 -0.096237 38.000000
-8.227313 3.222720 -0.009870 18.000000
-7.971603 3.194870 -0.009593 41.000000
-7.404749 3.213532 -0.009017 16.000000
-7.133009 3.202707 -0.008734 21.799999
-7.028178 3.280252 -0.008664 22.000000
-6.411816 3.275447 -0.008042 17.000000
-6.115793 3.246351 -0.007734 32.000000
-5.820369 3.207660 -0.007424 18.500000
-5.665044 3.210299 -0.007273 25.333334
-5.554318 3.263216 -0.007196 35.250000
-4.637955 3.212697 -0.006302 5.000000
-6.954942 3.294994 -0.008597 18.000000
-6.710471 3.313444 -0.008360 6.666667
-6.558907 3.350567 -0.008227 8.666667
-6.362706 3.300930 -0.008007 5.000000
-5.563739 3.321921 -0.007238 13.000000
-6.253489 3.420848 -0.007962 14.000000
-5.652687 3.399161 -0.007368 7.000000
-5.612730 3.570198 -0.007430 3.000000
-5.571172 3.568396 -0.007390 28.000000
-7.413930 3.758046 -0.009285 2.000000
-7.290591 3.753291 -0.009159 4.000000
-6.891585 3.699935 -0.008737 4.000000
-5.788517 3.733304 -0.007694 24.000000
-4.666486 3.758702 -0.006693 0.500000
-4.458802 3.756043 -0.006512 8.000000
-7.055139 3.830629 -0.008967 11.000000
-5.719387 3.856273 -0.007705 12.500000
-4.870396 3.810649 -0.006908 79.000000
-6.297676 3.968909 -0.008315 18.333334
-5.801044 3.924527 -0.007824 5.500000
-4.373275 3.900505 -0.006546 10.500000
-7.619409 4.013859 -0.009620 2.000000
-5.732185 4.010737 -0.007815 14.000000
-4.883437 4.074506 -0.007104 83.000000
-6.232654 4.084777 -0.008324 21.000000
-6.153366 4.120858 -0.008273 13.000000
-5.676431 4.119792 -0.007835 24.750000
7.876940 4.160069 -0.009950 21.000000
7.997518 4.175632 -0.010078 18.500000
8.084844 4.162179 -0.010157 12.666667
-6.989587 4.203086 -0.009110 0.000000
-6.898798 4.267440 -0.009061 8.000000
-6.739367 4.198149 -0.008869 9.000000
-5.664481 4.220613 -0.007891 19.500000
-4.735316 4.263699 -0.007118 15.000000
7.671885 4.254356 -0.009799 94.666664
7.835372 4.201223 -0.009931 108.333336
9.461716 4.278077 -0.011599 55.000000
9.588519 4.233000 -0.011708 113.333336
-5.621326 4.369786 -0.007953 1.000000
15.731904 4.321417 -0.018224 37.000000
-5.809718 4.400234 -0.008141 1.000000
-5.539053 4.390326 -0.007895 19.500000
-5.396748 4.445572 -0.007810 30.000000
-4.856219 4.428123 -0.007341 53.000000
7.638252 4.409976 -0.009852 28.200001
9.446750 4.397098 -0.011639 18.666666
15.696465 4.409128 -0.018212 38.000000
-5.764845 4.569161 -0.008217 11.000000
-5.644670 4.561379 -0.008107 19.333334
-5.587122 4.573008 -0.008065 24.000000
-5.419707 4.493141 -0.007864 40.000000
-4.759349 4.578346 -0.007377 1.500000
7.599019 4.547919 -0.009892 13.000000
7.639384 4.550403 -0.009932 25.333334
15.693332 4.541553 -0.018249 33.333332
7.599174 4.678701 -0.009968 17.000000
15.690441 4.674555 -0.018288 24.500000
-6.900589 4.763943 -0.009367 12.333333
-4.986816 4.722397 -0.007672 66.000000
-4.840504 4.730253 -0.007560 32.000000
7.645842 4.707595 -0.010030 25.750000
-7.832605 4.879159 -0.010308 0.000000
-7.627642 4.851862 -0.010098 2.000000
-5.637091 4.840181 -0.008299 19.000000
-5.517753 4.874714 -0.008224 21.333334
-4.884744 4.854377 -0.007692 28.333334
-4.716217 4.846648 -0.007554 4.000000
7.625004 4.844726 -0.010091 20.000000
9.514759 4.847980 -0.011928 8.333333
9.604031 4.842933 -0.012015 6.000000
-5.669806 4.946089 -0.008404 29.000000
-5.416775 4.887702 -0.008150 29.000000
-5.235166 4.905676 -0.008014 41.666668
7.640067 4.972945 -0.010183 15.333333
-5.489880 5.006384 -0.008299 7.000000
-5.084900 5.047729 -0.008003 30.000000
-4.721796 5.023071 -0.007701 2.000000
-4.555480 5.070040 -0.007614 36.333332
-4.493457 5.075314 -0.007572 43.333332
-5.503560 5.130419 -0.008404 17.000000
-4.714620 5.137990 -0.007789 4.666667
-4.689539 5.132102 -0.007765 0.000000
-4.480343 5.157758 -0.007631 31.000000
-4.370730 5.177820 -0.007569 10.500000
-5.380476 5.224979 -0.008378 28.000000
-4.365894 5.255011 -0.007631 28.000000
-5.511624 5.302234 -0.008543 34.500000
-4.598938 5.361885 -0.007891 15.000000
-7.905106 5.531103 -0.010777 3.000000
-4.723058 5.595016 -0.008179 5.000000
-7.578237 5.702323 -0.010594 1.000000
-5.569623 5.759459 -0.008949 8.000000
-4.734364 5.772051 -0.008339 2.333333
-5.612475 5.840381 -0.009048 36.000000
2.263324 5.790385 -0.006945 203.909088
3.685565 5.814283 -0.007690 13.000000
3.785195 5.828731 -0.007763 29.500000
3.923326 5.858150 -0.007876 140.333328
4.053154 5.851255 -0.007951 255.000000
4.107043 5.830743 -0.007967 1.000000
-4.759980 5.973392 -0.008532 1.000000
2.109505 5.898105 -0.006997 11.000000
3.677775 5.904196 -0.007770 23.000000
-4.730533 6.060982 -0.008588 21.857143
3.681675 6.057930 -0.007918 20.250000
-7.152484 6.160801 -0.010545 5.000000
2.160397 6.100772 -0.007229 17.000000
-7.655850 6.226177 -0.011023 13.000000
-7.338547 6.201555 -0.010732 2.000000
-5.933890 6.213801 -0.009597 13.000000
-4.764532 6.216047 -0.008748 7.500000
3.676266 6.201544 -0.008053 19.666666
-6.806052 6.284842 -0.010348 4.000000
-3.825932 6.324849 -0.008257 19.500000
-3.726633 6.361857 -0.008236 233.285721
-3.616977 6.380034 -0.008192 133.000000
3.671672 6.352139 -0.008196 19.000000
-4.771742 6.411121 -0.008927 4.000000
-4.566043 6.482634 -0.008857 11.333333
2.143336 6.401972 -0.007541 43.500000
2.230423 6.394140 -0.007564 27.500000
-4.787320 6.517303 -0.009033 4.666667
-4.419571 6.577002 -0.008851 36.333332
-3.618222 6.500895 -0.008311 9.333333
2.095884 6.531975 -0.007663 8.000000
3.667291 6.508564 -0.008345 19.000000
-4.766423 6.662581 -0.009151 2.000000
-4.561041 6.591895 -0.008954 15.000000
-3.619899 6.650644 -0.008458 7.000000
3.655325 6.657465 -0.008484 14.250000
-3.623518 6.757830 -0.008565 2.000000
-4.795284 6.838207 -0.009329 5.000000
-4.782733 6.958916 -0.009432 9.000000
-4.790546 7.064975 -0.009535 4.000000
-7.323694 7.156884 -0.011438 4.000000
-6.974149 7.166667 -0.011170 24.000000
-6.606304 7.184305 -0.010902 28.000000
-4.820745 7.280657 -0.009754 3.000000
-8.948682 7.324413 -0.012917 1.000000
-7.318274 7.287683 -0.011536 15.000000
-5.908055 7.295844 -0.010486 7.000000
-7.344725 7.453200 -0.011688 10.000000
-6.988245 7.457324 -0.011416 48.500000
-6.478962 7.411294 -0.010996 7.000000
-6.280336 7.392363 -0.010835 62.500000
-6.026976 7.395070 -0.010656 98.000000
-4.867547 7.555847 -0.010040 5.000000
-4.846244 7.680908 -0.010145 5.500000
-7.309082 7.685953 -0.011848 26.333334
-7.040909 7.778642 -0.011720 23.000000
-4.900703 7.686642 -0.010183 15.000000
-7.253694 7.838762 -0.011930 44.000000
-7.128747 7.801504 -0.011805 41.000000
-6.415470 7.821450 -0.011300 51.000000
-4.851436 7.852143 -0.010310 5.000000
-6.936707 8.036256 -0.011858 14.000000
-6.710557 8.000212 -0.011664 28.500000
-6.643730 8.048032 -0.011657 23.000000
-6.139805 7.984226 -0.011251 6.000000
-5.507335 8.067402 -0.010911 13.000000
-6.167845 8.179065 -0.011443 18.000000
-4.216243 8.156256 -0.010256 23.000000
-5.970278 8.262749 -0.011387 15.000000
-6.682492 8.305406 -0.011907 12.000000
-5.962646 8.559985 -0.011653 11.000000
-6.846620 8.619729 -0.012296 100.000000
-7.003548 8.760640 -0.012528 96.000000
-7.102293 9.418221 -0.013176 2.000000
-7.161410 9.558931 -0.013342 5.000000
-5.917787 9.748378 -0.012738 1.000000
-6.988757 9.801540 -0.013447 30.500000
-6.446209 9.835844 -0.013136 11.000000
-6.855779 9.975216 -0.013520 3.000000
-6.761258 9.904205 -0.013395 0.000000
-6.443641 9.899629 -0.013194 8.000000
-6.385290 10.155388 -0.013400 24.000000
-6.483499 10.240043 -0.013538 21.000000
-6.981536 10.296192 -0.013896 20.000000
-6.575845 10.314064 -0.013663 3.000000
-6.703300 10.441458 -0.013860 21.000000
-5.621463 10.483979 -0.013288 7.000000
-5.686209 10.685207 -0.013520 25.000000
-5.697447 10.787907 -0.013628 22.000000
5.638270 14.068190 -0.016929 23.000000
5.700436 14.094906 -0.016983 13.000000
-6.860347 17.460583 -0.020955 19.000000
-7.143333 17.530441 -0.021145 18.000000
-7.027882 17.561966 -0.021129 18.500000
-6.782302 17.503941 -0.020969 15.000000
-6.256818 17.876648 -0.021156 14.500000
-7.448749 17.956291 -0.021715 12.000000
-6.357065 17.892218 -0.021210 13.000000
-6.915066 18.014357 -0.021554 9.000000
-6.932363 18.230412 -0.021786 16.000000
-7.974885 18.376097 -0.022376 17.666666
-6.927230 18.390600 -0.021951 6.000000
-7.872217 18.563797 -0.022523 17.000000
-7.832463 18.632687 -0.022577 7.000000
-6.923950 18.648033 -0.022220 9.000000
-6.353899 18.621830 -0.021978 8.000000
-6.238036 18.665178 -0.021983 2.000000
-5.841160 18.639448 -0.021819 16.666666
-8.204556 18.690493 -0.022800 11.000000
-5.747083 18.751030 -0.021907 17.000000
-4.910723 18.718554 -0.021616 13.000000
-5.709360 18.946417 -0.022103 19.000000
-6.951547 18.995985 -0.022595 8.000000
-5.676897 19.164875 -0.022327 19.000000
-4.934108 19.175327 -0.022117 20.000000
-5.634640 19.244040 -0.022398 20.000000
-5.133730 19.199459 -0.022199 10.500000
-6.401676 19.356874 -0.022774 41.000000
-5.586390 19.303909 -0.022447 7.000000
-6.998227 19.502377 -0.023144 4.000000
-6.400542 19.559370 -0.022988 10.000000
-6.360012 19.644073 -0.023064 17.000000
-5.601612 19.586727 -0.022756 11.000000
-7.361594 19.731447 -0.023524 7.000000
-6.745285 19.768894 -0.023332 2.000000
-7.479942 19.857954 -0.023703 7.000000
-7.244344 19.796093 -0.023547 11.000000
-7.052097 19.848413 -0.023529 4.000000
-6.699787 19.839252 -0.023390 3.000000
-5.591171 19.785143 -0.022966 4.000000
-7.593468 19.968956 -0.023864 4.000000
-6.872533 19.936687 -0.023556 10.000000
17.768963 20.154963 -0.030013 61.333332
17.863010 20.091326 -0.030030 3.000000
-7.105178 20.198753 -0.023917 2.000000
-7.033798 20.198309 -0.023891 7.000000
-5.103284 20.362194 -0.023448 18.000000
-5.220005 20.419323 -0.023542 6.000000
-5.016835 20.424885 -0.023493 25.000000
-4.962998 20.483307 -0.023542 23.000000
-4.757964 20.478521 -0.023484 24.000000
-4.909784 20.545483 -0.023596 3.000000
-4.773347 20.544651 -0.023560 21.000000
-7.404881 20.635622 -0.024489 13.000000
-5.758110 20.623224 -0.023917 7.000000
-4.614425 20.593306 -0.023573 9.500000
-4.523377 20.642187 -0.023605 6.000000
-5.704985 20.683630 -0.023967 31.000000
-5.894721 21.112511 -0.024485 6.000000
-5.709362 21.086704 -0.024402 18.500000
-7.187394 21.283142 -0.025093 4.000000
-5.563877 22.052940 -0.025405 4.000000
-5.221410 25.756056 -0.029355 1.000000
-5.142810 25.784103 -0.029368 2.000000
-6.613505 29.733349 -0.034024 2.000000
-5.975111 30.455381 -0.034668 1.000000
-6.298997 30.577930 -0.034873 4.000000
-5.894549 30.552555 -0.034757 2.000000
-6.458932 30.863377 -0.035222 1.000000
14.361049 32.255444 -0.039439 19.000000
14.465588 32.217468 -0.039448 1.000000
14.254798 32.289425 -0.039426 5.000000
14.129650 32.418530 -0.039502 5.000000
5.398024 33.852303 -0.038291 57.000000
5.504347 33.835178 -0.038291 53.000000
-5.291652 -3.155720 0.100014 25.500000
-4.708475 -3.022786 0.090828 3.000000
-5.373596 -2.936083 0.046070 14.500000
-4.779251 -2.954917 0.091217 8.000000
-5.188316 -2.838197 0.096000 19.000000
-5.077952 -2.797329 0.094113 12.000000
-4.878845 -2.806601 0.091369 3.833333
-5.102654 -2.650016 0.053309 23.000000
-5.270404 -2.513853 0.094788 31.000000
-5.076318 -2.514846 0.091964 7.500000
-5.670781 -2.348941 0.064107 76.666664
-5.178746 -2.338274 0.059482 26.333334
-5.523061 -2.166617 0.044815 18.833334
-5.402300 -2.152076 0.094399 27.000000
-5.441039 -2.092377 0.094632 21.000000
-5.453126 -1.911810 0.093803 7.500000
-5.811026 -1.781064 0.098662 9.666667
-5.415779 -1.800540 0.092646 6.500000
-5.752602 -1.489844 0.070907 7.750000
-4.440753 -1.423335 0.005588 25.733334
-5.981440 -1.290692 0.046491 16.500000
-4.793005 -1.116338 0.079888 11.000000
-3.654526 -1.082524 0.061872 5.000000
-3.705897 -0.990181 0.035653 22.750000
-4.299892 -0.819976 0.045453 10.666667
-4.234701 -0.830816 0.070052 0.000000
-4.180312 -0.752158 0.068949 27.000000
-4.008099 -0.687557 0.066014 23.600000
-3.919289 -0.633388 0.064447 30.333334
-4.453730 -0.551767 0.012150 14.777778
-3.914596 -0.603213 0.064296 40.666668
-4.339995 -0.473685 0.055560 36.733334
-4.229652 -0.502858 0.069143 7.000000
-4.156007 -0.444499 0.031519 26.750000
-4.047977 -0.397621 0.066027 8.000000
-5.073691 -0.167778 0.082407 29.650000
-5.161788 -0.043223 0.083794 10.000000
-3.728545 -0.054578 0.060533 15.000000
-5.207303 -0.010905 0.084530 12.000000
-4.191913 0.086702 0.013566 10.000000
-3.936461 0.120007 0.063933 14.250000
-5.573596 0.251152 0.090568 29.750000
-5.712079 0.311401 0.092862 107.333336
-5.574149 0.381213 0.090698 11.800000
-5.804916 0.407956 0.094464 170.000000
-5.795043 0.572293 0.094528 81.000000
-5.564883 0.510628 0.090717 22.400000
-5.480075 0.630353 0.089546 29.250000
-5.334938 0.725763 0.087401 32.928574
-5.249114 0.783419 0.086153 21.166666
-5.106850 0.839005 0.084011 20.000000
-4.935468 0.841582 0.081275 36.857143
-4.250484 0.841950 0.064036 19.666668
-3.836318 0.817513 0.009559 29.400000
-5.144204 0.928376 0.084855 42.500000
-5.397738 1.009197 0.089140 17.000000
-5.462724 1.173102 0.090698 27.000000
-5.353505 1.167252 0.088945 17.000000
-5.026409 1.145662 0.083686 25.000000
-4.979707 1.140483 0.082929 25.333334
-4.715395 1.105986 0.078622 26.000000
-4.491966 1.098324 0.044904 27.687500
-5.363451 1.210697 0.025593 18.666666
-4.747433 1.252974 0.045781 25.600000
-4.593316 1.215323 0.077129 28.000000
-4.513646 1.378236 0.076610 22.000000
-5.211642 1.399606 0.025522 51.000000
-5.101128 1.431712 0.034729 36.444443
-4.875506 1.438638 0.082518 37.000000
-4.787883 1.422640 0.029310 45.000000
-4.643922 1.412574 0.078795 62.666668
-5.475419 1.559668 0.092418 23.500000
-5.335038 1.519725 0.090049 48.000000
-5.061934 1.603102 0.060159 39.142857
-5.454410 1.703104 0.059446 28.500000
-5.068724 1.694068 0.071395 28.750000
-5.163167 1.810140 0.088815 1.000000
-5.088782 1.844270 0.056359 14.333333
-4.901576 1.836371 0.064824 32.444443
-4.831012 1.838268 0.066004 37.799999
-4.188141 1.944085 0.074954 1.000000
-5.086973 2.014199 0.057265 56.333332
-4.863658 2.014790 0.085461 33.666668
-4.771109 2.052753 0.084314 46.333332
-4.050399 2.005183 0.041763 4.600000
-3.925037 2.040181 0.043164 12.125000
-5.332312 2.176076 0.093490 61.000000
-5.068846 2.096425 0.089042 25.000000
-4.791082 2.120285 0.085050 27.142857
-5.332786 2.577970 0.096152 13.000000
-4.467948 2.722971 0.004248 22.222221
-4.385872 2.758535 0.084108 23.875000
-5.031815 2.975781 0.094896 18.000000
-4.879653 2.913476 0.092256 39.000000
-4.613401 3.030371 0.025800 19.000000
-4.350622 3.105541 0.031167 25.000000
-4.514060 3.190284 0.042052 1.000000
-5.037896 3.429278 0.098931 26.619047
-4.647416 3.387285 0.064989 14.714286
-4.983110 3.509992 0.098943 14.000000
-4.736881 3.541061 0.061443 25.000000
-4.652953 3.541301 0.044267 18.937500
-4.657905 3.636799 0.044355 8.166667
-4.826343 3.800685 0.099722 2.000000
-4.721729 3.939728 0.084647 18.714285
-4.644372 3.982110 0.070487 26.181818
-4.462468 3.934172 0.028027 6.666667
-4.488003 4.041018 0.098034 63.000000
-4.600903 4.107761 0.082231 30.333334
2.146030 5.798331 0.019870 212.000000
-5.709715 -10.675402 0.196523 16.000000
-5.541965 -10.682404 0.195355 16.000000
-5.310986 -10.642883 0.193082 12.000000
-5.268651 -10.641595 0.192758 21.000000
-5.593641 -10.537851 0.193667 3.000000
-4.785796 -10.198050 0.182868 32.000000
-7.109092 -10.025681 0.199510 1.000000
-6.388619 -10.113611 0.194186 14.000000
-6.738123 -9.826056 0.193407 0.000000
-6.092828 -9.746811 0.186590 14.500000
-4.643852 -9.762335 0.175488 16.000000
-4.931616 -9.653718 0.175975 7.500000
-5.022623 -9.570700 0.175455 28.000000
-4.912524 -9.616464 0.175293 8.000000
-5.851182 -9.459093 0.180552 0.000000
-5.116375 -9.423194 0.174060 0.000000
-4.573530 -9.498905 0.171138 2.500000
-5.091861 -9.239018 0.171246 15.000000
-5.326097 -9.213974 0.172761 4.000000
-5.212687 -9.149941 0.170943 14.500000
-5.169517 -9.174416 0.170943 6.000000
-5.349463 -9.105435 0.171430 14.750000
-5.453018 -8.877635 0.169125 69.000000
-7.949062 -8.772745 0.192173 0.000000
-8.012407 -8.649603 0.191394 4.000000
-7.971576 -8.687266 0.191394 7.000000
-5.474352 -8.666407 0.166399 5.000000
-5.358850 -8.663182 0.165360 13.000000
-5.285568 -8.665952 0.164776 10.000000
-3.420143 -8.638342 0.150817 18.666666
7.144232 -8.645220 0.182056 43.333336
-8.501515 -8.591012 0.196199 4.000000
-8.169770 -8.573111 0.192238 20.000000
-5.479164 -8.554365 0.164905 21.000000
-7.205779 -8.472752 0.180552 1.000000
-6.602453 -8.438602 0.173930 4.000000
-6.053607 -8.452425 0.168768 9.500000
7.135046 -8.506300 0.180227 60.500000
-8.063790 -8.408842 0.189122 23.000000
-6.667764 -8.412625 0.174254 10.000000
-6.082808 -8.409248 0.168476 4.000000
-6.846189 -8.231675 0.173800 5.500000
-6.717715 -8.233736 0.172501 17.500000
-6.632854 -8.261410 0.171982 3.000000
-5.991487 -8.228438 0.165230 0.000000
-5.787800 -8.216901 0.163153 3.000000
6.815823 -8.048326 0.171203 75.000000
-6.906789 -7.917401 0.170554 3.000000
7.421097 -7.969276 0.176770 61.500000
-7.579152 -7.853925 0.177176 20.000000
-5.094204 -7.844440 0.151834 32.666668
-3.829020 -7.826380 0.141436 24.500000
-3.768283 -7.858002 0.141468 14.333333
6.768091 -7.891026 0.168758 59.333332
7.468076 -7.869753 0.176116 69.000000
-7.446880 -7.814531 0.175228 1.000000
-3.849008 -7.774206 0.140819 3.000000
6.802732 -7.781673 0.167784 65.666664
7.531747 -7.788451 0.175877 65.666664
7.651636 -7.764568 0.176960 66.666664
7.772436 -7.772419 0.178431 39.333332
-7.439397 -7.660792 0.173345 37.000000
6.907072 -7.703450 0.167957 68.800003
7.044152 -7.684562 0.169223 59.500000
-4.209375 -7.525619 0.139975 17.000000
-3.849775 -7.594892 0.138222 4.000000
-7.039121 -7.464434 0.166550 80.000000
-4.891246 -7.429245 0.144390 31.000000
-4.234959 -7.515843 0.140040 10.000000
-3.758410 -7.502086 0.136209 11.500000
-6.853875 -7.329336 0.162893 29.000000
-4.025512 -7.377311 0.136426 17.000000
-5.306663 -7.256028 0.145926 24.000000
-4.903536 -7.247941 0.142052 66.000000
-7.002245 -7.120564 0.162114 65.000000
-5.309351 -7.196169 0.145169 42.000000
-5.120483 -7.125906 0.142442 8.000000
-4.858737 -7.133335 0.140105 61.000000
-4.720101 -7.120488 0.138676 16.000000
-5.223528 -7.095274 0.143026 26.333334
-4.689160 -7.025787 0.137118 38.000000
-8.969843 -6.987864 0.184577 12.000000
-7.054251 -6.995401 0.161270 0.000000
-6.761808 -6.919412 0.157050 22.000000
-5.485254 -6.920669 0.143351 27.000000
-5.379809 -6.965528 0.142870 40.000000
-5.256139 -6.962588 0.141614 28.750000
-4.758051 -6.976242 0.137079 22.799999
-5.399828 -6.901345 0.142247 48.500000
-4.840664 -6.876762 0.136514 25.299999
-4.179752 -6.852814 0.130301 7.666667
-5.860385 -6.717886 0.144714 21.000000
-8.749274 -6.684490 0.178734 4.000000
-8.693357 -6.685123 0.178020 1.000000
-6.122567 -6.714473 0.147506 0.000000
-5.339406 -6.678923 0.138806 30.666666
-8.211468 -6.522342 0.170229 1.000000
-8.181684 -6.456872 0.169190 7.000000
-5.671863 -6.501868 0.140061 22.000000
-8.887196 -6.232130 0.176202 1.000000
-8.136479 -6.135733 0.165425 2.000000
-5.271484 -6.159042 0.131600 62.000000
-7.902850 -5.920695 0.160296 1.000000
-5.304023 -6.003547 0.130042 59.000000
-5.037049 -5.922700 0.126211 10.000000
-4.936475 -5.967192 0.125719 28.333334
-6.757320 -5.869909 0.145299 10.000000
-5.860201 -5.847939 0.134391 13.000000
-5.248448 -5.903164 0.128224 52.000000
-6.873169 -5.783644 0.145818 7.000000
-5.235084 -5.741155 0.126125 14.666667
-5.061778 -5.773122 0.124640 28.400000
-7.903518 -5.616697 0.157396 15.666667
-5.690267 -5.678451 0.130496 14.000000
-5.524659 -5.635638 0.128110 2.250000
-5.057961 -5.617435 0.122705 27.000000
-5.611957 -5.530279 0.127899 31.000000
-5.392971 -5.606083 0.126276 5.500000
-5.236699 -5.599975 0.124458 1.000000
-7.701800 -5.400873 0.152700 25.000000
-5.523804 -5.358644 0.124929 36.250000
-7.600584 -5.294356 0.150363 34.000000
-5.692353 -5.217796 0.125351 27.250000
-4.854106 -5.256662 0.116148 10.000000
-7.547845 -5.170133 0.148512 22.500000
-5.590442 -5.205880 0.124004 21.000000
-6.626312 -5.062536 0.135365 14.000000
-5.791097 -5.030576 0.124523 89.000000
-5.657620 -5.040557 0.123004 31.200001
-5.371448 -5.081191 0.120027 35.000000
-6.871742 -4.867277 0.136696 5.000000
-6.054516 -4.871438 0.126146 19.000000
-5.763807 -4.865730 0.122446 27.500000
-5.561655 -4.831265 0.119589 17.000000
-7.614696 -4.787808 0.146013 0.000000
-6.862185 -4.780008 0.135755 1.000000
-5.537255 -4.749357 0.118420 22.000000
-7.176541 -4.671192 0.139001 11.000000
-7.013519 -4.628047 0.136404 25.750000
-5.818503 -4.711730 0.121537 48.000000
7.183104 -4.616842 0.138611 52.000000
-6.861306 -4.589778 0.134002 3.000000
-5.533228 -4.567686 0.147502 26.500000
-5.424677 -4.535734 0.114785 46.000000
-6.475917 -4.480796 0.127834 109.000000
-5.649283 -4.448818 0.144676 21.888889
-5.376683 -4.452711 0.113324 47.500000
7.086988 -4.445763 0.135807 69.000000
-5.801160 -4.403319 0.118226 58.000000
-6.569802 -4.246945 0.126990 42.000000
-6.126075 -4.238466 0.184918 5.000000
-5.815279 -4.243686 0.116862 31.000000
7.130324 -4.272470 0.134937 76.300003
-8.053211 -4.204669 0.147473 3.500000
-5.671423 -4.145493 0.182485 29.750000
-5.576004 -4.154791 0.112880 33.000000
7.190712 -4.171731 0.134950 67.599998
-7.699081 -4.066134 0.141338 9.000000
-8.288251 -3.953292 0.149064 2.000000
-7.630439 -3.938362 0.139391 15.000000
-5.852297 -3.995256 0.189294 22.799999
7.195010 -4.009569 0.133710 72.000000
7.359371 -3.950916 0.135593 69.500000
-8.275323 -3.915262 0.148610 2.000000
-7.642774 -3.914373 0.139391 1.000000
-7.158766 -3.838496 0.131859 5.000000
-6.051494 -3.818341 0.177998 18.000000
7.421843 -3.880036 0.135950 60.000000
-6.517097 -3.789997 0.122381 10.000000
-5.984965 -3.798003 0.115066 20.000000
-5.792968 -3.783542 0.112317 6.500000
-5.631455 -3.784189 0.149332 20.666666
-7.902040 -3.617835 0.141079 0.000000
-7.407628 -3.633792 0.133937 0.500000
-6.957683 -3.632734 0.127412 14.000000
-6.563094 -3.693472 0.122251 59.000000
-6.265735 -3.617523 0.117446 53.000000
-6.128632 -3.641648 0.164978 23.400000
-5.957345 -3.642130 0.182439 30.285715
-5.836295 -3.618655 0.111473 39.000000
-7.479209 -3.596287 0.134716 14.000000
-7.381499 -3.577897 0.133158 4.000000
-7.232816 -3.590400 0.131080 0.000000
-6.732986 -3.583008 0.123809 24.000000
-5.787005 -3.566115 0.169155 32.000000
-6.239360 -3.430160 0.177517 19.166666
-6.156536 -3.509396 0.176809 26.750000
-7.226121 -3.335877 0.129198 30.000000
-7.024444 -3.323440 0.126146 12.000000
-7.717638 -3.272765 0.136079 30.000000
-6.759200 -3.159090 0.121115 83.500000
-6.190823 -3.129936 0.192848 25.000000
-7.251352 -3.101943 0.128029 53.000000
-7.438480 -2.963139 0.129977 2.000000
-6.099311 -2.980102 0.110197 25.666666
-7.254724 -2.916379 0.126925 3.000000
-5.152554 -2.741969 0.195969 32.000000
-6.820905 -2.642917 0.118745 16.000000
-6.257948 -2.628573 0.133591 23.600000
-5.050170 -2.646885 0.191439 24.000000
-7.619603 -2.599863 0.130691 32.000000
-6.811825 -2.565827 0.118161 13.000000
-6.138800 -2.580513 0.108097 35.000000
-5.937197 -2.584032 0.105111 45.000000
-5.838944 -2.574067 0.103585 32.500000
-5.748240 -2.566497 0.102189 21.000000
-5.682072 -2.605905 0.101475 17.799999
-5.332468 -2.571254 0.198768 16.150000
-7.561880 -2.514106 0.129360 40.500000
-7.471611 -2.462353 0.127704 19.333334
-6.723470 -2.487671 0.195399 68.272728
-6.504667 -2.473490 0.112967 46.000000
-7.584970 -2.350822 0.128905 18.500000
-7.489872 -2.359982 0.127477 22.000000
-7.350852 -2.329004 0.125172 15.000000
-6.711808 -2.367023 0.177373 42.625000
-5.091689 -2.341064 0.188162 9.166667
-7.344384 -2.200627 0.124458 34.000000
-7.126919 -2.159889 0.120887 21.000000
-6.883420 -2.038960 0.116537 63.000000
-7.667489 -2.011526 0.128678 3.000000
-7.594099 -1.903224 0.127088 6.500000
-6.564052 -1.832715 0.110629 2.000000
-6.565921 -1.811022 0.110565 2.000000
-5.934048 -1.737486 0.100372 2.000000
-6.452917 -1.628045 0.108033 2.000000
-5.723061 -1.665949 0.200130 25.500000
-7.121967 -1.584142 0.118437 14.000000
-7.091730 -1.530696 0.117771 11.000000
-6.570604 -1.613770 0.156615 26.799999
-5.667123 -1.429793 0.196238 1.000000
-5.530133 -1.464269 0.192077 39.181820
-6.459956 -1.383546 0.126231 37.500000
-6.774141 -1.306964 0.111993 27.666666
-6.240135 -1.285457 0.103423 75.000000
-6.836537 -1.156423 0.112556 10.666667
-6.370505 -1.146210 0.142397 23.666666
-3.625314 -1.148623 0.127687 11.428572
-7.612431 -1.038776 0.124718 9.000000
-7.488664 -1.057796 0.122770 36.000000
-7.206294 -1.018011 0.118144 28.000000
-7.001264 -0.966350 0.196124 30.666666
-7.484874 -0.901748 0.122381 35.500000
-7.266248 -0.910212 0.118875 64.000000
-4.264386 -0.820889 0.167299 11.000000
-7.712655 -0.769827 0.125822 13.000000
-7.682349 -0.791183 0.125367 10.000000
-6.626910 -0.766761 0.108292 4.000000
-7.980703 -0.695414 0.130042 32.000000
-7.317257 -0.660771 0.119264 71.000000
-7.219575 -0.674824 0.117706 11.000000
-4.273989 -0.713538 0.195787 11.000000
-4.092554 -0.709850 0.139460 1.000000
-3.945462 -0.640655 0.134206 27.000000
-7.779207 -0.554891 0.126601 42.000000
-7.159267 -0.548373 0.116559 69.000000
-7.018473 -0.537728 0.114265 42.000000
-6.948750 -0.605493 0.113226 0.000000
-4.311269 -0.542812 0.187862 12.444445
-4.161509 -0.553181 0.184724 25.799999
-3.944154 -0.601439 0.133957 36.500000
-8.603059 -0.450869 0.139845 9.000000
-7.609892 -0.446778 0.123744 37.000000
-7.162663 -0.420297 0.116473 69.666664
-6.793841 -0.484605 0.110565 5.000000
-4.106596 -0.435968 0.138655 0.000000
-8.073147 -0.397667 0.131210 19.000000
-6.792628 -0.377388 0.110435 66.000000
-6.635080 -0.326830 0.107838 14.000000
-5.199880 -0.379199 0.175052 25.833334
-5.111914 -0.364539 0.172077 38.857143
-4.038638 -0.407954 0.159970 10.000000
-3.939376 -0.380719 0.132883 9.000000
-7.733783 -0.283586 0.125627 59.000000
-7.212396 -0.309854 0.117187 82.000000
-6.833684 -0.272080 0.111019 64.000000
-6.520213 -0.300643 0.105955 19.000000
-5.254107 -0.242179 0.176596 34.666668
-5.125187 -0.284744 0.172346 46.666668
-7.911462 -0.153330 0.128451 6.000000
-6.733159 -0.162203 0.109331 1.000000
-5.333969 -0.168554 0.179182 32.566666
-8.266892 -0.017313 0.134197 1.000000
-3.542502 -0.051324 0.155602 18.650000
-8.346895 0.008740 0.135495 8.000000
-8.057363 0.058981 0.130799 30.666666
-6.662921 0.048851 0.108162 5.000000
-3.687856 0.021251 0.123823 14.000000
-3.547446 0.014792 0.169307 27.090910
-6.932114 0.116159 0.192875 34.000000
-6.887230 0.180175 0.183472 31.900000
-6.604866 0.172954 0.107253 51.000000
-4.166001 0.100278 0.164149 5.666667
-4.055223 0.151910 0.164226 5.600000
-3.915310 0.139462 0.131541 5.000000
-3.784680 0.170529 0.127201 12.666667
-6.849062 0.370481 0.185226 43.625000
-6.906263 0.452637 0.112350 39.000000
-5.898121 0.414506 0.198520 3.000000
-4.981314 0.446180 0.172644 37.988892
-7.056068 0.518164 0.114849 13.000000
-5.032269 0.486483 0.169751 25.666666
-5.616030 0.643837 0.189795 75.000000
-7.429156 0.710112 0.121147 9.000000
-6.959977 0.775767 0.113681 6.000000
-5.840285 0.688143 0.197446 38.000000
-5.383480 0.746065 0.182480 15.500000
-7.226592 0.805385 0.180955 9.000000
-5.799974 0.868882 0.196909 20.000000
-5.540238 0.874508 0.188318 9.500000
-5.204608 0.846691 0.177043 0.000000
-5.027032 0.854320 0.171205 19.500000
-4.633908 0.873912 0.199742 34.500000
-4.318988 0.849990 0.186571 12.000000
-4.235786 0.833336 0.182367 38.000000
-7.454259 0.937661 0.121959 4.000000
-7.388288 0.964815 0.120952 9.000000
-5.305717 0.966126 0.181070 55.000000
-5.186732 0.927633 0.176909 41.000000
-5.075885 0.954002 0.173419 32.000000
-5.179691 1.069797 0.177580 56.000000
-4.638591 1.065039 0.159795 40.750000
-5.421280 1.164202 0.186171 8.000000
-5.131567 1.085132 0.176104 31.000000
-4.762012 1.089532 0.164024 19.500000
-5.796435 1.273340 0.199258 14.500000
-5.024870 1.278954 0.174091 31.000000
-4.914309 1.193430 0.169795 6.500000
-4.748294 1.243502 0.164802 26.799999
-7.007533 1.321555 0.115758 4.000000
-6.967305 1.382092 0.115304 1.000000
-5.409199 1.340646 0.187110 8.000000
-5.203341 1.306989 0.180131 40.000000
-4.640555 1.333954 0.162125 32.178574
-4.752796 1.430504 0.166651 27.571428
-3.425651 1.642841 0.193595 14.020833
-7.923187 1.753629 0.131730 7.000000
-6.965035 1.718560 0.157823 10.666667
-5.571836 1.778199 0.196372 2.000000
-6.972500 1.827396 0.117008 5.250000
-5.482688 1.806858 0.193822 17.000000
-5.996688 2.018109 0.102709 2.000000
-4.118453 2.006924 0.153822 14.000000
-4.048025 1.996181 0.151541 3.000000
-6.893709 2.164338 0.179862 8.500000
-5.372567 2.133661 0.194090 3.000000
-5.433990 2.333021 0.198553 29.000000
-5.255406 2.339858 0.193151 27.000000
-5.078277 2.318664 0.187439 31.555555
-6.725820 2.405542 0.115953 9.000000
-5.220760 2.463385 0.193822 26.000000
-5.145195 2.407995 0.190734 20.000000
-7.345904 2.497887 0.125951 1.000000
-5.282454 2.580943 0.197401 20.666666
-7.577179 2.643086 0.130269 34.500000
-8.094516 2.780846 0.138936 3.000000
-5.748364 2.756624 0.103488 11.000000
-6.002590 2.855376 0.107903 11.000000
-4.419067 2.797922 0.175612 15.000000
-4.358671 2.830374 0.174493 22.666666
-4.221712 2.841812 0.170869 44.750000
-8.230062 2.914418 0.141728 14.000000
-5.773935 2.904058 0.104916 5.000000
-4.322572 2.884555 0.174493 9.500000
-5.643476 3.025928 0.140925 36.000000
-7.630033 3.155793 0.134034 3.000000
-6.741706 3.123046 0.120611 13.875000
-5.811977 3.108550 0.106994 31.666666
-4.322552 3.124246 0.179074 42.125000
-5.843096 3.215719 0.159017 38.562500
-4.995661 3.244221 0.199996 35.000000
-4.529928 3.190780 0.186037 26.000000
-7.121964 3.360457 0.127834 13.000000
-5.825137 3.327698 0.167226 23.125000
-5.237277 3.365934 0.155245 3.500000
-4.852601 3.350085 0.197983 38.000000
-4.776124 3.330558 0.195499 29.000000
-4.557920 3.373918 0.190399 24.000000
-6.665495 3.444738 0.121796 9.000000
-5.643440 3.442183 0.136321 10.500000
-5.567208 3.395555 0.105858 7.000000
-4.635733 3.476903 0.194560 25.000000
-6.841935 3.495171 0.124718 42.000000
-6.081876 3.494386 0.194935 45.666668
-5.784131 3.527877 0.109980 17.000000
-5.481111 3.510622 0.105663 41.750000
-5.218430 3.506640 0.102060 42.000000
-5.129854 3.565310 0.101410 45.000000
-6.248577 3.660270 0.117555 28.666666
-5.592816 3.607086 0.108033 20.000000
-8.280047 3.733353 0.147441 8.000000
-6.856182 3.750539 0.126860 3.000000
-8.125022 3.802579 0.145623 0.000000
-7.794642 3.798332 0.140754 32.000000
-7.556926 3.800738 0.137313 12.000000
-6.680624 3.854734 0.125205 23.250000
-5.858914 3.792044 0.113291 27.000000
-5.576510 3.875776 0.110240 16.000000
-4.939056 3.864369 0.101800 57.000000
-8.270717 3.934303 0.148675 1.000000
-7.912378 3.948418 0.143546 19.000000
-4.797177 3.926445 0.100631 1.000000
-4.342438 3.959634 0.197312 50.000000
-6.702982 4.045074 0.127088 6.500000
-5.987887 3.996443 0.116862 0.000000
-5.821125 4.141430 0.115969 9.500000
-5.665576 4.134378 0.113854 16.333334
-5.541921 4.115795 0.112058 31.000000
7.875908 4.159524 0.144584 16.000000
7.987596 4.170476 0.146272 17.500000
8.088522 4.164080 0.147679 14.333333
-7.986415 4.207195 0.146532 0.000000
-5.624038 4.259602 0.114525 0.000000
-5.423351 4.270822 0.112058 37.000000
-4.612509 4.240323 0.101707 25.857143
7.673215 4.255085 0.142431 78.000000
7.830824 4.198775 0.144238 120.333336
9.463201 4.278768 0.168590 46.500000
9.577506 4.228135 0.169948 141.666672
-5.512234 4.285072 0.153528 23.000000
-5.485403 4.398417 0.114135 21.400000
7.641391 4.411823 0.143234 23.400000
9.451556 4.399330 0.169234 15.333333
7.638578 4.555363 0.144373 25.750000
-8.331191 4.694386 0.155232 3.000000
-5.053111 4.747712 0.172350 24.250000
7.635493 4.701221 0.145558 24.799999
-5.799889 4.849573 0.122727 2.000000
-5.525548 4.796937 0.182637 26.250000
-5.124076 4.852379 0.196320 48.666668
7.633285 4.849992 0.146808 14.500000
9.552788 4.842113 0.173854 7.500000
-7.960904 4.889925 0.151661 2.000000
7.645779 4.976643 0.148090 12.000000
-5.321641 5.071272 0.119329 31.000000
-5.270319 5.069922 0.118712 39.500000
-5.134995 5.065548 0.117089 44.500000
-4.556728 4.986757 0.109656 1.000000
-4.467712 5.014421 0.109023 33.500000
-6.484992 5.139943 0.134327 3.000000
-5.248398 5.112692 0.118940 37.500000
-5.111501 5.122247 0.117468 41.333332
-4.452064 5.157715 0.110604 31.000000
-4.344115 5.225580 0.110311 25.600000
-5.233636 5.344557 0.121428 56.333332
-5.227515 5.457169 0.122673 41.250000
-5.240902 5.557622 0.124004 35.000000
-5.308196 5.664527 0.126016 3.000000
2.158020 5.795715 0.167409 219.125000
2.265390 5.786946 0.157118 215.956528
3.682593 5.802881 0.151222 14.333333
3.780279 5.843924 0.164634 44.857143
3.807671 5.809841 0.193115 13.000000
3.933887 5.854097 0.175650 152.000000
4.056474 5.847894 0.173582 240.000000
4.107625 5.831570 0.198247 3.666667
2.117639 5.891808 0.155987 10.750000
3.686178 5.905943 0.181957 20.142857
-4.734859 6.058127 0.124815 8.000000
3.688243 6.059512 0.167834 19.285715
-7.200273 6.143077 0.153641 4.500000
-4.754189 6.182366 0.126601 3.000000
2.168124 6.122592 0.105436 18.000000
-7.051095 6.190179 0.152310 5.000000
-4.464513 6.282176 0.125107 13.000000
3.683805 6.201637 0.188553 19.142857
-7.092763 6.306111 0.154063 15.000000
-6.764874 6.286311 0.149908 3.000000
-4.763962 6.359019 0.128981 2.666667
-4.462501 6.342368 0.125886 12.000000
-3.725256 6.359530 0.178251 241.166672
-3.621394 6.373765 0.195277 160.600006
2.229187 6.371437 0.179682 26.200001
3.678316 6.353710 0.173681 17.857143
-4.772860 6.476164 0.130593 3.500000
2.153021 6.397408 0.168088 29.299999
-3.615388 6.486164 0.171929 8.600000
2.099815 6.509294 0.170339 6.333333
3.675252 6.498940 0.153334 17.500000
-7.021863 6.649539 0.156985 14.000000
-5.419776 6.650040 0.139261 18.000000
-4.728566 6.609663 0.131924 3.000000
-4.357135 6.602926 0.128418 22.000000
-3.621981 6.654452 0.122987 6.333333
3.655841 6.658327 0.123306 13.250000
-8.305859 6.711563 0.173345 5.000000
-8.275425 6.730051 0.173151 1.000000
-5.483760 6.685551 0.140364 10.000000
-3.624933 6.760469 0.124523 3.000000
-7.279675 6.807436 0.161789 18.000000
-4.796474 6.948028 0.137053 5.000000
-4.803446 7.132140 0.139585 4.000000
-6.582840 7.204078 0.158413 57.000000
-4.807703 7.187086 0.140364 5.000000
-6.169930 7.379158 0.156141 2.000000
-6.808474 7.404162 0.163282 82.000000
-4.903389 7.564575 0.146337 14.200000
-4.825746 7.595435 0.146078 4.500000
-7.022395 7.782756 0.170164 0.000000
-6.187703 7.690452 0.160231 9.000000
-8.369289 7.826365 0.186006 0.000000
-7.294617 7.817005 0.173562 43.000000
-7.164384 7.815645 0.172112 34.000000
-6.999015 7.830610 0.170489 10.500000
-6.372916 7.869899 0.164386 58.000000
-6.483518 7.955245 0.166593 16.000000
-4.915592 7.886139 0.150850 33.750000
-6.844254 8.081900 0.171917 10.000000
-6.790505 8.069698 0.171203 1.000000
-6.348213 7.992247 0.165685 41.000000
-4.864775 8.013750 0.152180 6.000000
-6.483177 8.109715 0.168541 48.000000
-4.921548 8.135885 0.154355 19.500000
-4.206181 8.149323 0.148869 80.000000
-6.744365 8.222423 0.172631 2.000000
-4.301890 8.270902 0.151336 29.000000
-5.699564 8.292912 0.163347 6.000000
-6.065181 8.421970 0.168476 9.000000
-4.324588 8.443719 0.153998 14.000000
-5.301889 8.491390 0.162503 8.000000
-5.565905 8.669784 0.167243 1.000000
-4.562057 8.644745 0.158673 29.299999
-6.355337 8.737751 0.175391 6.000000
-5.277782 8.694098 0.165100 3.000000
-4.411186 8.713776 0.158543 31.500000
-4.337411 8.751522 0.158556 28.799999
-6.290006 8.910048 0.177046 3.000000
-4.361279 8.890578 0.160750 7.000000
-6.071014 9.137606 0.178085 3.000000
-7.092405 9.283194 0.189641 13.000000
-7.441055 9.368098 0.194208 10.000000
-7.084966 9.334103 0.190226 8.000000
-7.391114 9.426242 0.194446 4.000000
-7.086133 9.458452 0.191849 24.000000
-6.108984 9.385482 0.181786 4.000000
-7.405709 9.506204 0.195614 1.000000
-7.209725 9.560683 0.194381 26.000000
-6.049341 9.521300 0.183116 7.500000
-7.223925 9.769703 0.197237 13.000000
-7.299951 9.807920 0.198471 19.000000
-6.609370 9.813572 0.192065 2.666667
-6.064108 9.849363 0.187758 0.000000
-7.119284 9.885674 0.197757 3.000000
-7.092849 9.914495 0.197887 12.000000
-6.111410 10.139000 0.192173 3.000000
-4.368774 -17.867220 0.298583 19.000000
-4.461465 -17.761835 0.297284 11.000000
-4.352725 -17.562254 0.293713 26.000000
-4.730526 -17.435274 0.293259 1.000000
-4.760908 -17.331625 0.291766 21.000000
-4.661235 -17.395966 0.292350 18.000000
-4.489168 -17.184992 0.288325 0.000000
-5.672994 -17.033792 0.291441 13.000000
-3.831380 -17.056677 0.283780 14.000000
-3.768268 -17.025675 0.283066 12.000000
-5.471623 -16.780119 0.286507 3.000000
-5.479248 -16.626099 0.284170 5.000000
-4.133356 -16.677153 0.278911 3.000000
-4.056243 -16.589045 0.277223 2.000000
-5.595787 -16.456337 0.282157 5.000000
-5.196447 -16.460987 0.280209 3.000000
-6.324099 -16.220469 0.282612 8.000000
-6.557313 -16.140530 0.282806 29.000000
-6.461810 -16.123024 0.281962 4.000000
-5.173962 -16.212162 0.276249 4.000000
-6.725084 -16.045359 0.282417 0.000000
-6.149174 -15.919409 0.277028 21.000000
-5.981993 -15.931724 0.276249 10.000000
-6.230035 -15.832076 0.276184 2.000000
-5.778128 -15.840858 0.273717 23.000000
-5.487946 -15.812534 0.271704 0.000000
-7.152674 -15.666119 0.279560 9.000000
-5.871823 -15.490254 0.268913 17.000000
-5.135395 -15.339029 0.262583 5.000000
-3.633559 -15.275729 0.254889 15.000000
-3.609323 -14.964865 0.249890 6.000000
-5.232771 -14.850983 0.255603 22.500000
-3.451954 -14.874641 0.247878 12.500000
-5.485802 -14.750875 0.255474 14.000000
-5.364671 -14.803739 0.255603 8.000000
-5.070199 -14.683195 0.252162 12.500000
-5.588845 -14.605135 0.253850 3.000000
-6.534290 -14.431538 0.257162 4.000000
-5.577057 -14.438272 0.251254 0.000000
-6.164694 -14.328030 0.253201 2.000000
-5.755073 -14.359627 0.251124 2.000000
-5.587522 -14.331248 0.249695 12.000000
-5.844830 -14.236878 0.249825 13.333333
-5.771666 -14.271029 0.249890 4.000000
-4.436655 -14.209512 0.241645 1.000000
-7.216217 -14.071445 0.256707 33.000000
-5.856139 -14.054751 0.247163 18.333334
-5.907889 -13.972322 0.246254 4.000000
-6.357077 -13.751713 0.245930 3.500000
-5.927822 -13.619950 0.241126 38.333332
-3.475487 -13.654785 0.228725 5.000000
-7.202540 -13.568852 0.249371 16.000000
-5.798854 -13.536233 0.239048 14.500000
-8.048397 -12.920233 0.247098 1.000000
-7.464935 -13.008263 0.243463 9.000000
6.240168 -12.504970 0.226864 41.666668
-5.499437 -12.351896 0.219484 29.333334
-5.430275 -12.405795 0.219831 0.000000
6.263570 -12.373093 0.225122 56.500000
-7.832797 -12.313991 0.236905 8.000000
-5.624673 -12.217679 0.218337 13.000000
6.287270 -12.228550 0.223207 55.500000
-7.323009 -12.177900 0.230673 14.000000
-5.631034 -12.131022 0.217104 9.000000
6.353441 -12.122068 0.222168 59.000000
7.063896 -12.117504 0.227686 43.000000
6.444670 -12.064777 0.222038 63.000000
6.504160 -11.994152 0.221486 67.500000
6.612707 -11.968901 0.221973 65.666664
6.757332 -11.962931 0.223034 61.333332
6.891308 -11.979431 0.224343 60.500000
-5.591088 -11.849443 0.212689 5.000000
-6.822814 -11.468111 0.216617 4.000000
-6.619512 -10.930116 0.207430 2.000000
-6.236792 -10.987668 0.205093 4.000000
-7.533247 -10.553431 0.210482 28.000000
-9.410555 -9.937478 0.222168 2.000000
-8.697552 -9.659610 0.211001 0.000000
-8.933354 -8.942753 0.205190 0.000000
-3.543208 -7.760570 0.286437 4.666667
-4.405441 -7.593673 0.294759 8.000000
-4.347720 -7.603851 0.294088 0.000000
-3.549555 -7.449680 0.277068 17.400000
-4.010751 -7.359315 0.281404 14.500000
-5.495304 -6.933348 0.297041 13.000000
-5.585531 -6.912343 0.298383 25.000000
-5.407869 -6.801015 0.291739 13.000000
-5.449727 -6.685088 0.289592 26.750000
-5.210040 -6.688009 0.284648 20.333334
-5.689663 -6.522184 0.290598 2.000000
-5.118114 -6.583984 0.279994 19.000000
-5.398103 -6.267020 0.277713 17.000000
-5.369892 -6.116724 0.273283 24.000000
-5.060277 -5.933685 0.261836 26.714285
-4.975405 -5.955606 0.260559 26.799999
-5.222328 -5.911077 0.264827 32.000000
-5.638584 -5.521765 0.264980 20.857143
-5.530231 -5.518661 0.262321 31.000000
-5.055779 -5.615011 0.253686 14.000000
-5.765061 -5.505363 0.267646 13.000000
-4.923071 -5.433200 0.246170 38.000000
-4.920708 -5.362727 0.202592 37.666668
-5.515015 -5.217156 0.254894 17.000000
-5.928859 -5.036955 0.261203 29.000000
-5.736870 -5.047103 0.256550 32.333332
-5.796805 -5.003660 0.257109 30.500000
-5.814514 -4.901674 0.274390 32.714287
-6.578954 -4.737912 0.272209 10.000000
-5.797132 -4.781737 0.285025 35.000000
-6.903584 -4.649518 0.279458 2.000000
-6.885747 -4.700682 0.279927 5.500000
7.179502 -4.630420 0.286840 39.000000
-5.701957 -4.538751 0.244693 49.000000
7.146883 -4.577655 0.284961 68.000000
-6.340114 -4.445993 0.259995 18.000000
-5.559672 -4.473448 0.239593 39.000000
7.089986 -4.447732 0.281015 65.000000
-6.839588 -4.360656 0.272344 77.000000
-6.698018 -4.300050 0.267243 11.000000
-5.640347 -4.267512 0.237479 28.000000
-5.569904 -4.265812 0.205265 28.375000
7.098197 -4.298806 0.278625 70.199997
7.152904 -4.240333 0.279189 66.000000
-5.914607 -4.175390 0.243082 41.000000
-5.758098 -4.174296 0.238787 37.000000
7.159510 -4.164822 0.278099 60.000000
-7.684676 -4.089461 0.292276 2.500000
-6.211848 -4.043276 0.248854 4.000000
-5.686388 -4.041105 0.234224 31.000000
-6.575937 -3.935616 0.257310 65.000000
7.149014 -3.991425 0.274911 71.250000
-6.537489 -3.847665 0.298809 21.666666
7.234679 -3.883972 0.275699 64.000000
7.368321 -3.866768 0.279390 63.000000
7.483816 -3.858685 0.282706 36.599998
-8.083230 -3.731555 0.298920 1.000000
-7.602101 -3.773715 0.284961 5.000000
-6.442926 -3.787621 0.250935 25.000000
-5.642057 -3.732653 0.212434 28.500000
-6.972791 -3.626714 0.263887 16.000000
-6.691557 -3.669593 0.256237 48.000000
-6.381094 -3.701926 0.247691 25.666666
-7.867924 -3.587256 0.290330 8.000000
-6.994809 -3.610289 0.264290 58.000000
-6.433541 -3.554334 0.246787 55.400002
-6.226465 -3.543021 0.240532 45.500000
-7.844640 -3.443555 0.287645 20.000000
-7.695085 -3.435732 0.282947 4.000000
-6.853603 -3.375363 0.256505 61.000000
-6.566322 -3.233792 0.203471 30.333334
-7.810306 -3.196871 0.283350 5.000000
-7.353230 -3.200328 0.269256 55.000000
-6.883670 -3.212678 0.299282 22.666666
-6.782100 -3.182745 0.251539 33.000000
-6.211760 -3.112822 0.233284 27.000000
-7.522628 -2.969312 0.271538 1.000000
-5.471147 -2.989194 0.209325 1.000000
-6.636045 -2.826430 0.242176 123.250000
-6.436270 -2.858468 0.236455 13.750000
-7.998454 -2.729130 0.283753 32.000000
-7.919114 -2.632767 0.280196 3.000000
-6.415633 -2.631151 0.208989 54.400002
-7.919028 -2.536424 0.279189 14.000000
-7.677468 -2.592706 0.272075 19.000000
-6.484415 -2.517217 0.209422 38.799999
-5.291153 -2.582680 0.300018 27.750000
-7.739868 -2.505879 0.273149 30.000000
-7.583778 -2.481691 0.267914 17.000000
-7.275518 -2.508003 0.258384 65.000000
-6.244179 -2.494965 0.225767 36.666668
-6.187393 -2.464765 0.223620 37.000000
-6.852312 -2.386226 0.243619 33.000000
-6.645064 -2.360974 0.236774 69.000000
-5.793907 -2.371530 0.210197 41.000000
-4.997952 -2.288240 0.280095 12.000000
-6.563261 -2.193490 0.232344 12.000000
-7.410831 -2.081692 0.258451 25.500000
-7.326540 -2.107733 0.255968 11.000000
-5.831869 -1.837659 0.205298 5.000000
-7.091811 -1.812955 0.245767 1.000000
-6.233928 -1.740543 0.217311 2.000000
-5.791503 -1.765243 0.203285 11.000000
-7.935139 -1.582717 0.271672 1.000000
-7.349867 -1.598464 0.252545 25.000000
-5.792320 -1.597646 0.201741 33.000000
-5.607077 -1.546552 0.296379 0.000000
-7.961483 -1.448073 0.271699 4.000000
-6.878028 -1.473186 0.236170 46.500000
-6.303687 -1.485481 0.217445 13.000000
-5.608969 -1.509215 0.295972 14.000000
-5.588974 -1.475626 0.294547 34.000000
-8.008539 -1.337296 0.272612 15.000000
-7.961161 -1.329512 0.271001 4.500000
-6.774303 -1.373322 0.232076 15.000000
-5.963380 -1.247987 0.204560 9.000000
-8.036277 -1.186696 0.272746 0.000000
-7.927003 -1.145414 0.268921 15.500000
-4.213366 -1.037246 0.296730 34.444443
-7.444829 -0.995994 0.295679 29.333334
-6.868554 -0.986600 0.232982 21.000000
-4.259536 -0.940418 0.203323 7.500000
-7.916431 -0.831971 0.267265 13.833333
-7.826174 -0.880612 0.264424 0.000000
-7.048288 -0.871712 0.238452 25.500000
-6.649399 -0.790539 0.224828 4.000000
-4.239920 -0.788447 0.219754 16.071428
-4.280900 -0.708192 0.296748 8.800000
-7.927380 -0.565460 0.266840 16.000000
-4.423901 -0.537322 0.211670 12.000000
-5.844206 -0.435324 0.298618 77.000000
-4.762128 -0.475324 0.243861 36.000000
-4.550000 -0.468592 0.233073 3.000000
-4.449471 -0.430002 0.227780 38.000000
-5.654627 -0.377502 0.288780 25.555555
-4.376870 -0.381405 0.223872 46.599998
-5.634934 -0.267130 0.287463 28.200001
-5.562608 -0.217720 0.283668 29.666666
-4.356268 -0.232787 0.298339 30.384615
-5.652056 -0.147942 0.288101 33.666668
-4.382840 -0.159946 0.299914 36.000000
-8.718968 -0.045654 0.292746 3.000000
-8.539169 -0.017883 0.286706 4.000000
-8.007082 -0.079659 0.268854 1.500000
-3.487810 -0.017654 0.238512 1.000000
-8.347223 0.034967 0.280263 9.000000
-8.231141 0.060339 0.276370 9.000000
-8.075445 0.008456 0.271136 4.000000
-4.441613 0.074427 0.226355 0.000000
-8.838535 0.092559 0.296773 7.000000
-8.598357 0.117063 0.288719 2.000000
-7.415134 0.100954 0.248988 23.000000
-5.467454 0.125984 0.278670 22.000000
-4.360012 0.095652 0.260073 6.875000
-6.470670 0.271201 0.217445 20.000000
-6.306077 0.234536 0.211875 29.500000
-5.432723 0.189936 0.277000 20.799999
-3.986327 0.224269 0.273033 11.250000
-6.439507 0.337363 0.216506 77.333336
-6.313171 0.374027 0.212345 77.500000
-5.309221 0.289396 0.270934 18.000000
-5.213062 0.346092 0.276392 25.555555
-5.053928 0.371657 0.287390 31.333334
-6.507028 0.416229 0.218922 79.000000
-5.047913 0.466504 0.258314 10.000000
-4.938233 0.394376 0.295381 29.750000
-6.771512 0.502551 0.227982 42.750000
-6.437506 0.493080 0.216774 11.000000
-4.919574 0.522831 0.252096 32.454544
-4.830312 0.512623 0.247525 35.666668
-8.287043 0.634745 0.279055 8.000000
-6.277863 0.659829 0.211942 9.000000
-4.827636 0.622708 0.248034 32.000000
-6.071745 0.726565 0.205320 34.916664
-5.105546 0.770812 0.293362 23.666666
-4.924700 0.730915 0.273858 32.583916
-4.817718 0.805646 0.248910 19.000000
-4.523532 0.867821 0.234701 11.000000
-3.355718 0.835281 0.236486 25.769230
-7.112588 0.951550 0.240935 14.000000
-7.091758 0.926092 0.240129 15.000000
-4.827418 0.894709 0.250172 20.000000
-3.367814 0.891702 0.238239 0.000000
-4.906179 1.045563 0.255617 11.500000
-8.305713 1.137740 0.281471 9.000000
-6.040136 1.143982 0.206405 2.250000
-8.535860 1.278624 0.289793 12.000000
-7.651051 1.244681 0.260263 3.000000
-5.355480 1.265005 0.280400 16.000000
-5.165004 1.245730 0.270731 2.000000
-5.052059 1.268670 0.265438 4.750000
-4.988393 1.236344 0.261876 25.250000
-8.673635 1.369207 0.294826 15.500000
-3.344521 1.339951 0.246392 14.125000
-8.486616 1.435403 0.288988 13.000000
-6.816664 1.463856 0.234089 0.000000
-5.226463 1.431295 0.276125 23.250000
-5.129045 1.461047 0.271749 4.000000
-4.858588 1.471030 0.258670 20.750000
-5.217077 1.530497 0.277041 10.000000
-4.856392 1.512203 0.259179 16.750000
-6.866195 1.713219 0.206653 7.250000
-5.039960 1.731463 0.271545 34.000000
-4.976253 1.753390 0.268848 37.000000
-5.540021 1.874036 0.298008 24.500000
-4.941395 1.802326 0.268017 41.333332
-4.755701 1.823183 0.265410 36.200001
-4.669228 1.888335 0.256645 39.599998
-6.393226 2.018231 0.225096 3.000000
-5.807170 2.056427 0.206842 17.000000
-4.791831 2.038352 0.295856 30.333334
-4.654732 1.985567 0.257866 36.799999
-6.611557 2.110017 0.233016 107.000000
-4.735418 2.123777 0.290569 31.714285
