# This PCD file was generated using the MATLAB® pcwrite function
# from Computer Vision Toolbox®.
# .PCD v.7 - Point Cloud Data file format
VERSION .7
FIELDS x y z intensity
SIZE 4 4 4 4
TYPE F F F F
COUNT 1 1 1 1
WIDTH 1248
HEIGHT 1
VIEWPOINT 0 0 0 1 0 0 0
POINTS 1248
DATA ascii
-7.902749 -4.042301 1.711127 6.000000
-6.690465 -4.056679 1.797168 73.000000
-6.768806 -3.790715 1.781946 16.000000
-8.296482 -3.360423 1.725513 1.000000
-8.365327 -2.849421 1.703556 29.000000
-7.958776 -2.907773 1.788390 39.000000
-8.506224 -2.749077 1.723241 17.000000
-6.261659 -2.791813 1.702117 7.666667
7.213929 -2.738909 1.772394 62.333332
7.176039 -2.647372 1.756873 61.666668
-6.662245 -2.529550 1.769263 10.666667
-7.937127 -2.510185 1.757001 29.000000
-6.635629 -2.471724 1.758018 11.000000
-7.941829 -2.375112 1.749566 52.000000
7.471199 -2.349908 1.798959 66.000000
7.244674 -2.316251 1.747023 62.000000
-7.922643 -2.127312 1.731393 1.000000
-6.806279 -2.129044 1.770548 62.000000
-6.745775 -2.203556 1.761874 34.000000
-7.538891 -2.049686 1.794482 72.000000
-7.412897 -2.090683 1.769111 32.666668
-6.670006 -2.109447 1.736814 21.000000
-6.662611 -1.947021 1.723321 6.000000
-8.121044 -1.882358 1.759479 17.000000
-7.981745 -1.876510 1.730567 10.000000
-7.915458 -1.895890 1.717901 13.666667
-7.228124 -1.867974 1.714787 20.000000
-7.947381 -1.763349 1.718176 3.000000
-6.418021 -1.637127 1.770186 1.000000
-6.976433 -1.479068 1.770548 93.000000
-6.844236 -1.428589 1.735851 117.000000
-6.531398 -1.496568 1.790842 21.500000
-6.744371 -1.374622 1.708863 20.000000
-8.263049 -1.242294 1.763609 18.000000
-8.046150 -1.287344 1.719828 40.000000
-7.425342 -1.140215 1.725532 44.000000
-7.053688 -1.151292 1.774404 41.000000
-6.504301 -1.177350 1.766572 21.000000
-7.522034 -1.058584 1.744785 25.000000
-7.116403 -1.024221 1.785006 43.000000
-6.907218 -1.077328 1.735610 27.750000
-6.636674 -1.111767 1.798416 43.333332
6.486928 -1.037876 1.755728 20.000000
6.467250 -1.013901 1.749531 41.000000
-7.189374 -0.919704 1.799463 40.000000
-6.853227 -0.854830 1.714646 37.000000
-6.665065 -0.746677 1.792465 50.142857
6.424306 -0.801312 1.730252 64.000000
6.514028 -0.761534 1.704530 57.692307
6.521553 -0.688896 1.752629 61.000000
6.590189 -0.643787 1.769670 39.250000
-8.348764 -0.617489 1.766913 24.000000
-8.221830 -0.582137 1.739654 32.000000
-8.043996 -0.544155 1.701656 33.000000
-6.654622 -0.597201 1.785678 69.428574
8.989574 -0.608119 1.736870 45.000000
-9.271029 -0.510216 1.789869 40.000000
-8.939181 -0.463791 1.725513 50.000000
-8.121478 -0.498155 1.717350 44.000000
-8.290287 -0.286579 1.750805 32.500000
-8.126557 -0.319293 1.716524 35.000000
8.329195 -0.178890 1.758377 16.333334
10.041810 -0.203333 1.754742 13.000000
-10.087162 -0.028185 1.762315 22.000000
-10.039302 -0.112143 1.754054 0.000000
-8.142241 -0.065987 1.718589 35.250000
7.472461 -0.117381 1.716578 13.500000
-9.985942 0.045229 1.744646 12.000000
-8.488804 0.013014 1.791695 35.000000
8.390004 0.046032 1.770837 8.750000
-6.676241 0.136352 1.784645 7.000000
-10.167544 0.180289 1.776633 26.799999
-10.124210 0.260708 1.769371 29.000000
-9.789298 0.352116 1.711373 11.000000
-8.956610 0.337768 1.727784 13.000000
-7.084814 0.289518 1.760428 38.000000
9.105214 0.357745 1.756555 25.000000
-10.182491 0.430316 1.780557 18.000000
-9.853818 0.416442 1.723076 8.000000
8.428101 0.410728 1.780956 15.000000
8.911761 0.378188 1.719456 0.000000
-10.236703 0.497076 1.790539 14.000000
-7.748070 0.524137 1.783737 35.000000
-6.891393 0.509699 1.715610 16.000000
-9.120828 0.645790 1.762612 36.000000
-7.682439 0.665372 1.771200 71.000000
-7.432965 0.596807 1.712817 20.200001
-6.965247 0.614337 1.736011 27.833334
-7.525181 0.735338 1.736726 27.000000
-7.044684 0.677085 1.757055 45.000000
-6.945944 0.689623 1.732959 31.000000
-8.983186 0.834928 1.739141 0.000000
-8.007961 0.935070 1.701656 36.500000
-7.645067 0.880506 1.767619 37.000000
-7.452561 0.882069 1.723742 24.000000
-7.075721 0.950389 1.772476 1.000000
-8.353145 1.015278 1.776000 35.000000
-7.149980 0.994689 1.792234 30.000000
-6.958858 1.001547 1.745489 34.000000
-7.156939 1.145075 1.799463 75.000000
-7.003339 1.213525 1.764658 33.444443
7.562977 1.239772 1.760355 12.555555
-8.312451 1.356746 1.777652 45.000000
-7.410215 1.281300 1.727323 32.000000
-7.053648 1.288226 1.780187 28.000000
-6.351874 1.294672 1.732490 17.000000
-9.010552 1.383636 1.757312 2.000000
-7.943410 1.424950 1.703308 55.000000
-6.815026 1.377863 1.726212 30.000000
-6.492484 1.410525 1.775660 23.500000
-6.394676 1.432738 1.751424 36.000000
-6.198608 1.477861 1.703056 43.000000
8.292151 1.541350 1.780130 1.000000
-6.889315 1.619680 1.757055 72.000000
-6.792213 1.641955 1.734887 17.000000
-6.745545 1.653119 1.724285 23.000000
8.268929 1.631310 1.778891 1.500000
-8.769235 1.715686 1.722484 2.000000
-7.570036 1.767162 1.785527 22.000000
-6.194942 1.694752 1.716482 39.000000
6.831423 1.705363 1.764635 51.625000
8.137035 1.738495 1.756175 0.500000
9.060375 1.698883 1.776998 12.500000
6.798824 1.802676 1.746315 66.428574
-7.855670 1.899035 1.705786 13.000000
-7.585286 1.954153 1.799183 40.000000
-6.105217 1.930827 1.711318 76.000000
6.765335 1.908018 1.745167 66.666664
7.959318 1.924082 1.728295 12.000000
8.611462 1.967543 1.702799 0.000000
8.862048 1.907950 1.747470 3.000000
9.121590 1.933862 1.797441 18.000000
-7.863916 2.058658 1.715698 64.000000
-7.491746 1.994806 1.780752 42.333332
-7.434689 2.046458 1.771200 2.000000
-6.554035 2.072667 1.706614 66.666664
-6.194823 1.980595 1.738170 110.000000
6.631194 2.051395 1.723321 55.666668
6.698113 1.980176 1.734116 62.799999
7.301890 1.985249 1.738069 24.000000
7.901777 2.068571 1.723959 1.000000
-6.254834 2.119558 1.765023 33.500000
-6.136997 2.133505 1.736449 26.333334
6.564216 2.121411 1.712719 60.000000
7.293855 2.156385 1.747023 32.000000
-8.089647 2.199427 1.769391 24.000000
-6.075377 2.212225 1.728015 20.166666
6.486781 2.220830 1.702277 65.500000
7.287045 2.179288 1.747023 0.000000
-8.196632 2.311691 1.797477 3.000000
-6.785559 2.347087 1.782596 40.500000
8.535317 2.320595 1.705070 3.000000
7.292656 2.433014 1.765828 38.000000
7.978915 2.468361 1.762783 7.000000
8.557325 2.544546 1.720970 7.500000
6.948990 2.625814 1.706280 13.000000
8.537731 2.582572 1.719456 0.000000
-6.904873 2.723743 1.704937 29.400000
7.971754 2.706046 1.776826 15.666667
-7.073023 2.839035 1.750605 59.000000
-5.900366 2.956876 1.763861 33.875000
-5.639252 2.963264 1.702539 44.000000
7.905539 2.916507 1.778478 4.000000
-7.449887 3.072141 1.700829 66.000000
-6.266366 3.021369 1.727176 0.500000
7.807652 3.020553 1.766913 0.000000
-8.483865 3.160178 1.745198 47.000000
-5.901795 3.148722 1.787744 51.000000
-7.431590 3.215976 1.709090 51.500000
-6.242460 3.242700 1.746453 25.000000
-8.415367 3.625969 1.766398 19.000000
-8.270652 3.594466 1.738384 9.000000
-8.109003 3.615496 1.711506 28.500000
-7.584490 3.671386 1.778478 52.000000
-7.239253 3.645715 1.710742 30.000000
-5.248510 3.627467 1.705121 29.000000
-8.169912 3.714682 1.730055 7.666667
-7.253348 3.710124 1.719553 29.000000
-5.333902 3.726312 1.714189 28.400000
-5.914412 3.779523 1.742597 30.000000
-5.688450 3.826805 1.702117 2.000000
-6.007433 3.878949 1.775367 1.000000
-7.911670 4.099319 1.717689 47.000000
-5.050517 4.164805 1.749531 28.000000
-5.853888 4.267165 1.798499 34.000000
-5.097171 4.212371 1.767260 30.416666
-5.474411 4.296917 1.727819 8.666667
-5.341279 4.358893 1.711634 28.875000
-6.286012 4.432652 1.766723 35.000000
-6.252539 4.409024 1.757321 29.500000
-5.243056 4.435435 1.705008 52.000000
-5.904088 4.594554 1.718369 6.000000
-5.524420 4.643759 1.791752 37.000000
-4.789815 4.641680 1.782580 30.500000
9.117210 4.719869 1.793637 9.000000
-5.286310 4.855906 1.782114 37.000000
-4.643921 4.868083 1.798072 37.000000
-5.279582 4.880394 1.785006 38.000000
-4.985571 4.954340 1.745007 32.500000
-4.752140 4.965862 1.706454 42.500000
-5.164797 4.989323 1.782885 40.599998
-5.014395 5.055582 1.767850 25.600000
-8.484889 5.142681 1.733402 0.000000
-4.860772 5.159787 1.759946 33.500000
-8.800694 5.221317 1.787786 10.000000
-4.881382 5.266384 1.782803 39.571430
-4.798703 5.191207 1.755127 29.000000
-4.467671 5.314853 1.723803 14.000000
-4.996311 5.473577 1.702251 37.000000
-8.286183 5.724794 1.759561 2.000000
-8.221619 5.708916 1.748719 6.000000
-8.040064 5.705332 1.722387 15.000000
-8.231859 5.802638 1.759561 34.000000
-6.731569 5.953497 1.732327 12.000000
9.338716 5.949417 1.735540 52.000000
9.265916 6.005927 1.730740 71.500000
9.325579 6.254726 1.760006 5.000000
-5.241386 6.315523 1.732219 37.000000
-5.201091 6.479526 1.784154 18.799999
-5.489385 6.940660 1.705827 27.000000
-8.191229 7.135510 1.702712 32.000000
-5.797503 7.166993 1.776998 49.000000
-6.779087 7.239220 1.732713 54.000000
-5.583734 7.198530 1.756177 32.500000
-8.223463 7.293426 1.722843 29.500000
-8.355019 7.575868 1.767749 7.000000
-6.902738 7.535533 1.785376 43.500000
-5.565661 7.485980 1.798198 3.000000
-5.522154 7.501053 1.795548 16.500000
-8.325336 7.596753 1.766510 7.000000
-4.766629 7.842784 1.769174 46.666668
1.889262 8.268767 1.790208 3.400000
-7.209457 8.852278 1.789427 12.000000
-6.351604 8.870147 1.709990 16.750000
-6.944973 10.249971 1.719137 89.000000
-6.020004 10.905221 1.729590 5.000000
-5.703370 11.145365 1.738392 6.000000
-7.233208 12.090591 1.706212 39.000000
-7.709252 12.526313 1.781231 2.000000
-7.396022 12.722957 1.782193 6.000000
-7.328229 12.697976 1.775460 4.000000
-6.221137 12.789247 1.722322 2.000000
-5.430228 -36.247959 1.867636 5.000000
-5.644926 -36.130241 1.863361 1.000000
-5.528973 -36.132000 1.862547 9.000000
8.281655 -36.159618 1.890231 6.000000
7.964096 -35.805389 1.869061 24.000000
8.726634 -35.528500 1.864176 4.000000
8.217113 -35.366863 1.850130 5.000000
-3.454919 -26.420837 1.822133 1.000000
-4.088798 -26.140362 1.809307 4.000000
-4.490695 -21.552101 1.890446 1.000000
-4.413355 -21.519255 1.886340 17.000000
-5.656199 -21.362558 1.897633 10.000000
3.581459 -21.063055 1.834664 1.000000
3.722045 -21.087233 1.838771 2.000000
4.743697 -21.032335 1.851433 1.000000
-6.537707 -20.925829 1.882575 8.000000
3.845137 -21.012468 1.834322 2.000000
3.907483 -20.980696 1.832610 8.000000
-7.210081 -20.762856 1.887366 12.000000
-3.218889 -20.792864 1.806773 4.500000
-6.081899 -20.246420 1.815328 38.500000
-6.000556 -20.322651 1.819606 14.000000
-7.778045 -20.125891 1.852802 24.000000
-7.520360 -20.210836 1.851775 11.000000
-6.175523 -20.211836 1.814815 40.000000
8.468273 -19.550331 1.829530 4.000000
8.547521 -19.481033 1.826793 0.000000
8.888946 -19.424095 1.834322 1.000000
8.921539 -19.334557 1.828504 0.000000
9.027628 -19.403996 1.837744 9.000000
8.684944 -19.297852 1.817210 18.000000
8.753763 -19.288616 1.818922 6.000000
8.502241 -19.213549 1.804206 2.000000
9.034039 -19.180946 1.820633 5.000000
9.231620 -19.054121 1.818123 14.000000
9.342994 -18.979109 1.816526 8.000000
9.413201 -18.971083 1.818579 2.000000
-4.228301 -17.762295 1.888134 16.000000
5.580963 -17.434919 1.893072 0.000000
11.551480 -17.512087 1.801468 17.000000
-5.779472 -17.252651 1.881551 11.500000
-5.656561 -17.245190 1.876820 5.000000
-5.445014 -17.144154 1.860156 7.000000
-5.342830 -17.101276 1.852750 1.000000
-7.041476 -16.941057 1.897186 1.000000
-5.348543 -16.569290 1.800496 7.000000
-4.060999 -14.957271 1.876929 9.000000
5.366711 -14.531483 1.875967 10.000000
5.599431 -14.526402 1.885345 2.000000
5.413725 -14.518271 1.876448 0.000000
-6.510483 -14.252976 1.897607 6.000000
-4.308816 -14.262489 1.804314 14.000000
-6.325777 -14.201253 1.882700 64.000000
-6.442264 -13.987190 1.864907 15.000000
7.381598 -13.772391 1.892318 0.000000
7.410413 -13.671126 1.883181 5.500000
4.691597 -12.834270 1.897378 59.000000
8.646711 -12.843440 1.875005 36.000000
4.753168 -12.753778 1.889859 59.333332
8.481614 -12.753188 1.854808 54.400002
4.854450 -12.600607 1.874960 59.250000
4.918172 -12.472740 1.861620 58.000000
4.964355 -12.418152 1.856944 55.500000
5.004933 -12.294977 1.843190 40.500000
5.026056 -12.074181 1.815959 46.500000
5.114679 -11.968034 1.807157 35.000000
-6.429935 -11.832613 1.869871 18.000000
-5.655283 -11.829931 1.820635 4.500000
-6.989439 -11.752804 1.898661 27.333334
-5.643884 -11.758389 1.811008 24.333334
-6.512300 -11.719540 1.861620 38.000000
-5.855571 -11.632386 1.808258 21.000000
-5.713326 -11.667606 1.803857 37.500000
6.322697 -11.539080 1.826962 19.000000
-6.396197 -11.425907 1.818160 2.000000
4.247005 -11.340999 1.898131 8.000000
6.856014 -11.383307 1.845116 87.000000
4.056250 -11.316221 1.884195 4.000000
6.652235 -11.163596 1.804407 56.500000
-4.525076 -11.077303 1.875523 8.000000
-4.870845 -10.991558 1.884401 1.666667
-6.302296 -10.324821 1.895963 19.000000
-7.476686 -9.246128 1.863755 16.000000
-5.324818 -9.237644 1.862822 7.500000
-5.395177 -9.192205 1.862133 4.500000
-5.164382 -9.149345 1.835544 27.125000
-5.023477 -9.175368 1.827541 29.000000
-7.647773 -8.986102 1.849509 3.000000
-7.756679 -8.829242 1.842076 0.000000
-5.107385 -8.132409 1.851197 59.000000
-4.850427 -8.201637 1.836812 1.000000
-5.324102 -8.105217 1.869368 29.500000
-5.013224 -8.038435 1.826212 5.000000
-4.887396 -8.098725 1.823436 24.000000
-5.475295 -7.948841 1.860661 24.000000
-5.334002 -7.928863 1.842112 38.000000
-5.155912 -7.985096 1.832269 29.000000
-5.004849 -7.913831 1.805012 0.000000
-5.704949 -7.800498 1.862933 16.500000
-5.466728 -7.804398 1.836812 15.000000
-5.974844 -7.628223 1.867854 9.000000
-5.816549 -7.572063 1.840597 30.000000
-6.005000 -7.423500 1.840597 0.000000
-5.926098 -7.490371 1.841186 42.444443
-4.979039 -7.426363 1.887103 29.000000
-4.878860 -7.452841 1.880082 26.000000
-4.225291 -7.434838 1.804911 22.000000
-6.111277 -7.348085 1.842364 2.000000
-4.903131 -7.413432 1.875951 42.000000
-4.587213 -7.380943 1.834236 27.000000
-4.408207 -7.391591 1.816476 36.000000
-4.276537 -7.393142 1.802669 24.857143
-6.401615 -7.284241 1.869368 5.000000
-5.030768 -7.266703 1.865419 29.125000
-4.710004 -7.319748 1.837127 29.000000
-4.558508 -7.258441 1.809042 32.000000
-5.334855 -7.128654 1.879255 2.000000
-5.174020 -7.145003 1.861908 28.000000
-5.365731 -7.053865 1.870582 19.500000
-5.117265 -7.113566 1.849518 30.000000
-8.143596 -6.979908 1.873836 1.000000
-6.396753 -6.963831 1.822805 30.500000
-5.543928 -6.942274 1.875125 11.000000
-5.354872 -6.971045 1.855300 15.000000
-6.550014 -6.909515 1.835297 13.000000
-5.632179 -6.895801 1.879255 4.000000
-8.033893 -6.798786 1.838727 10.000000
-5.674551 -6.772201 1.864800 3.500000
-5.223535 -6.756028 1.802433 4.000000
-5.794926 -6.627417 1.858109 28.400000
-8.087288 -6.586432 1.822206 2.000000
-5.893558 -6.607805 1.868792 16.166666
-4.893559 -6.538976 1.875968 26.000000
-4.907042 -6.514229 1.873282 5.000000
-5.029901 -6.238063 1.840598 27.000000
-8.283692 -6.160991 1.803619 1.000000
7.436895 -6.145794 1.859778 40.000000
-7.332343 -6.085269 1.836812 26.000000
6.127670 -6.032165 1.814824 0.000000
-7.257487 -5.984737 1.813340 23.000000
6.152186 -6.018358 1.816476 48.000000
7.417263 -6.000071 1.839083 67.000000
7.469561 -5.888526 1.833531 72.666664
7.551678 -5.838659 1.840093 63.000000
7.675545 -5.845015 1.859778 44.000000
9.171562 -5.777862 1.893800 15.000000
6.355711 -5.700507 1.801974 54.666668
-8.148056 -5.444360 1.889054 2.000000
-5.803027 -5.398171 1.820450 93.000000
-5.165796 -5.254163 1.829342 24.000000
-5.276218 -5.065102 1.815848 26.750000
-5.178004 -5.111031 1.806347 15.428572
-4.745731 -5.037808 1.849711 24.000000
-5.318179 -4.947224 1.803318 23.500000
-5.036882 -4.958378 1.888956 33.000000
-4.762352 -5.013208 1.847989 21.666666
-5.730007 -4.794705 1.854952 25.428572
-5.328094 -4.811192 1.801587 29.857143
-5.319018 -4.684363 1.819411 31.777779
-5.247898 -4.670780 1.877596 39.000000
-7.465462 -4.558724 1.846214 5.000000
-7.728084 -4.272376 1.863767 12.500000
-8.007737 -3.865930 1.876777 34.333332
-7.872530 -3.885310 1.852940 26.571428
-7.800334 -3.897608 1.840431 42.000000
-6.579242 -3.884705 1.819429 57.363636
-8.142660 -3.753844 1.892472 15.000000
-7.954928 -3.758579 1.856952 20.000000
-7.925414 -3.775135 1.852822 28.000000
-6.642550 -3.794699 1.817968 54.000000
-7.761891 -3.607891 1.806563 49.000000
-7.662744 -3.075742 1.896563 34.000000
-7.653042 -3.099802 1.896563 59.000000
7.389816 -2.939271 1.826718 0.000000
7.308824 -2.854093 1.802243 57.000000
-7.579810 -2.769316 1.853582 34.000000
-6.951626 -2.689382 1.850546 53.000000
-8.603705 -2.533833 1.893023 35.000000
-6.414676 -2.546773 1.844547 32.799999
7.107115 -2.541270 1.845593 59.200001
-7.213652 -2.457134 1.891990 0.000000
-6.516817 -2.497657 1.865202 41.000000
-7.600108 -2.368579 1.828509 32.666668
-6.968321 -2.406200 1.830305 13.666667
7.095630 -2.391959 1.859083 67.142860
7.556626 -2.324658 1.815973 47.500000
-8.629312 -2.302566 1.885038 11.500000
-7.660776 -2.317301 1.838359 29.000000
-6.985811 -2.306278 1.826450 42.000000
7.627192 -2.307143 1.830300 0.000000
8.215466 -2.317002 1.801607 20.000000
8.286798 -2.309039 1.815650 0.000000
-7.562006 -2.218572 1.810152 41.666668
-7.001424 -2.141888 1.817776 28.000000
-6.794380 -2.195836 1.840183 44.500000
-6.694240 -2.140266 1.811301 29.500000
-7.217842 -2.060125 1.863557 69.500000
-7.053040 -1.965263 1.817776 17.000000
-7.993119 -1.835114 1.883729 27.000000
-7.061625 -1.910398 1.816234 8.200000
-7.821522 -1.787056 1.842836 41.000000
-9.260324 -1.631178 1.812583 3.000000
-8.029303 -1.676046 1.884027 12.500000
-7.941588 -1.657638 1.863432 12.000000
-6.552189 -1.623234 1.804062 29.400000
-7.966091 -1.429018 1.858954 19.000000
-6.626276 -1.426601 1.811498 8.000000
-6.668430 -1.348276 1.818285 17.571428
-7.922410 -1.242034 1.841941 27.000000
-7.394612 -1.254687 1.862112 36.000000
-6.649701 -1.225076 1.807108 23.500000
-8.014872 -1.204982 1.861641 6.000000
-7.321316 -1.124241 1.838980 83.000000
-6.899351 -1.126101 1.868301 28.000000
-6.922012 -1.062981 1.871657 43.750000
-7.387376 -0.992249 1.850546 103.000000
-7.240338 -0.949354 1.812957 83.000000
-6.784948 -0.875279 1.828367 61.333332
-6.689008 -0.898551 1.803752 62.000000
9.555713 -0.676580 1.846654 15.000000
-9.409654 -0.562357 1.817126 18.500000
8.826660 -0.550668 1.866589 32.000000
9.410832 -0.606922 1.817883 0.000000
-9.412753 -0.429078 1.816369 3.000000
8.634842 -0.502418 1.825562 36.000000
8.812232 -0.484966 1.862735 3.000000
-8.665154 -0.258690 1.829693 36.000000
9.497807 -0.283618 1.831701 5.000000
7.447035 -0.144313 1.849261 5.666667
-7.547924 -0.112702 1.874160 17.250000
7.851303 -0.061666 1.803437 5.000000
9.638253 -0.075701 1.858011 1.000000
-8.233585 0.012933 1.891191 4.000000
9.359673 0.014702 1.804255 29.000000
-8.924454 0.126218 1.883799 29.750000
-8.069794 0.147922 1.853880 23.000000
-7.085289 0.166974 1.894120 9.000000
7.963804 0.112594 1.829405 23.000000
8.180071 0.158545 1.879251 12.666667
-8.760513 0.206453 1.849518 32.000000
-8.151590 0.256193 1.873282 5.500000
-7.002985 0.209068 1.872432 30.000000
-6.806594 0.181802 1.819760 19.000000
-8.883791 0.279148 1.875951 5.000000
-8.733760 0.315675 1.844561 15.000000
-7.860064 0.333556 1.807018 17.000000
-7.007766 0.286422 1.874497 7.500000
-8.889379 0.433207 1.878429 20.000000
-7.886392 0.434015 1.814182 48.000000
8.142808 0.473786 1.873505 20.250000
8.976709 0.409200 1.896602 3.000000
-6.830606 0.559151 1.831637 2.500000
-9.483258 0.581684 1.831512 0.000000
-9.365669 0.594014 1.809050 4.666667
-8.674695 0.614202 1.835475 7.000000
-7.235393 0.592346 1.802355 5.500000
6.950689 0.612972 1.864858 46.666668
8.232541 0.634905 1.896563 17.000000
8.246049 0.662013 1.900145 16.000000
-8.512130 0.719213 1.802984 37.333332
6.907911 0.718706 1.856165 61.500000
8.201194 0.684349 1.890295 0.000000
8.618698 0.773748 1.826388 17.000000
6.879454 0.792318 1.850743 62.000000
8.797352 0.817840 1.864800 8.500000
-7.028419 0.955298 1.895669 31.000000
-6.875303 0.883915 1.852602 31.200001
6.834311 0.896018 1.842186 60.142857
8.899755 0.897810 1.887929 4.500000
-8.582935 1.070584 1.825562 9.000000
-6.993689 1.073932 1.891022 51.000000
6.807411 1.034489 1.840243 57.166668
-8.808078 1.165899 1.875290 15.000000
-6.833902 1.078654 1.849022 32.000000
6.994889 1.164269 1.895153 0.000000
7.411736 1.173984 1.863075 19.750000
8.498368 1.079484 1.808097 14.571428
8.572572 1.165167 1.825975 1.500000
-7.379361 1.204448 1.856329 71.000000
7.756728 1.191103 1.802541 1.000000
-6.701286 1.311034 1.824924 15.750000
7.490054 1.337427 1.853498 9.875000
-7.712284 1.408514 1.800750 6.000000
6.790363 1.439531 1.855133 33.875000
-8.416305 1.537091 1.805737 25.000000
-6.621874 1.534869 1.816662 37.000000
6.737148 1.539301 1.846956 66.000000
6.737154 1.639910 1.853153 65.333336
-8.671953 1.838534 1.870995 8.000000
6.742219 1.787667 1.864169 52.000000
6.755879 1.804994 1.868920 50.200001
9.376304 1.865063 1.842869 0.000000
-7.996954 1.959800 1.891191 26.000000
6.699429 1.969111 1.866235 44.000000
6.751615 1.892705 1.873981 45.000000
9.412746 1.903072 1.851197 4.000000
-7.816943 2.020144 1.854477 58.000000
6.627120 2.061549 1.854874 40.250000
7.609300 2.043177 1.809705 18.000000
7.736266 2.051234 1.838359 1.000000
-6.705493 2.118042 1.849592 60.555557
6.548815 2.139141 1.841242 44.400002
-6.717286 2.232360 1.807611 58.750000
6.477862 2.229181 1.830914 43.200001
8.304919 2.257954 1.816476 2.000000
-8.693464 2.305031 1.898255 47.000000
6.418567 2.299422 1.822170 46.666668
6.339053 2.395229 1.811110 46.375000
7.496468 2.474866 1.813287 19.000000
7.729015 2.420715 1.860347 13.666667
8.336134 2.393408 1.830519 4.000000
6.296621 2.516048 1.812221 51.099998
7.753296 2.559588 1.875431 17.799999
8.365134 2.530363 1.844561 2.000000
6.341807 2.673751 1.839383 33.750000
7.749581 2.639682 1.880445 5.000000
-8.159192 2.894130 1.827214 52.000000
-8.130168 3.086738 1.835475 54.000000
-6.097285 3.167288 1.836284 39.000000
-6.241041 3.204723 1.875014 59.500000
-9.097594 3.330370 1.867551 19.400000
-8.223928 3.361147 1.875125 32.000000
-7.381711 3.374936 1.864327 0.000000
-7.194053 3.316505 1.819555 7.000000
-6.190633 3.348691 1.881038 25.333334
-9.106365 3.457429 1.877697 12.000000
-5.962173 3.653564 1.868817 78.000000
-5.933075 3.726142 1.872432 29.000000
-7.935209 3.871973 1.863561 31.000000
-5.774493 3.780161 1.844547 11.000000
-6.944667 3.903506 1.829852 3.500000
-6.839759 3.887102 1.807018 2.000000
-6.838725 3.986561 1.818211 5.500000
-5.684664 4.021959 1.861071 36.500000
7.660817 4.040800 1.828041 10.000000
-5.753676 4.111636 1.889989 12.000000
-5.536953 4.157302 1.850485 4.000000
-5.365286 4.112443 1.806678 26.000000
7.825528 4.080630 1.862735 0.500000
-5.892420 4.266967 1.806210 36.000000
-5.323681 4.196798 1.811756 7.750000
-6.086023 4.341721 1.856088 22.250000
-5.914953 4.354591 1.823559 25.000000
6.940142 4.313131 1.876863 11.000000
-6.524288 4.389101 1.806123 7.000000
-5.174284 4.461597 1.825957 49.000000
-8.642497 4.535488 1.881483 26.333334
9.299683 4.518604 1.806372 12.333334
-6.713811 4.640446 1.874625 6.500000
-5.367282 4.598694 1.888956 21.000000
-4.987751 4.669065 1.825957 33.333332
-4.933732 4.647690 1.811498 33.000000
9.209938 4.645267 1.802144 7.714286
-5.200489 4.702258 1.873809 41.666668
-4.960357 4.731944 1.832153 31.000000
-8.151727 4.872912 1.830755 11.000000
-6.675028 4.833689 1.892982 5.000000
-6.569595 4.852376 1.875968 3.000000
-5.135433 4.777153 1.874497 55.000000
-4.910816 4.814368 1.838006 42.333332
-4.723065 4.850658 1.809432 30.750000
9.159375 4.851690 1.810847 5.000000
-5.478748 4.938383 1.831269 39.000000
-5.032492 4.969532 1.822592 47.000000
-4.889993 4.952249 1.860038 49.500000
-4.637090 4.922481 1.807367 5.000000
-5.668283 4.997252 1.876087 37.000000
-5.615855 5.061856 1.877051 37.500000
-5.350255 5.071881 1.830305 47.000000
-5.907399 5.246550 1.814779 9.666667
-5.092412 5.271502 1.819703 29.000000
-6.077022 5.374607 1.863432 65.000000
-5.151461 5.288126 1.832876 26.333334
-9.159701 5.473286 1.864198 4.000000
-7.620269 5.740202 1.839083 2.000000
-5.122967 5.683644 1.899701 7.000000
-4.940630 5.766368 1.885244 38.000000
-4.986607 5.783161 1.895846 39.000000
-7.615883 6.160621 1.888297 0.000000
-5.293122 6.337245 1.896563 3.000000
-5.174560 6.309505 1.874305 25.000000
-6.021794 6.473423 1.866039 55.000000
-5.921728 6.406088 1.841257 41.000000
-5.103839 6.391178 1.878654 2.000000
-6.782477 6.614124 1.826212 9.500000
-7.738686 7.173615 1.843546 26.500000
-6.160082 7.098864 1.811826 1.000000
-7.685027 7.305617 1.852496 8.500000
-5.776246 7.374671 1.805769 5.000000
-7.557686 7.437294 1.852496 1.000000
-6.039945 7.539057 1.862176 34.500000
-6.961097 7.671633 1.809814 54.000000
-5.708184 7.602561 1.832647 13.000000
-4.584408 7.724094 1.895776 26.000000
-5.617011 7.808399 1.854226 25.714285
-5.405292 7.790111 1.827789 36.666664
-9.032185 7.884833 1.879239 32.000000
-5.579495 7.912371 1.866340 6.000000
-7.156171 7.986976 1.873561 30.000000
-7.016450 8.016482 1.861238 51.400002
-5.425362 7.983236 1.860661 17.500000
-6.785692 8.173406 1.855938 5.000000
-8.739940 8.178690 1.876143 0.000000
1.999566 8.328621 1.807802 0.500000
2.108807 8.321822 1.811933 5.500000
-6.566745 8.490245 1.875213 52.000000
0.282167 8.550861 1.805737 2.000000
0.376115 8.545815 1.805462 22.666666
0.523651 8.537038 1.805242 204.000000
-5.875756 9.034059 1.882785 2.000000
7.742758 8.982741 1.858799 5.666667
-5.894382 9.125290 1.897930 59.000000
-5.791878 9.123070 1.887948 46.500000
-5.595257 9.094962 1.865575 41.000000
-5.583788 9.238086 1.885883 8.500000
-5.469257 9.310920 1.886572 3.500000
7.739364 9.298954 1.896273 1.500000
-4.560264 9.492548 1.839875 4.666667
-6.187223 9.711997 1.804912 1.000000
-6.981819 9.897360 1.898441 55.000000
-6.523916 9.894038 1.857561 6.000000
-7.249081 10.919017 1.819810 17.000000
-7.477012 11.147948 1.863820 10.000000
-7.404491 11.229502 1.867671 48.000000
-6.969222 11.328309 1.846766 36.000000
-7.471196 11.408488 1.893527 65.000000
-7.322699 11.415033 1.883074 47.000000
-7.312397 11.517939 1.894352 14.500000
-7.428918 13.061329 1.819703 8.000000
-7.131768 13.509418 1.849999 23.333334
-7.410767 13.774734 1.894241 2.000000
-7.182304 13.814735 1.885585 22.000000
-6.813651 13.841073 1.868273 0.000000
-6.691922 13.812139 1.858655 28.000000
-7.163389 13.938480 1.897848 15.000000
-6.789306 13.901659 1.873563 19.000000
9.983045 15.209295 1.881346 9.000000
5.632853 35.685249 1.840868 58.000000
5.823716 35.798336 1.848095 58.000000
8.501049 -37.117538 1.940306 6.000000
8.319315 -36.855701 1.925243 7.000000
8.614065 -36.554028 1.913640 6.000000
8.483814 -36.514759 1.910179 14.000000
-6.221204 -22.357162 1.992771 3.000000
-5.314152 -22.323750 1.970527 5.000000
-6.126640 -22.288212 1.984900 13.000000
-5.201188 -22.157982 1.954442 39.000000
-7.342968 -22.035248 1.994483 33.000000
-3.585507 -22.015856 1.915429 3.000000
-3.505648 -21.960106 1.909611 0.000000
-7.223783 -21.906815 1.980794 24.000000
-7.138854 -21.880146 1.976345 9.000000
-6.301306 -21.845690 1.952389 2.000000
-7.332034 -21.774122 1.972922 12.000000
-4.725052 -21.652889 1.903109 4.000000
-4.593035 -21.701645 1.904820 1.000000
-4.383572 -21.720530 1.902766 9.000000
-4.312984 -21.722466 1.901740 6.000000
-5.455192 -21.558651 1.909611 15.000000
-5.351613 -21.576414 1.908926 8.000000
-5.783294 -21.433750 1.906360 10.000000
-5.624335 -21.515173 1.909611 7.000000
-7.417594 -20.935022 1.907215 8.000000
-7.296212 -21.011271 1.909953 2.000000
-7.569536 -20.842377 1.904135 12.500000
-7.487356 -20.922871 1.908242 10.000000
-3.407656 -19.034258 1.999637 14.000000
4.596886 -18.729282 1.994288 0.000000
3.803097 -18.626308 1.965898 6.500000
4.416181 -18.623466 1.979270 24.500000
4.519298 -18.666290 1.986059 29.000000
4.306285 -18.549150 1.969190 32.000000
4.233788 -18.500532 1.962607 39.000000
-5.856850 -18.340883 1.990996 3.000000
4.073442 -18.328682 1.941623 38.000000
4.154635 -18.420589 1.952732 35.000000
4.010734 -18.318068 1.939154 43.000000
-6.639396 -17.341436 1.920227 1.000000
-3.689546 -15.943090 1.981764 5.000000
-3.772175 -15.846195 1.972627 2.000000
-3.592633 -15.749411 1.956276 5.000000
-4.153953 -15.688815 1.965413 5.000000
-3.522237 -15.667635 1.944735 11.000000
-4.907524 -15.536306 1.973108 1.000000
-4.941813 -15.475419 1.967337 2.000000
11.608435 -15.449820 1.998403 48.500000
11.645086 -15.347393 1.992231 49.000000
-3.973554 -15.298894 1.914198 8.500000
-6.563309 -15.116220 1.995710 5.000000
-5.680602 -14.977915 1.939926 2.000000
-5.343033 -14.857077 1.912034 11.000000
-5.406172 -14.813104 1.909630 11.000000
-6.488613 -14.324000 1.904340 5.000000
-6.400804 -14.369889 1.905061 6.500000
-4.330750 -13.702024 1.995300 24.000000
-3.966208 -13.580965 1.964493 13.000000
4.627412 -13.038471 1.921033 4.000000
4.641611 -12.949277 1.910030 47.000000
4.663390 -12.882475 1.902329 57.000000
-7.611691 -12.124702 1.987781 20.000000
3.442168 -12.196856 1.986395 5.000000
3.472872 -12.159383 1.982059 2.000000
3.338905 -12.023303 1.955838 8.000000
7.425949 -12.070706 1.967793 38.000000
-7.010445 -11.987333 1.928185 1.000000
3.260669 -11.984714 1.946753 8.000000
7.175303 -11.829189 1.921033 46.000000
7.253738 -11.874208 1.932035 53.000000
-7.947618 -11.738583 1.968344 27.000000
-7.062466 -11.735349 1.901779 30.000000
-6.988590 -11.779491 1.901779 30.000000
5.091213 -11.510662 1.972768 29.000000
-5.342359 -11.175459 1.941489 19.000000
4.990511 -11.187848 1.920119 39.000000
6.144230 -11.048075 1.981439 65.000000
-12.027468 -10.712317 1.950506 1.000000
6.966165 -10.637362 1.993001 54.000000
-6.931081 -10.555649 1.979271 22.500000
7.016154 -10.568161 1.988253 50.000000
7.088993 -10.569420 1.994756 57.000000
-7.144742 -10.481657 1.988253 0.000000
-6.684613 -10.500855 1.951089 24.200001
-6.601732 -10.515907 1.946134 8.000000
-6.409204 -10.426166 1.918261 8.000000
4.142546 -10.505713 1.972966 12.000000
4.273387 -10.482183 1.977670 8.166667
-6.859545 -10.340097 1.944895 28.000000
-6.726926 -10.422158 1.944276 3.000000
-6.392006 -10.325338 1.903396 9.000000
-6.400516 -9.140862 1.949561 21.333334
-5.138337 -8.943051 1.988239 13.500000
-5.030728 -8.949936 1.979153 12.750000
-4.856839 -9.015079 1.974005 20.000000
-4.742323 -8.949860 1.952502 27.000000
-4.599791 -8.923392 1.935239 34.000000
-4.466770 -8.962920 1.930444 15.333333
-5.196474 -8.894823 1.985816 20.799999
-4.509908 -8.897247 1.922873 31.333332
-5.402916 -8.785750 1.988239 0.000000
-6.929991 -8.625335 1.933039 81.000000
-5.390779 -8.291566 1.906468 13.000000
-4.559885 -8.233201 1.986435 31.750000
-4.599991 -8.153681 1.975903 27.000000
6.813266 -7.606853 1.968553 4.000000
-4.440974 -7.455528 1.993272 26.250000
-4.346790 -7.429704 1.977154 6.000000
6.800138 -7.497024 1.951139 61.000000
6.844600 -7.357963 1.937208 63.000000
-5.456127 -7.243155 1.913949 37.000000
6.963921 -7.299969 1.944830 45.333332
8.429816 -7.165282 1.932901 42.200001
12.130457 -7.196813 1.958441 0.000000
12.170075 -7.168723 1.961192 18.000000
-5.067995 -7.045208 1.993451 17.200001
8.472997 -7.083490 1.929459 41.400002
-5.924941 -6.937045 1.925514 9.500000
12.505129 -6.974559 1.988148 7.500000
-4.766939 -6.906479 1.927546 24.000000
-5.340526 -6.730910 1.973572 43.000000
-5.238892 -6.775890 1.967304 33.000000
-5.196377 -6.655866 1.939545 30.000000
8.937579 -6.555702 1.936481 0.000000
-7.669788 -6.447127 1.931454 26.000000
-5.811716 -6.468124 1.997301 11.000000
-5.289165 -6.455096 1.916860 16.333334
7.496134 -6.473749 1.909307 58.750000
8.967939 -6.470315 1.932006 21.500000
9.000888 -6.387143 1.928220 37.000000
10.322762 -6.379190 1.902002 13.000000
10.416500 -6.324511 1.910054 14.750000
-8.183521 -6.306786 1.991646 18.500000
-6.976809 -6.268685 1.979620 21.500000
9.034986 -6.299981 1.924348 34.250000
10.499096 -6.273630 1.917022 2.000000
-6.981409 -6.213654 1.972599 29.000000
-6.832672 -6.197661 1.946991 44.000000
9.113127 -6.190936 1.924778 37.000000
9.181385 -6.160255 1.931662 30.333334
-8.226917 -6.076492 1.971582 6.000000
6.173446 -6.115535 1.995958 30.000000
-7.311024 -5.990400 1.994902 51.000000
6.127772 -5.975680 1.965961 64.500000
6.148521 -5.996160 1.972677 60.500000
-7.435445 -5.855216 1.997518 32.000000
-7.312128 -5.895875 1.982511 73.250000
6.183457 -5.843393 1.954171 65.333336
6.276336 -5.756161 1.956111 53.000000
6.379857 -5.774739 1.976557 39.333332
-8.352742 -5.695720 1.948868 1.000000
-8.426575 -5.478557 1.937511 17.000000
-8.302628 -5.472440 1.916879 20.000000
-5.173231 -5.028991 1.928202 24.000000
-5.077689 -5.067196 1.917186 23.166666
-5.149523 -5.016367 1.921317 17.666666
-7.713081 -4.889200 1.927441 33.000000
-7.550035 -4.807817 1.999988 35.000000
-5.304560 -4.781280 1.908579 13.000000
-5.393560 -4.710079 1.913743 5.000000
-7.997138 -4.250364 1.911471 0.000000
-7.611434 -4.127476 1.988795 18.333334
-7.465566 -4.150161 1.961931 5.000000
-7.573027 -4.045287 1.972080 20.666666
-7.476498 -4.110221 1.959693 25.000000
-6.605991 -4.005460 1.918014 20.000000
-8.584177 -3.784302 1.980033 24.000000
-8.428858 -3.758058 1.947817 35.000000
-6.757373 -3.784313 1.922833 27.000000
-8.504842 -3.632887 1.951948 1.000000
-7.729976 -3.652293 1.963722 9.000000
-8.610420 -3.315564 1.947404 3.500000
-8.520805 -3.204460 1.921384 1.000000
-7.708685 -3.031077 1.902608 40.000000
-8.856376 -2.985662 1.972599 0.000000
-8.687536 -2.989669 1.939144 13.750000
7.376881 -2.934126 1.971024 11.000000
7.295590 -2.835731 1.943314 59.750000
-6.787355 -2.749163 1.957120 6.000000
-6.950953 -2.714257 1.994300 66.000000
7.223417 -2.690775 1.913773 61.200001
-7.914217 -2.448346 1.902832 34.000000
-7.298918 -2.435104 1.910303 18.000000
7.032081 -2.475823 1.992492 66.750000
-8.889974 -2.327265 1.939557 4.000000
-8.709023 -2.367824 1.904863 2.000000
-6.818421 -2.351267 1.927582 22.000000
7.078495 -2.373902 1.995333 60.500000
7.498991 -2.406135 1.955281 39.333332
-7.706306 -2.278322 1.995120 32.000000
-7.454544 -2.306141 1.937290 31.000000
-6.820206 -2.258342 1.920087 28.428572
-8.292297 -2.032179 1.961036 4.000000
-7.410125 -2.115025 1.913195 66.000000
-8.851855 -2.022466 1.916427 3.000000
-8.283483 -2.002455 1.957454 0.000000
-8.059505 -1.908173 1.902384 4.000000
-7.793493 -1.793539 1.985481 5.500000
-7.666181 -1.516554 1.940182 0.000000
-8.203018 -1.338884 1.909100 33.000000
-7.593820 -1.263958 1.911267 37.000000
-7.052169 -1.219390 1.912710 67.000000
-8.502395 -1.033419 1.967304 24.000000
-7.263837 -1.057173 1.961767 58.500000
9.043440 -1.031972 1.921108 16.333334
8.588050 -0.427589 1.975064 2.666667
9.401174 -0.260997 1.984989 8.333333
9.470098 -0.312501 1.999858 2.000000
-7.723322 -0.182010 1.918014 72.000000
9.190540 -0.129992 1.939970 2.500000
7.405825 -0.112450 1.979497 4.000000
9.242189 -0.058019 1.950708 13.000000
-8.323250 -0.013073 1.911786 15.000000
7.379321 -0.011616 1.972198 15.800000
9.103433 -0.014299 1.921384 20.000000
7.367435 0.115736 1.969255 4.000000
7.786264 0.142715 1.933435 10.000000
-9.238501 0.188682 1.950295 2.000000
7.936219 0.253571 1.971345 25.666666
7.951677 0.212389 1.974879 24.000000
9.095478 0.271536 1.920558 15.000000
9.169706 0.201700 1.935840 7.000000
-8.550398 0.282139 1.965065 16.000000
-7.159538 0.315069 1.915292 10.500000
7.957081 0.287601 1.976807 7.000000
9.282339 0.306305 1.960208 17.000000
9.448395 0.371228 1.995728 12.000000
-8.589859 0.418611 1.975363 4.000000
-8.351013 0.433275 1.920740 22.000000
-7.956716 0.387756 1.977771 25.000000
9.384617 0.398255 1.982511 0.000000
7.254585 0.513652 1.943694 5.000000
-8.450921 0.691799 1.947604 59.000000
8.994141 0.731508 1.904588 15.333333
-7.613229 0.804212 1.900665 2.000000
8.659409 0.873492 1.999092 6.000000
8.400279 0.967488 1.942231 2.000000
-7.167351 1.008582 1.934399 66.000000
9.270734 1.018561 1.968468 3.000000
7.025210 1.146645 1.902382 35.000000
7.800847 1.172805 1.958494 22.000000
-8.496883 1.236609 1.972229 3.500000
-8.946608 1.431413 1.912297 16.000000
7.556386 1.511353 1.913194 8.333333
-8.962567 1.724296 1.926340 21.000000
-9.054152 1.815894 1.949056 13.000000
-8.927651 1.790300 1.921797 37.500000
-8.508400 1.803859 1.997749 4.000000
-8.057483 1.974698 1.905518 2.000000
-6.847477 2.047772 1.910128 13.000000
-7.398926 2.111828 1.910303 4.000000
-8.185339 2.322407 1.954320 30.500000
8.015310 2.342322 1.918054 10.000000
-9.052139 2.522293 1.983337 9.000000
-8.755383 3.074673 1.958556 37.000000
-8.060581 3.031377 1.978049 6.000000
-8.824865 3.177110 1.979620 36.500000
-7.873455 3.189079 1.951186 34.000000
-8.468930 3.307007 1.918906 3.000000
-8.043835 3.287542 1.995958 11.000000
-8.495627 3.441085 1.934601 14.000000
-7.199011 3.597144 1.998011 17.000000
6.394825 3.634240 1.965795 56.000000
-6.045074 3.743724 1.900317 83.000000
6.362941 3.763122 1.975710 53.666668
-8.617191 3.777301 1.985815 6.000000
-6.922473 3.934109 1.976807 10.000000
-6.822882 3.943803 1.956567 33.666668
-6.722695 3.961549 1.937290 60.000000
6.348380 3.890436 1.989911 53.250000
6.694740 3.959248 1.931025 51.000000
6.755212 3.952173 1.943073 12.000000
-8.567118 4.047830 1.999858 10.000000
-6.700759 4.048599 1.943716 53.333332
-6.489660 4.075693 1.902592 2.000000
6.701003 4.005704 1.938254 47.000000
7.264365 4.056238 1.911070 5.600000
6.727950 4.159360 1.963795 1.500000
6.776719 4.094487 1.965723 33.500000
-9.086864 4.258530 1.934482 2.000000
-8.231337 4.275839 1.957730 2.000000
-5.771518 4.179438 1.904448 9.666667
6.781210 4.219354 1.982911 2.333333
-9.109251 4.321535 1.943568 10.500000
-5.868671 4.334666 1.949890 16.000000
-5.829294 4.277345 1.932333 0.000000
-6.379121 4.453336 1.931507 3.000000
-7.266423 4.643565 1.980736 11.000000
-6.189247 4.662240 1.923797 0.000000
6.993167 4.577944 1.919845 0.000000
9.120472 4.611078 1.970068 3.000000
-8.948125 4.755801 1.953411 0.000000
-7.055217 4.682152 1.944918 2.000000
-6.876649 4.689175 1.911786 6.000000
-5.534710 4.712072 1.942661 87.000000
8.893512 4.774656 1.945839 16.000000
8.956074 4.724000 1.951896 6.000000
-6.772177 4.855560 1.914025 27.000000
-5.455186 4.794127 1.940940 33.333332
-6.700763 4.884491 1.904622 2.000000
8.934501 4.937315 1.967796 28.000000
-6.908546 5.069264 1.968199 12.000000
8.861321 5.035977 1.964768 22.000000
9.001079 5.003765 1.985210 0.000000
-8.639855 5.127933 1.936754 1.000000
-6.012427 5.118785 1.960422 12.000000
-5.937529 5.152323 1.951748 36.000000
-5.780344 5.128036 1.918496 37.500000
8.834311 5.085110 1.964957 15.500000
8.805752 5.263874 1.977639 0.000000
-4.795437 5.456575 1.941456 36.333336
-4.775110 5.566210 1.960012 47.200001
8.656734 5.512823 1.978396 13.000000
-4.725096 5.693365 1.977388 20.625000
-6.334490 5.782160 1.969990 3.000000
-6.175951 5.781374 1.943127 39.000000
-6.057816 5.815330 1.928800 17.000000
-5.120783 5.845215 1.929338 38.000000
-4.612889 5.822213 1.985234 37.777779
-5.278570 5.893402 1.964277 34.000000
-5.055872 5.938526 1.936326 25.000000
-4.829350 5.970141 1.906448 0.000000
9.333961 6.037494 1.942126 64.000000
-5.056649 6.131987 1.973273 10.666667
9.324368 6.169405 1.953347 76.750000
-4.848691 6.230568 1.960101 21.666668
-4.683925 6.177677 1.924760 12.500000
9.323121 6.274329 1.963329 6.000000
-4.713262 6.349807 1.963313 22.000000
-4.613216 6.307812 1.940182 38.000000
-7.796875 6.429532 1.948111 0.000000
-4.609730 6.436466 1.965562 2.333333
-7.815927 6.486606 1.957953 0.000000
-7.833654 6.584817 1.972718 20.500000
-6.050413 6.670332 1.900733 34.000000
-6.338819 6.737399 1.952443 32.000000
-6.052327 6.800150 1.921384 7.000000
-6.999457 6.962873 1.903187 36.666668
-6.396679 6.963653 1.995728 37.000000
-6.285061 6.885432 1.967642 46.000000
-7.005287 7.086370 1.920854 31.333334
-6.875663 7.095171 1.904575 40.500000
-6.979800 7.179938 1.930318 38.500000
-6.850420 7.203794 1.916311 36.500000
-5.424826 7.344626 1.927166 10.000000
-6.922957 7.418746 1.956061 32.000000
-6.572789 7.447499 1.914797 30.666666
-5.536606 7.446899 1.958556 1.000000
-7.074991 7.510424 1.988996 38.000000
-6.934843 7.549533 1.976125 36.500000
-6.820056 7.542601 1.960225 36.500000
-6.606048 7.564657 1.935996 53.000000
-5.688050 7.477452 1.982924 10.500000
-5.519478 7.622028 1.986228 34.500000
-6.041757 7.968384 1.927668 69.000000
-8.842801 8.867526 1.962857 1.000000
-5.891217 9.183559 1.906191 14.000000
-7.371548 9.976633 1.944276 0.000000
-7.153267 9.940176 1.919500 4.000000
-7.035756 9.907598 1.904635 44.000000
-6.998316 9.987206 1.911448 17.000000
-6.892728 10.002813 1.904015 25.500000
-8.329103 11.422052 1.962842 0.000000
-7.506602 11.541509 1.911681 63.000000
-7.496104 11.604969 1.918282 60.000000
-7.185608 12.058739 1.949089 54.500000
-6.886353 12.068153 1.929285 3.500000
-7.303680 12.126581 1.965593 17.000000
-7.119709 12.120743 1.951840 55.000000
-6.968888 12.080199 1.936436 3.000000
10.190800 15.315220 1.902329 4.500000
10.107286 15.938803 1.951703 8.500000
17.833120 21.920189 1.932384 32.000000
-7.590389 -22.309376 2.023571 32.000000
-4.407068 -19.748302 2.092418 19.000000
-3.703029 -19.787109 2.081721 5.000000
-4.299932 -19.704744 2.085629 10.000000
3.594594 -19.643326 2.065057 1.000000
3.854158 -19.662981 2.072052 3.000000
-3.765877 -19.611210 2.065057 9.000000
-3.821719 -19.407791 2.045513 14.500000
5.537885 -19.376699 2.083984 3.000000
-4.527079 -19.286158 2.048599 20.000000
-4.447628 -19.218882 2.039959 10.000000
-3.177980 -19.134449 2.005809 5.000000
-5.767756 -18.877258 2.041193 15.000000
5.006267 -18.854660 2.017329 5.000000
-6.834070 -18.725595 2.061354 4.000000
-5.789443 -18.737398 2.028027 0.000000
4.794866 -18.769936 2.003340 4.000000
4.871797 -18.743242 2.002654 27.333334
5.127380 -18.716885 2.006837 3.000000
-6.607696 -18.464727 2.028027 1.000000
-3.946898 -16.580173 2.063997 29.000000
-3.977537 -16.478909 2.052936 2.000000
-4.793735 -16.235395 2.050051 13.000000
5.479462 -16.151196 2.065439 3.500000
5.641858 -16.177612 2.074865 6.600000
-5.798257 -16.043755 2.065920 6.000000
11.642158 -15.959530 2.042839 3.000000
12.220636 -15.949225 2.077812 5.000000
12.334602 -15.941851 2.084395 1.000000
11.496780 -15.656693 2.008689 15.000000
11.614492 -15.713288 2.020621 46.000000
11.611549 -15.606494 2.011569 51.000000
12.087477 -15.471216 2.030290 8.000000
12.218985 -15.438667 2.036050 14.500000
12.434216 -14.876435 2.004986 16.000000
3.210788 -14.676764 2.086070 9.000000
3.420206 -14.639532 2.087445 18.000000
3.542990 -14.644972 2.092122 1.000000
3.106402 -14.527045 2.062690 5.500000
3.303372 -14.604364 2.079056 9.500000
4.004408 -14.537916 2.093772 61.000000
2.977427 -14.479224 2.052513 1.000000
4.076304 -14.443833 2.083870 62.000000
4.008560 -14.376424 2.072317 61.000000
-5.008905 -14.235668 2.095422 21.250000
-4.885208 -14.276529 2.095147 15.500000
4.129167 -14.287218 2.064982 51.333332
4.231177 -14.247730 2.063698 20.333334
-5.072489 -14.166907 2.089371 19.000000
-4.738591 -14.186674 2.076810 20.333332
-9.395548 -14.072060 2.049089 1.000000
-4.482306 -14.028011 2.044811 10.000000
9.413349 -13.887791 2.031777 4.000000
-4.257038 -13.769296 2.001168 29.333334
9.930206 -13.642723 2.043478 5.000000
9.974871 -13.539467 2.036586 38.000000
10.723904 -13.622786 2.099583 11.666667
10.763612 -13.555982 2.096216 0.000000
10.111076 -13.500906 2.042677 58.666668
10.296247 -13.459518 2.052215 58.000000
10.402877 -13.445193 2.058707 4.000000
10.820238 -13.281116 2.074576 5.000000
-10.559473 -13.063153 2.034181 3.000000
10.714881 -13.026072 2.042597 1.000000
11.141731 -13.036077 2.076740 5.500000
-8.072486 -12.336052 2.047011 0.000000
8.431215 -12.401533 2.082219 11.500000
8.494364 -12.327103 2.078644 15.500000
8.570518 -12.271862 2.078368 5.000000
4.860614 -12.021161 2.032384 21.000000
8.589743 -12.015741 2.050862 3.000000
5.356354 -11.907311 2.046476 37.000000
-5.484077 -11.755323 2.033159 17.500000
-5.666085 -11.710423 2.039043 3.000000
-5.462649 -11.566772 2.004976 17.000000
6.241432 -11.562572 2.059483 0.000000
-5.913328 -11.476515 2.023558 0.000000
-5.719206 -11.450926 2.006215 12.000000
6.247515 -11.487362 2.049573 45.000000
6.266305 -11.393741 2.038114 52.000000
-6.589349 -11.267293 2.045856 17.000000
6.363078 -11.274199 2.029133 59.333332
6.513940 -11.250501 2.037649 54.500000
6.654730 -11.288478 2.053908 47.000000
-6.691195 -11.197904 2.044617 15.000000
-6.623720 -11.164492 2.034707 18.000000
-4.889290 -10.879167 2.083799 23.000000
4.830626 -10.921469 2.086381 50.000000
6.936526 -10.763464 2.007041 36.333332
-5.022851 -10.678957 2.061770 10.500000
-4.927567 -10.649493 2.050067 6.500000
-13.242910 -10.583031 2.052936 1.000000
7.185254 -10.568790 2.003118 53.000000
-6.107122 -10.040524 2.053165 1.500000
-6.174401 -9.973829 2.049379 3.000000
-5.596050 -9.229266 2.080609 17.000000
-5.045673 -9.143993 2.013224 26.000000
-5.759666 -9.044349 2.066981 4.000000
-5.530856 -9.057444 2.045781 22.000000
-5.617105 -8.943910 2.035938 17.500000
-5.338439 -8.930489 2.005653 31.000000
-5.504938 -8.888945 2.015496 6.000000
-4.667317 -8.781646 2.098984 6.000000
-4.466280 -8.532189 2.032625 9.333333
-4.522379 -8.369076 2.007788 27.200001
12.680501 -8.072150 2.087170 11.000000
12.606587 -7.749561 2.054713 0.000000
12.651162 -7.722302 2.058014 11.000000
-5.843560 -7.557958 2.016379 16.000000
-5.041534 -7.527760 2.081026 16.000000
-5.964037 -7.372861 2.001510 35.000000
-4.684276 -7.392304 2.010158 28.285715
-4.629362 -7.422933 2.009390 11.000000
-5.249835 -7.249699 2.055954 26.000000
-5.163289 -7.177545 2.030881 25.000000
-5.395693 -7.024187 2.034463 14.000000
12.596374 -7.103485 2.007952 7.000000
-5.166858 -7.018236 2.001779 40.000000
-8.187396 -6.838445 2.056381 51.000000
-5.765795 -6.859175 2.058192 2.500000
-8.431215 -6.820158 2.090452 13.000000
-5.699316 -6.780156 2.034463 11.000000
8.045609 -6.763041 2.026096 60.000000
-5.740594 -6.623933 2.013330 24.799999
7.393743 -6.539129 2.083289 62.000000
-5.895809 -6.499891 2.015658 20.000000
7.437617 -6.495086 2.084115 68.333336
9.892279 -6.462224 2.064352 7.000000
8.445355 -6.361722 2.038210 0.000000
8.382331 -6.252600 2.015874 5.000000
7.410552 -6.124024 2.029045 36.666668
-7.935575 -5.958179 2.094440 13.500000
-7.790177 -6.023103 2.078333 10.000000
7.404970 -5.990159 2.010266 64.800003
-8.580902 -5.890877 2.006410 27.000000
-8.536777 -5.913332 2.001867 11.333333
7.451308 -5.874116 2.002612 72.666664
7.564065 -5.829146 2.015553 61.250000
7.693781 -5.833549 2.037856 1.000000
-8.043139 -5.734975 2.084941 41.000000
-8.177028 -5.563304 2.087419 19.666666
9.271955 -5.424608 2.070767 12.000000
-8.315551 -5.332341 2.084941 7.000000
-7.517534 -5.126280 2.089981 61.500000
-7.440338 -5.130813 2.075952 51.666668
-7.645516 -5.004990 2.098935 3.000000
-7.585157 -4.776927 2.058998 30.799999
-7.483691 -4.754800 2.036552 37.000000
-7.672659 -4.707321 2.067594 26.333334
-7.623045 -4.720963 2.059535 36.000000
-7.739335 -4.029123 2.004145 17.714285
-7.329091 -4.074294 2.081864 25.000000
-8.705347 -3.996668 2.021749 4.500000
-8.082396 -4.006862 2.072072 27.000000
-7.989995 -3.929834 2.045208 40.000000
-7.884935 -3.939881 2.024613 44.000000
-6.595575 -3.999144 2.061431 19.000000
-6.543402 -3.995676 2.049037 0.000000
-8.691866 -3.908101 2.011423 11.000000
-8.156513 -3.895705 2.076250 18.333334
-8.099899 -3.899970 2.064908 33.333332
-7.785473 -3.920794 2.002226 3.000000
-6.560682 -3.903330 2.016000 50.500000
-6.726438 -3.766988 2.060398 35.000000
-6.617906 -3.791888 2.020240 56.250000
-7.997930 -3.679483 2.022150 12.500000
-8.542244 -3.212523 2.096249 2.000000
-7.749560 -3.026102 2.065479 20.000000
-8.307111 -2.976227 2.026851 30.500000
-8.231983 -2.949100 2.008495 35.000000
-7.579920 -2.905105 2.015360 25.000000
7.325058 -2.807492 2.096545 56.666668
7.153150 -2.638936 2.037677 60.000000
7.267286 -2.720052 2.073824 58.500000
-8.583100 -2.566892 2.057744 0.000000
7.048884 -2.575341 2.005661 61.000000
-7.072843 -2.508793 2.005661 7.000000
7.429975 -2.426965 2.088972 62.333332
-8.663533 -2.326248 2.060431 28.000000
-8.490881 -2.337184 2.022822 40.000000
-8.078602 -2.360818 2.089575 21.000000
8.097205 -2.393890 2.096321 25.000000
-8.809977 -2.306323 2.091771 16.000000
-7.291151 -2.255531 2.039742 37.400002
7.826929 -2.273911 2.023553 14.500000
-7.480760 -2.211676 2.084840 26.333334
-8.146466 -1.780719 2.070298 21.666666
-7.492619 -1.054354 2.022185 13.000000
8.957556 -0.889347 2.067594 20.000000
9.603680 -0.831768 2.034552 0.000000
8.823553 -0.750256 2.034015 13.500000
9.612617 -0.771724 2.035378 3.000000
-8.799135 -0.664696 2.026851 21.500000
-8.957704 -0.605972 2.062222 12.333333
-8.906887 -0.546330 2.049685 12.000000
