# This PCD file was generated using the MATLAB® pcwrite function
# from Computer Vision Toolbox®.
# .PCD v.7 - Point Cloud Data file format
VERSION .7
FIELDS x y z intensity
SIZE 4 4 4 4
TYPE F F F F
COUNT 1 1 1 1
WIDTH 1246
HEIGHT 1
VIEWPOINT 0 0 0 1 0 0 0
POINTS 1246
DATA ascii
-5.666987 -6.963289 1.246581 17.000000
-5.867525 -6.894319 1.257033 34.000000
-5.792159 -6.937064 1.254833 2.500000
-5.634701 -6.901305 1.237091 26.250000
-5.541786 -6.942075 1.233378 5.000000
-5.311749 -6.301230 1.291745 23.000000
-11.002630 -6.076285 1.299764 0.000000
-8.296322 -6.092024 1.246477 1.000000
-8.276022 -5.957883 1.234936 1.000000
-7.061894 -5.976220 1.284539 42.000000
-6.241245 -5.281735 1.281525 5.000000
-6.049603 -5.352236 1.266040 9.000000
-8.627942 -5.143209 1.216421 12.500000
-7.671038 -5.092766 1.278488 8.000000
-7.605590 -5.083816 1.270236 2.000000
-7.436809 -5.141816 1.255383 12.000000
-7.584461 -5.001032 1.261434 5.000000
-5.314462 -4.992311 1.273892 28.000000
-5.245808 -5.002895 1.266457 18.500000
-8.052432 -4.764081 1.299118 6.500000
-6.472821 -4.658050 1.249936 12.000000
6.824085 -4.589054 1.288958 0.000000
-6.708743 -4.484334 1.264801 28.000000
6.766686 -4.473818 1.271460 64.000000
-7.670004 -4.456885 1.231728 6.000000
-9.341800 -4.346250 1.247759 27.333334
-5.967954 -4.294732 1.284562 76.000000
-5.822392 -4.273843 1.261845 72.000000
-4.996017 -4.311636 1.242269 21.000000
6.796155 -4.326295 1.262766 72.285713
-9.235332 -4.191277 1.228203 16.000000
-5.813812 -4.225449 1.255649 77.500000
-5.681893 -4.212059 1.235685 2.000000
6.877903 -4.242908 1.266659 65.000000
6.953400 -4.229356 1.275641 23.500000
7.138399 -4.010855 1.283383 54.500000
-5.036887 -3.907084 1.228832 38.250000
-3.654963 -3.867586 1.222289 0.000000
7.115273 -3.881076 1.270376 70.333336
-6.781056 -3.660389 1.207817 42.000000
-5.132137 -3.667477 1.215960 76.000000
18.436365 -3.720771 1.286163 0.000000
-6.444938 -3.557834 1.286168 24.666666
-5.075028 -3.620637 1.201764 11.250000
18.432137 -3.629597 1.284662 17.500000
-6.438399 -3.501587 1.280432 35.000000
-6.254792 -3.556103 1.257026 1.000000
-6.212744 -3.429619 1.239816 39.000000
6.378106 -3.414180 1.263910 77.000000
-6.587256 -3.292904 1.286627 74.000000
-6.255410 -3.326061 1.237751 79.000000
-5.410607 -3.280653 1.219746 5.000000
6.280537 -3.261150 1.236374 66.199997
6.287889 -3.340515 1.243946 61.000000
7.336732 -3.290276 1.260311 75.625000
-6.460755 -3.255075 1.263910 77.000000
-6.187619 -3.166365 1.214345 81.000000
-5.433621 -3.208969 1.216496 29.416666
7.420600 -3.168146 1.264677 77.000000
-8.128311 -3.058472 1.205872 23.000000
-7.589385 -3.094189 1.284622 26.666666
-7.486309 -3.116250 1.270995 23.000000
-5.947196 -3.065531 1.289781 34.500000
6.332282 -3.137854 1.234702 78.285713
7.544947 -3.095804 1.278273 55.250000
7.643294 -3.066388 1.290816 0.000000
-6.508260 -2.964606 1.249454 1.000000
-5.963755 -2.974164 1.284670 37.000000
-5.574359 -3.037980 1.223784 44.666668
-5.366471 -2.983137 1.239425 11.500000
6.409434 -3.039255 1.239300 71.250000
6.499507 -3.007281 1.251175 57.000000
7.652890 -3.042361 1.290816 0.000000
-6.024820 -2.928083 1.291295 40.500000
-5.515671 -2.920376 1.203089 75.500000
-5.167634 -2.915378 1.252286 15.000000
-10.027671 -2.831876 1.261866 6.000000
-8.409331 -2.836589 1.232278 14.000000
-8.222766 -2.831326 1.207522 2.000000
-6.826007 -2.816267 1.290069 10.000000
-6.661757 -2.814083 1.263451 10.000000
-6.582935 -2.764507 1.247388 33.000000
-6.352056 -2.769853 1.210673 1.333333
-6.056930 -2.843158 1.289857 44.799999
-5.347840 -2.856709 1.242473 35.333332
-5.202461 -2.854667 1.252493 29.500000
-8.440541 -2.729476 1.231728 0.000000
-7.261164 -2.667243 1.212462 8.000000
-7.186361 -2.704041 1.203481 13.000000
-5.162230 -2.712564 1.230809 32.000000
-8.290585 -2.652241 1.208622 6.000000
-7.386157 -2.643154 1.229599 23.166666
-7.293101 -2.536871 1.210295 14.000000
-6.784922 -2.504533 1.263566 2.000000
-6.704578 -2.522758 1.251519 34.000000
-6.586115 -2.501831 1.230867 2.000000
-7.814299 -2.418930 1.282144 3.000000
-7.606799 -2.407176 1.250555 2.000000
-7.463694 -2.400642 1.228876 14.500000
-6.850215 -2.238996 1.259091 53.000000
-6.673192 -2.131001 1.223868 22.833334
-6.028758 -1.923386 1.219897 18.000000
-5.955019 -1.945094 1.207632 9.000000
-5.744551 -1.936511 1.266997 31.777779
-6.101602 -1.845668 1.228832 13.000000
-5.963305 -1.834582 1.202710 4.000000
-6.464894 -1.605889 1.284102 29.000000
-6.199698 -1.612591 1.234889 8.000000
-6.100522 -1.603822 1.215960 16.333334
-7.836140 -1.521746 1.251175 37.500000
-7.082680 -1.549453 1.266664 0.000000
-6.854673 -1.522156 1.226736 0.000000
-6.158918 -1.550441 1.224289 12.000000
-7.687917 -1.455428 1.226399 3.000000
-7.560854 -1.382221 1.204720 17.000000
-6.944880 -1.359980 1.236374 17.000000
-6.375315 -1.456628 1.260631 41.000000
-6.887488 -1.303896 1.224671 24.000000
-6.352160 -1.284281 1.249274 9.000000
-6.172280 -1.303702 1.216086 19.250000
-6.930498 -1.244494 1.230178 54.000000
-6.773388 -1.216316 1.202298 27.000000
-8.963678 -1.119664 1.254283 0.000000
-6.124093 -1.118458 1.200060 32.000000
-9.004601 -1.010027 1.258134 0.000000
-8.777038 -1.012435 1.226776 2.000000
-6.081510 -1.029867 1.213869 35.111111
-5.949580 -1.037808 1.219980 58.500000
-6.610928 -0.909110 1.286374 43.000000
-6.276608 -0.943646 1.223532 67.000000
-5.859036 -0.871474 1.250221 34.500000
-8.672305 -0.835047 1.209723 3.000000
-6.397285 -0.803132 1.242902 41.541664
-8.008589 -0.707635 1.260156 30.250000
-6.501966 -0.741165 1.213906 32.200001
-7.387863 -0.594413 1.294888 2.000000
-6.562891 -0.582362 1.270138 62.111111
-7.976470 -0.519120 1.252878 17.000000
-7.292535 -0.494599 1.276990 66.000000
-7.196615 -0.510810 1.260468 62.000000
-7.061371 -0.523510 1.237062 40.000000
-8.250530 -0.377541 1.294532 9.000000
-8.053238 -0.444586 1.264182 13.666667
-6.690969 -0.446253 1.211599 38.333332
-6.554458 -0.405654 1.220095 28.615385
-8.156737 -0.307351 1.279401 26.000000
-8.053459 -0.258743 1.262943 13.333333
-7.913131 -0.187865 1.240645 6.000000
-7.684530 -0.158286 1.204720 17.000000
7.347842 -0.225794 1.284333 36.000000
-8.029702 -0.064468 1.258607 9.000000
-6.666636 -0.089042 1.285238 22.000000
-6.266830 -0.147756 1.208389 5.333333
7.241590 -0.135408 1.265402 62.333332
-7.709778 -0.037679 1.208436 39.000000
-6.663057 0.000503 1.217369 22.222221
7.205724 -0.010154 1.258919 65.000000
-6.156181 0.048352 1.299371 0.000000
7.178800 0.072675 1.254272 69.666672
-7.745090 0.174057 1.214276 41.857143
-6.519635 0.235647 1.257603 46.000000
7.245782 0.183642 1.266319 63.166668
-7.751970 0.287021 1.215869 8.000000
-6.655162 0.302912 1.224269 18.500000
-6.592113 0.342111 1.272493 34.333332
-6.403594 0.285157 1.235646 27.666666
7.319327 0.288869 1.279743 64.666664
-7.332424 0.425352 1.283185 13.000000
-6.660370 0.452204 1.238789 30.900000
-6.610903 0.447210 1.277288 13.000000
-7.978714 0.613930 1.254272 5.000000
-7.096309 0.590930 1.244084 38.799999
-6.662919 0.597439 1.229569 42.000000
-6.553730 0.615892 1.268960 39.666668
-7.872309 0.655520 1.238167 16.000000
-6.313807 0.687015 1.224289 39.000000
-6.296404 0.665111 1.220503 41.000000
7.857656 0.731699 1.236928 3.000000
-6.892262 0.836496 1.212968 61.000000
-6.675074 0.782411 1.255364 35.333332
-6.488856 0.802458 1.260379 25.666666
-6.341306 0.821303 1.232617 33.000000
6.980656 0.827450 1.228113 7.000000
6.955340 0.879821 1.224843 44.500000
-6.979405 1.003274 1.231899 58.750000
-6.822284 1.002560 1.204707 69.000000
-6.422012 0.969698 1.252000 43.000000
6.818850 0.949766 1.202814 54.500000
-6.339025 1.075580 1.239431 0.000000
6.575571 1.136980 1.286374 55.000000
6.668972 1.107140 1.221580 53.833332
-7.562594 1.233000 1.201004 67.000000
-6.862856 1.196657 1.217098 65.000000
-6.260896 1.211545 1.229336 36.666668
6.517815 1.215870 1.223470 56.909092
-6.570349 1.297976 1.291043 34.666664
6.427496 1.268010 1.262903 64.500000
-8.731831 1.423632 1.228427 1.000000
-7.294482 1.378308 1.296953 20.000000
-7.192868 1.405969 1.280432 24.000000
-6.445692 1.430157 1.272745 48.000000
-6.257758 1.351511 1.234131 35.400002
6.412089 1.359484 1.263552 60.142857
-7.150622 1.514693 1.276990 12.000000
-7.035578 1.524971 1.257714 35.500000
-6.371000 1.523491 1.245724 35.142857
6.429672 1.447810 1.270474 47.000000
6.502770 1.473212 1.236828 13.200000
-8.029846 1.576109 1.282609 25.250000
-6.866858 1.601730 1.231899 59.500000
-6.688664 1.593466 1.201265 42.000000
-6.556230 1.649848 1.241822 44.000000
-7.000805 1.807925 1.263222 12.000000
-6.660338 1.749789 1.203101 35.000000
-6.823567 1.849205 1.235135 20.000000
-6.829574 1.948005 1.240780 14.200000
-6.393816 1.977994 1.290159 51.000000
-6.308851 1.973446 1.274260 45.000000
-7.580519 2.136501 1.234451 0.000000
-7.399888 2.135870 1.207198 6.000000
-6.975729 2.061008 1.270794 46.000000
-6.773067 2.129115 1.240418 58.000000
-8.406491 2.227372 1.207522 12.000000
-6.757844 2.229728 1.243258 71.333336
-6.783055 2.297279 1.251174 48.000000
-6.818746 2.345221 1.259780 10.000000
-7.540354 2.619927 1.251175 0.000000
-7.542313 2.673889 1.254272 5.000000
-7.505120 2.660651 1.248078 0.000000
-6.472425 2.727410 1.227080 22.000000
-7.699405 2.797783 1.284002 11.500000
-6.454074 2.755559 1.226048 3.000000
-7.496040 2.912053 1.260465 6.500000
-6.469395 2.858742 1.235685 1.000000
-6.402633 2.901479 1.228113 14.500000
-6.579899 3.006958 1.263910 59.000000
-8.134557 3.086780 1.208072 0.000000
-6.390617 3.067360 1.238439 19.000000
-5.626783 3.070370 1.235646 3.000000
-6.387148 3.181533 1.246700 9.000000
-5.678237 3.180127 1.254574 8.600000
-6.343091 3.243131 1.244635 1.000000
-7.296733 3.418038 1.262943 47.000000
-7.103802 3.437172 1.236928 16.000000
-8.161999 3.515110 1.233928 3.000000
-8.100124 3.458338 1.222926 14.000000
-6.847058 3.500802 1.205339 25.000000
-6.247576 3.445978 1.246528 22.500000
-6.064172 3.444928 1.218475 11.000000
8.346871 3.443741 1.253733 6.000000
-8.296271 3.603879 1.255933 51.000000
-6.232482 3.618661 1.259091 8.000000
-6.294501 3.707744 1.276301 42.000000
-6.136005 3.692726 1.251174 44.666664
8.162317 3.671716 1.242730 14.000000
-7.023737 3.759783 1.248697 29.000000
-6.326294 3.861585 1.294888 57.000000
-6.232825 3.914880 1.224471 45.923077
-7.196325 3.984068 1.289267 21.500000
-6.109290 3.956784 1.271655 49.000000
8.076474 4.037347 1.253733 32.000000
8.299663 4.028397 1.281003 12.142858
8.462774 3.959708 1.297330 13.750000
-6.109818 4.047706 1.280432 22.400000
-5.929873 4.089282 1.258465 34.909092
-6.428198 4.206494 1.204101 19.000000
-5.900144 4.159011 1.261156 0.000000
-5.731742 4.204226 1.241881 4.000000
8.301277 4.198783 1.291691 6.000000
-8.955975 4.389410 1.207845 21.000000
-8.034619 4.366075 1.269686 15.000000
-7.744181 4.367184 1.234478 5.000000
-7.892088 4.499900 1.261434 3.500000
-5.764390 4.513364 1.279055 43.000000
-5.645356 4.477637 1.258862 38.333332
7.946453 4.452050 1.264735 15.000000
-5.777867 4.642207 1.294888 45.000000
-8.822559 4.667344 1.208727 26.500000
-7.854129 4.659735 1.268036 0.000000
-6.136546 4.882990 1.229186 0.500000
-6.280072 5.293930 1.287409 47.000000
-6.278770 5.399198 1.242185 19.250000
-4.683317 5.403570 1.249281 42.500000
8.816227 5.464162 1.256095 5.000000
-4.777515 5.602410 1.286352 34.200001
-4.280478 5.618919 1.234079 6.000000
-8.578990 5.708570 1.247920 4.000000
-5.413939 5.709093 1.233212 1.000000
-5.327605 5.689057 1.221650 12.333333
-4.729820 5.690952 1.292823 24.500000
-4.578613 5.657968 1.271620 35.000000
-4.507401 5.678777 1.266664 16.000000
-4.281426 5.644663 1.237751 26.000000
-6.550507 5.828091 1.217424 45.000000
8.096396 5.751683 1.202716 11.000000
-5.163144 5.928999 1.232283 35.500000
-5.092533 5.903924 1.222063 40.000000
-5.159629 6.039014 1.244981 36.000000
-5.406263 6.149487 1.283383 37.000000
-5.240889 6.192981 1.271615 59.000000
-5.318055 6.324347 1.295151 27.000000
-5.197548 6.443744 1.297629 30.000000
-5.906779 6.634287 1.233378 1.000000
-5.204758 6.952280 1.205872 5.000000
-7.164884 7.048288 1.217142 17.000000
-7.859648 7.169298 1.288315 39.000000
-7.179332 7.219566 1.233012 5.000000
-7.069082 7.370224 1.236739 13.250000
-6.626528 7.440069 1.206563 26.000000
-7.041231 7.469360 1.243111 3.000000
-6.529984 7.472289 1.201754 3.000000
-6.236872 7.754333 1.205120 3.000000
-4.334418 7.910439 1.252449 19.666666
-5.843607 8.010649 1.200792 8.000000
11.187304 8.525494 1.207823 11.666667
12.323056 8.523311 1.286649 175.000000
12.463077 8.504923 1.295661 255.000000
-5.344923 8.623836 1.228684 2.000000
-5.051872 8.708263 1.219203 35.857143
-4.920027 8.701045 1.210506 36.599998
7.700898 8.685839 1.200399 10.000000
8.000927 8.716099 1.223509 14.333333
8.154301 8.716814 1.234344 12.333333
8.309309 8.716364 1.245316 12.666667
8.467791 8.716622 1.256699 12.000000
8.603508 8.718344 1.266642 11.000000
8.745440 8.723978 1.277409 11.666667
8.909727 8.721882 1.289341 11.333333
9.019627 8.719284 1.297295 10.000000
-5.816171 8.817338 1.279178 2.000000
-5.211844 8.774260 1.235897 33.000000
7.888244 8.757614 1.218846 16.666666
-5.295202 8.978714 1.262347 81.000000
-4.839243 9.006166 1.238142 40.333332
-4.826903 9.108769 1.248401 38.500000
-4.722260 9.082986 1.239745 37.000000
-4.731409 9.153095 1.247800 27.250000
-4.692080 9.260635 1.257217 24.333334
-6.816856 9.427576 1.203074 32.666668
-5.567770 10.233256 1.204720 8.000000
2.169268 10.329496 1.278216 66.750000
2.306678 10.336303 1.282544 32.750000
2.461421 10.339700 1.287161 41.200001
2.076022 10.370968 1.280861 41.000000
2.618426 10.347803 1.292643 36.000000
2.757463 10.348613 1.296971 34.250000
2.844949 10.349685 1.299856 30.000000
-5.976046 10.506927 1.249979 13.000000
4.253226 10.802972 1.200605 20.000000
-5.803329 11.077195 1.293181 21.000000
-7.824381 12.536228 1.268967 1.000000
-6.971172 12.812631 1.252540 57.000000
-7.016754 12.896636 1.260754 9.500000
-7.440525 15.992688 1.206205 17.000000
-7.747807 16.250774 1.231129 8.000000
-6.958817 23.224401 1.235388 0.000000
-9.182425 23.698242 1.295030 0.000000
-7.420940 23.680243 1.264496 0.000000
-9.139429 23.809019 1.299508 1.000000
-8.463326 23.820374 1.288109 4.000000
-8.575892 23.898951 1.293809 5.000000
-4.273319 -19.882460 1.390683 19.000000
-5.576677 -19.681381 1.398870 20.500000
-4.231111 -19.389368 1.357117 30.000000
-4.457628 -18.990284 1.333920 0.000000
-7.239989 -18.910126 1.384679 1.000000
-4.508949 -18.941246 1.331464 7.000000
-4.703803 -18.712799 1.319457 13.000000
-8.018304 -18.467297 1.376765 17.333334
-7.903715 -18.521038 1.377038 12.000000
-8.143888 -18.438513 1.378403 9.000000
-6.788676 -18.244450 1.331191 2.000000
-6.263181 -18.220591 1.317547 0.000000
-5.883092 -18.225271 1.309633 2.000000
-5.750432 -18.204796 1.305539 11.000000
-5.689640 -18.211346 1.304720 19.000000
-3.008049 -15.934890 1.392510 5.000000
-5.945364 -14.962843 1.382586 1.000000
-5.573210 -14.977905 1.372319 3.000000
-5.803866 -14.947756 1.376939 11.500000
-5.887032 -14.681460 1.358288 11.000000
-7.056278 -14.106499 1.354438 19.500000
-6.775830 -14.010232 1.336385 9.000000
-7.436344 -13.793480 1.345626 3.000000
-7.357249 -13.750010 1.339123 0.000000
-8.128845 -13.322416 1.340150 4.000000
-8.678551 -13.176722 1.354866 12.000000
-4.385437 -12.439243 1.363950 4.500000
-4.308496 -12.407167 1.358190 0.000000
-6.703683 -11.508845 1.377322 18.250000
-6.548988 -11.532840 1.371493 6.000000
-7.563161 -10.591429 1.345846 4.000000
-3.223430 -10.549945 1.335923 13.000000
-7.906253 -10.167006 1.331857 13.000000
-5.672503 -9.916784 1.383532 18.000000
-5.419762 -9.903503 1.367181 19.000000
-5.634243 -9.778490 1.366701 28.000000
-5.282267 -9.761309 1.344098 6.000000
-5.171372 -9.701422 1.331355 32.000000
-5.095058 -9.667729 1.323420 21.000000
-5.764609 -9.568903 1.352851 20.400000
-5.651568 -9.644341 1.353716 22.166666
-5.029696 -9.616831 1.314283 27.000000
-4.938802 -9.574514 1.304665 26.200001
-5.352684 -9.495611 1.320054 0.000000
-6.005064 -9.371829 1.347946 0.000000
-5.735482 -9.399917 1.333519 0.000000
-6.025867 -9.339570 1.346022 2.000000
-9.454418 -9.082314 1.355721 9.000000
-6.678804 -8.901745 1.347705 38.500000
-6.580867 -8.901625 1.340612 52.500000
-6.267560 -8.835632 1.311879 17.000000
-6.269642 -8.721918 1.300818 40.000000
5.034310 -8.695335 1.395114 53.500000
5.072758 -8.574192 1.383287 62.000000
-6.529518 -8.534091 1.301299 6.500000
5.099004 -8.496289 1.375860 59.000000
5.157954 -8.384340 1.366838 62.799999
5.209606 -8.263123 1.356331 62.500000
3.521385 -8.168715 1.394254 7.000000
5.277007 -8.197812 1.353718 64.500000
5.358835 -8.099464 1.348491 54.000000
5.776895 -8.091640 1.380481 13.600000
3.562056 -8.019342 1.375363 4.500000
5.438349 -8.012740 1.344640 46.000000
5.577097 -8.012449 1.355505 50.000000
5.612497 -7.982834 1.354955 28.500000
5.869480 -7.763570 1.351380 86.500000
6.043604 -7.638911 1.352480 86.000000
-5.971433 -7.384640 1.318647 23.000000
-7.176019 -7.066641 1.398415 4.000000
6.240195 -7.143197 1.316997 6.000000
-7.099074 -6.947074 1.379161 30.000000
-5.495310 -6.898929 1.382486 11.333333
-5.557044 -6.762869 1.371956 27.000000
-5.392306 -6.776656 1.357401 11.000000
-5.596438 -6.745731 1.373814 15.000000
-5.361638 -6.651864 1.339128 24.500000
-8.551210 -6.541411 1.303824 12.000000
-7.270774 -6.514537 1.355505 11.000000
-5.455508 -6.533977 1.334173 12.000000
-7.273457 -6.408010 1.345970 3.000000
-11.107716 -6.271653 1.319102 5.000000
-6.340594 -6.283728 1.399209 13.000000
-11.137774 -6.242564 1.320336 12.000000
-7.397264 -6.180686 1.338452 35.000000
-6.312771 -6.216551 1.388680 12.000000
-4.760421 -6.219613 1.368375 10.250000
-7.220126 -6.071298 1.309845 4.000000
-5.224954 -6.061717 1.398149 21.000000
-11.046090 -6.055074 1.302644 4.000000
-5.257311 -6.022277 1.396657 30.500000
-7.593887 -5.911682 1.336251 0.000000
-7.665631 -5.795365 1.334326 5.500000
-8.325277 -5.359064 1.374760 10.000000
-5.331663 -5.384030 1.323801 15.000000
-8.296874 -5.267413 1.364583 4.500000
-5.884616 -5.261439 1.379103 34.666668
-5.784370 -5.298670 1.370498 26.500000
-6.466469 -5.232707 1.303823 66.000000
-8.261692 -5.118474 1.349454 55.000000
-5.518197 -5.135010 1.316917 45.000000
-8.095506 -4.980390 1.319747 1.000000
-5.165058 -5.021046 1.388587 42.000000
-8.126639 -4.929425 1.319747 1.000000
-5.215393 -4.944002 1.385306 48.333332
-5.092089 -4.919064 1.364813 29.600000
-6.940883 -4.831230 1.325502 7.000000
-5.184652 -4.838164 1.367009 11.000000
-5.984334 -4.699014 1.329308 7.000000
-5.600539 -4.458011 1.379880 30.500000
-5.491300 -4.476938 1.365789 20.222221
-7.732985 -4.380444 1.393016 1.000000
-5.585996 -4.403642 1.371173 29.000000
-5.544417 -4.222170 1.343411 28.000000
-8.892193 -4.000039 1.353855 28.000000
-8.664547 -3.974277 1.323598 5.666667
-8.557317 -4.045025 1.314246 0.000000
-9.242556 -3.864332 1.390988 24.000000
-8.663095 -3.929754 1.320848 8.000000
-6.023559 -3.943207 1.387830 0.000000
-8.754970 -3.848827 1.327921 28.857143
-8.707337 -3.721181 1.314796 0.000000
-6.204913 -3.735663 1.396159 30.000000
-8.901033 -3.574582 1.331850 3.000000
-6.741608 -3.611788 1.336192 49.000000
-6.539412 -3.636800 1.307279 52.000000
-8.913708 -3.434113 1.326349 10.000000
-8.788689 -3.449520 1.310946 9.000000
-6.972086 -3.362905 1.352370 38.000000
-6.647245 -3.375256 1.302461 63.000000
6.277436 -3.361701 1.372687 60.000000
-8.766823 -3.330204 1.302143 38.000000
-6.841653 -3.306336 1.327587 42.250000
-6.738629 -3.315817 1.312098 47.000000
-5.716306 -3.296321 1.392714 8.000000
6.251682 -3.272537 1.360270 68.000000
-7.725207 -3.158891 1.308159 55.000000
-6.946057 -3.221323 1.337684 22.666666
-6.167521 -3.203805 1.339752 41.000000
6.275101 -3.172561 1.355463 73.000000
6.984871 -3.192026 1.341700 107.000000
-7.931696 -3.089250 1.334173 30.000000
-6.079445 -3.073608 1.375476 64.000000
-5.497173 -3.135581 1.335717 29.500000
6.311848 -3.092118 1.354895 68.000000
-7.966221 -3.054754 1.337270 8.000000
-7.912977 -3.005858 1.326741 23.000000
-5.792183 -2.985729 1.375367 31.000000
6.376831 -3.025160 1.360573 69.500000
6.515589 -3.016079 1.384044 62.500000
-9.400877 -2.866879 1.364674 7.000000
-6.506492 -2.888720 1.372309 22.000000
-6.061410 -2.913013 1.396729 34.116669
-5.341269 -2.860397 1.391709 36.400002
-5.182231 -2.918231 1.366099 17.500000
-9.479072 -2.804228 1.372559 5.000000
-6.362928 -2.813219 1.341140 42.333332
-6.231459 -2.825226 1.318931 41.000000
-5.936068 -2.804523 1.385693 32.500000
-5.833681 -2.823881 1.367933 41.000000
-9.257951 -2.675668 1.338085 4.000000
-6.540723 -2.673215 1.362087 37.000000
-6.352158 -2.689773 1.329783 31.000000
-6.060612 -2.679338 1.398615 32.571430
-5.977266 -2.744164 1.388171 42.500000
-5.148191 -2.658219 1.330838 36.444443
-6.262152 -2.637125 1.340629 24.250000
-7.126465 -2.504035 1.319671 1.000000
-6.532891 -2.511689 1.349216 40.333332
-6.383146 -2.531198 1.344570 43.666668
-7.100713 -2.374509 1.308083 10.666667
-6.485145 -2.427284 1.334831 18.500000
-6.098112 -2.359291 1.380048 11.666667
-6.392678 -2.320852 1.311019 24.600000
-6.037859 -2.259901 1.360705 14.000000
-6.517498 -2.220007 1.327259 2.333333
-5.982598 -2.175152 1.343564 10.500000
-6.043438 -2.132977 1.352651 26.000000
-5.979423 -2.136686 1.369434 12.500000
-5.890354 -1.895477 1.398252 25.000000
-6.385679 -1.785356 1.399473 36.181820
-6.382462 -1.596139 1.388584 32.750000
-6.661922 -1.489091 1.315902 19.000000
-6.436704 -1.556013 1.397670 42.000000
-6.047127 -1.396747 1.309944 30.500000
-6.453454 -1.357597 1.391888 5.500000
-6.297773 -1.355876 1.359672 14.000000
-6.102312 -1.174090 1.311596 12.800000
-6.229285 -1.127639 1.336130 17.500000
-7.677536 -1.032586 1.353402 13.000000
-6.735727 -0.980223 1.312116 54.500000
-6.546066 -1.026258 1.398497 59.000000
-6.210485 -1.040045 1.329109 50.000000
-6.082920 -0.973237 1.300197 69.000000
-7.858098 -0.956500 1.383004 1.000000
-6.767504 -0.952316 1.317416 38.000000
-6.334144 -0.870959 1.349484 43.333332
-6.187359 -0.870634 1.318783 78.500000
-8.841360 -0.683411 1.389919 20.000000
-7.801209 -0.751170 1.369236 0.000000
-6.348382 -0.703377 1.348108 29.750000
-8.295673 -0.615018 1.303823 31.000000
-7.463521 -0.568621 1.352714 54.666668
-6.536276 -0.586718 1.385115 32.400002
-6.366702 -0.642278 1.350586 30.500000
-6.863158 -0.550990 1.327259 64.000000
-6.561307 -0.464557 1.388309 37.666668
-7.943404 -0.438543 1.389888 1.000000
-6.616193 -0.426690 1.399323 33.000000
-7.691972 -0.230980 1.344453 2.000000
-6.626985 -0.197843 1.399323 25.000000
-6.572801 -0.175557 1.387758 41.000000
7.175455 -0.078901 1.383287 65.000000
7.242646 -0.148049 1.396461 60.000000
-8.010582 0.036353 1.399526 47.000000
7.155540 0.011242 1.379393 69.000000
7.159842 0.135024 1.380448 71.250000
-7.902387 0.172388 1.380939 6.500000
-7.791205 0.206740 1.361663 21.000000
-7.240649 0.170636 1.396159 35.000000
-6.995987 0.209018 1.349216 9.500000
-6.377553 0.196658 1.346731 64.666664
-6.225832 0.190783 1.314653 17.000000
7.202767 0.215068 1.389092 61.666668
-6.373745 0.323981 1.347006 36.333332
-6.270840 0.349933 1.325598 12.750000
-6.148805 0.435359 1.301023 23.000000
7.397588 0.360888 1.382913 47.666668
-6.778701 0.522784 1.310602 27.000000
-6.195310 0.442564 1.310935 10.400000
-6.943724 0.623375 1.343916 43.000000
-6.765434 0.571699 1.308836 26.000000
-7.191591 0.714012 1.393130 100.000000
-6.732761 0.753888 1.368145 54.500000
-6.515540 0.765866 1.384660 42.500000
-6.361423 0.793608 1.353064 43.500000
-6.242025 0.858380 1.368972 26.000000
-6.919189 0.973661 1.346945 59.000000
-6.875521 0.945496 1.337859 54.000000
6.816543 0.970132 1.327259 25.500000
6.948233 1.033427 1.354137 34.000000
-7.357223 1.128441 1.300395 45.000000
-6.915122 1.106385 1.349973 46.000000
-6.899161 1.081615 1.346188 35.000000
-6.425078 1.055581 1.374266 16.666666
-6.301579 1.089621 1.349760 30.666666
6.725772 1.065131 1.312684 52.500000
-7.074632 1.177542 1.382530 52.000000
-6.262731 1.160046 1.344308 41.799999
6.497073 1.196978 1.394366 47.250000
-6.431427 1.335352 1.386381 28.666666
-6.364261 1.266105 1.369585 27.666666
6.372072 1.257007 1.370824 52.000000
6.311307 1.358819 1.362622 60.142857
-7.295898 1.473761 1.300395 32.000000
6.363127 1.512463 1.380450 48.769230
-6.668315 1.821292 1.332559 45.375000
-6.590465 1.791953 1.378917 31.500000
-8.528394 1.862609 1.368240 15.000000
-7.563912 1.928019 1.363729 38.000000
-6.859433 2.039601 1.379502 7.000000
-6.674176 2.041776 1.345430 55.000000
-6.545218 1.979858 1.318174 45.000000
-6.508587 2.058397 1.315902 58.000000
-6.707088 2.185118 1.359816 44.333336
-6.595178 2.223367 1.341645 68.000000
-6.425897 2.205652 1.309656 34.000000
-7.469391 2.621600 1.383004 0.000000
-7.523257 2.693714 1.396084 65.000000
-6.452846 2.700626 1.348459 24.000000
-6.506897 2.747485 1.361583 26.000000
-6.107153 2.834127 1.346889 29.000000
-5.950855 2.811653 1.389135 4.333333
-6.408263 2.929873 1.358302 1.000000
-6.231382 2.872708 1.322716 32.000000
-6.804679 3.023229 1.394996 24.000000
-6.374491 3.011848 1.359059 44.000000
-5.613026 3.033288 1.346621 10.400000
-7.861198 3.196902 1.330147 45.000000
-6.318318 3.206851 1.365873 1.000000
-6.233627 3.225687 1.353002 19.000000
-5.666983 3.150308 1.368483 58.666668
-7.777018 3.291543 1.323644 6.000000
-6.972712 3.293009 1.347207 13.000000
-6.803287 3.318183 1.322424 10.000000
-6.225325 3.258673 1.354516 4.000000
-7.001457 3.442110 1.363040 0.000000
-5.910605 3.383667 1.312874 0.000000
-7.071813 3.504327 1.378873 109.000000
-5.993174 3.468527 1.334831 7.500000
8.048935 3.712313 1.389299 13.000000
-9.172258 3.780530 1.377510 11.000000
-8.610446 3.804887 1.307095 49.333332
-6.585030 3.851065 1.332750 1.000000
8.615057 3.932411 1.314934 6.250000
-8.665128 3.984602 1.324286 6.750000
-7.383145 4.042152 1.319308 69.000000
7.969943 3.968444 1.395493 11.000000
-6.600082 4.085848 1.356156 22.000000
-8.637946 4.179467 1.332400 10.000000
8.339767 4.300797 1.302900 2.875000
-8.784080 4.737656 1.385762 12.000000
-6.060078 4.678642 1.337569 23.666666
-7.058151 4.925582 1.349039 31.000000
8.042818 4.861301 1.304894 9.000000
-6.047365 4.947908 1.365105 29.666666
-6.001429 4.978947 1.362352 10.000000
-9.528248 5.253370 1.317649 1.000000
-6.370173 5.318740 1.300726 46.000000
7.914992 5.326678 1.324699 21.000000
-6.490256 5.384491 1.321785 21.000000
-6.291831 5.423303 1.301965 3.000000
-5.500530 5.378973 1.344109 20.000000
-5.685861 5.490771 1.380939 5.000000
7.942098 5.479054 1.339735 5.666667
-6.287039 5.551386 1.314600 29.200001
-5.324362 5.632307 1.354091 35.500000
-4.943134 5.622690 1.307968 72.000000
-4.249025 5.640695 1.361330 43.000000
7.920260 5.549947 1.342853 0.000000
-5.435900 5.678477 1.373366 8.500000
-5.313046 5.691593 1.360287 32.500000
-4.263212 5.659468 1.365873 16.500000
-6.461699 5.822227 1.363285 19.000000
-6.385209 5.771178 1.349039 34.500000
-6.270247 5.806121 1.339438 22.166668
-6.490216 5.884968 1.373195 24.000000
-7.587406 6.030976 1.345787 76.000000
-7.401406 6.101247 1.331850 41.000000
-5.643173 6.318324 1.327824 39.000000
-7.135256 6.510821 1.341202 4.000000
-5.879269 6.479381 1.371337 2.000000
-5.318567 6.447349 1.310017 40.000000
-5.226416 6.500278 1.307333 35.333332
-7.049845 6.633523 1.344090 36.625000
-5.516064 6.601823 1.348419 26.000000
-5.212775 6.631463 1.322095 19.500000
-6.900170 6.705498 1.335976 62.000000
-6.981713 6.913809 1.364308 11.000000
-6.775582 6.967483 1.349454 15.000000
-6.305670 7.037660 1.312046 14.000000
-8.631847 7.158669 1.358044 4.000000
-6.538794 7.206225 1.351104 11.000000
-8.098482 7.248510 1.316207 16.000000
-7.951173 7.298684 1.307070 0.000000
-6.455598 7.296726 1.352755 2.000000
-8.369328 7.350047 1.348907 6.000000
-5.730751 7.755982 1.339002 4.000000
-5.466014 8.403913 1.391997 16.666666
-5.351741 8.400553 1.383012 0.000000
12.545816 8.503739 1.301479 255.000000
12.642002 8.482252 1.307296 127.500000
13.201744 8.530788 1.349732 8.000000
10.460858 8.577428 1.398923 41.000000
13.027608 8.593388 1.340150 14.000000
13.098000 8.551462 1.343230 255.000000
9.081407 8.723981 1.302233 9.000000
9.199573 8.726903 1.311285 9.333333
9.375579 8.727465 1.324588 12.000000
9.523514 8.726637 1.335766 15.000000
9.687707 8.738221 1.349138 16.333334
13.020467 8.647503 1.342203 14.000000
-6.738138 9.328956 1.393631 3.500000
-7.496470 10.276460 1.315399 7.000000
2.914246 10.346853 1.301780 33.333332
3.056186 10.350471 1.306973 26.000000
3.218053 10.357276 1.313442 27.000000
3.361743 10.358511 1.318852 22.000000
3.507229 10.361528 1.324743 22.250000
3.656631 10.371878 1.331836 28.250000
3.804453 10.373574 1.338087 38.000000
3.952540 10.372258 1.344219 42.750000
4.049372 10.380747 1.349388 40.000000
-7.366448 10.579221 1.333091 0.000000
2.070957 10.604733 1.308512 9.000000
-7.696757 10.691473 1.362304 3.000000
0.976252 10.726958 1.304425 0.000000
1.301391 10.738400 1.309955 20.000000
1.421601 10.740104 1.311999 41.250000
1.628098 10.739919 1.315485 52.000000
1.029230 10.747947 1.307551 0.000000
1.126176 10.750805 1.309073 3.166667
1.233902 10.746327 1.309955 11.666667
1.337080 10.750020 1.311879 27.000000
1.542857 10.746455 1.314764 54.000000
1.733675 10.751485 1.318852 47.500000
1.872051 10.748411 1.321256 44.750000
2.012081 10.751360 1.324622 37.500000
-7.783484 10.883889 1.383699 10.000000
-7.130152 10.920820 1.348726 25.500000
-7.011910 10.926362 1.342555 4.000000
-6.112842 11.027858 1.303878 15.500000
-5.271509 12.382841 1.391723 4.000000
-7.404998 14.027018 1.362052 10.000000
-7.561109 14.160697 1.378479 5.500000
-7.425622 14.173772 1.374030 17.000000
-7.298052 14.145768 1.366843 4.000000
-6.163251 14.290305 1.336385 11.000000
-6.009236 14.429170 1.342203 0.000000
-5.829555 14.378057 1.332279 1.000000
-6.133996 14.471851 1.349732 4.000000
-6.226430 14.562444 1.359999 0.000000
-9.034725 24.215979 1.317014 2.000000
-8.955828 24.236750 1.316607 1.000000
-8.801811 24.169817 1.310704 2.500000
-8.499795 24.163399 1.305208 1.000000
5.625813 38.375973 1.302256 34.000000
5.751678 38.393692 1.303464 20.000000
5.514303 38.456772 1.304404 8.000000
4.079052 -27.927025 1.438131 21.000000
4.254776 -27.902815 1.438232 255.000000
4.429385 -27.871586 1.438029 255.000000
4.560358 -27.848467 1.437927 255.000000
4.692194 -27.830570 1.438131 255.000000
4.823987 -27.812120 1.438334 255.000000
4.910644 -27.792894 1.438131 255.000000
5.042269 -27.773342 1.438334 255.000000
5.173825 -27.753233 1.438538 255.000000
5.306811 -27.740280 1.439148 255.000000
5.483331 -27.718143 1.439759 201.500000
5.614672 -27.695950 1.439963 255.000000
5.746333 -27.675016 1.440268 255.000000
5.921788 -27.646175 1.440675 255.000000
6.054139 -27.627754 1.441184 255.000000
6.186011 -27.606678 1.441591 255.000000
6.348192 -27.584871 1.442337 243.333328
-5.485532 -20.984200 1.483195 7.000000
-5.513667 -20.307665 1.438986 9.000000
-4.947522 -20.218863 1.423431 18.000000
-6.141829 -20.101557 1.437348 1.000000
-5.048712 -20.085423 1.416244 9.333333
-5.364057 -20.004963 1.416335 12.000000
-5.194254 -19.998159 1.412924 9.000000
-6.698220 -19.687151 1.422066 1.000000
-6.125199 -19.605478 1.404601 5.000000
-6.388078 -19.475185 1.401599 1.500000
-4.182086 -16.861166 1.491755 14.000000
-3.825008 -16.647339 1.466773 16.000000
-3.718528 -16.540779 1.455822 0.000000
-3.509859 -16.455914 1.444870 1.500000
-3.372825 -16.358423 1.434262 29.666666
-3.293198 -16.317743 1.429470 23.000000
-3.225619 -16.245918 1.422284 9.000000
-3.109202 -16.191502 1.415781 5.000000
-5.634215 -16.061827 1.461640 3.000000
-2.987051 -16.101000 1.406199 6.000000
5.310122 -16.150869 1.459928 5.500000
5.473225 -16.049982 1.456164 8.333333
5.717955 -15.943324 1.454453 0.000000
-5.599465 -15.803631 1.439737 3.000000
-5.785208 -15.698366 1.436657 9.000000
-8.413700 -14.086148 1.408937 1.000000
-8.817603 -13.761229 1.403461 1.000000
-5.322943 -13.396275 1.490676 3.000000
-4.167004 -13.337705 1.445005 1.000000
-4.029610 -13.338296 1.440891 11.000000
-6.056025 -12.725287 1.457348 1.000000
-6.670757 -12.373413 1.453645 2.000000
-6.413425 -12.122912 1.418261 2.500000
-4.397162 -11.272322 1.465284 0.000000
-4.255167 -11.326686 1.465284 18.000000
-4.198789 -11.284173 1.458070 1.000000
-4.035254 -11.276224 1.450376 9.000000
-4.291265 -11.234410 1.456387 21.500000
-4.097713 -11.173332 1.441239 10.000000
-3.959455 -11.249739 1.444285 32.000000
-3.863931 -11.240812 1.439476 25.666666
-3.723829 -11.253259 1.435468 24.000000
-9.274343 -10.832033 1.474629 0.000000
-5.482777 -10.728134 1.459032 1.000000
-5.315809 -10.732133 1.450376 2.000000
-5.041687 -10.610877 1.422677 23.799999
-4.933878 -10.566283 1.412225 15.333333
-6.549700 -10.437072 1.492214 32.000000
-5.876619 -10.348927 1.441239 78.000000
-5.808290 -10.341894 1.436430 13.000000
-7.605323 -9.318344 1.456628 3.500000
-7.310725 -9.340487 1.436430 7.000000
-5.049608 -9.223299 1.460029 25.000000
5.060442 -9.235434 1.462230 0.000000
-5.078066 -9.121559 1.449577 28.000000
-4.821780 -9.076091 1.427022 6.000000
-4.740586 -9.117953 1.426930 23.500000
-4.618784 -9.124574 1.420027 25.857143
-4.476233 -9.080894 1.405750 13.666667
5.051071 -9.116182 1.447101 13.500000
-5.748800 -9.030763 1.486435 16.000000
-5.152654 -8.982349 1.437841 23.666666
-5.093555 -8.999302 1.435824 20.500000
5.034942 -8.986855 1.430322 23.000000
-5.619204 -8.950918 1.467456 13.000000
-5.569763 -8.872084 1.454528 24.000000
4.999095 -8.825137 1.408317 42.500000
-6.070845 -8.670128 1.469656 48.500000
-6.570807 -8.501631 1.491936 31.000000
6.196690 -8.516450 1.462413 52.333332
-6.654962 -8.390454 1.486985 4.000000
6.194274 -8.411015 1.450402 56.000000
-6.305785 -8.265551 1.443525 3.000000
4.265886 -8.336144 1.467756 63.333332
-6.628140 -8.249639 1.469381 2.000000
-6.415031 -8.246407 1.450677 21.000000
4.154617 -8.203614 1.441328 6.666667
4.247710 -8.173699 1.443806 0.000000
6.076654 -8.170300 1.413819 55.000000
6.230523 -8.196520 1.429589 63.333332
6.321683 -8.173404 1.434723 57.000000
-6.244853 -8.132572 1.423721 15.000000
4.019147 -8.103620 1.417791 7.000000
4.302291 -8.091433 1.436373 0.000000
6.358894 -8.141956 1.434448 51.500000
6.420513 -7.921523 1.415836 66.333328
6.524611 -7.808834 1.412938 72.800003
6.655424 -7.789708 1.422621 59.000000
6.754154 -7.830288 1.435824 1.000000
-5.533144 -7.135867 1.415314 18.500000
-5.515562 -7.044377 1.402307 17.000000
-6.030668 -6.821226 1.427082 19.000000
-5.126539 -6.505320 1.447026 4.000000
-5.082504 -6.512299 1.443239 15.000000
-5.363959 -6.424330 1.462170 20.000000
-5.285884 -6.371401 1.446337 30.000000
-5.088647 -6.374438 1.424997 5.000000
-6.567797 -6.280741 1.424398 15.666667
-5.155875 -6.302857 1.422656 31.600000
-5.108778 -6.317828 1.419489 0.000000
-6.643240 -6.240612 1.428631 19.000000
-8.695740 -6.093345 1.474332 1.000000
-8.341398 -5.963053 1.423721 22.000000
-6.996135 -6.034641 1.448142 4.000000
-5.107609 -5.848778 1.496858 0.000000
-6.427624 -5.650781 1.495214 3.000000
-8.833549 -5.530508 1.447101 3.500000
-9.247102 -5.412185 1.487719 16.333334
-5.915927 -5.436164 1.403656 2.000000
-5.463510 -5.412261 1.482472 45.000000
-6.443555 -5.247746 1.451844 33.000000
-6.408751 -5.252978 1.447714 1.000000
-5.739645 -5.086953 1.478434 18.000000
-5.631677 -5.076099 1.461525 9.333333
-8.862047 -5.038434 1.415469 0.000000
-6.835718 -5.050786 1.484888 26.000000
-5.868579 -4.996395 1.485753 11.333333
-5.378242 -4.909288 1.403730 5.000000
-6.765860 -4.804692 1.449779 20.000000
-6.717054 -4.675433 1.429815 57.000000
-6.603278 -4.720516 1.418113 37.000000
-6.202150 -4.626193 1.491558 34.500000
6.781965 -4.622875 1.433946 35.000000
-6.167800 -4.510861 1.473008 33.000000
-6.050985 -4.513659 1.455215 12.500000
6.737613 -4.491159 1.414670 69.800003
-9.487882 -4.412181 1.452877 4.000000
-6.800398 -4.453445 1.420178 2.000000
-6.044262 -4.376923 1.438558 10.000000
-4.866142 -4.331006 1.496297 3.000000
-4.802257 -4.342319 1.487119 30.750000
6.808823 -4.334259 1.410147 67.571426
6.935128 -4.278215 1.423620 14.000000
-6.508732 -4.059216 1.478686 4.000000
-6.080993 -4.076955 1.411301 77.500000
-8.590776 -4.027869 1.487163 57.000000
-8.495906 -4.015997 1.472917 27.000000
7.117142 -4.013667 1.427521 57.333332
-9.559162 -3.943909 1.435824 2.000000
-8.570869 -3.879769 1.474621 39.750000
7.112839 -3.894214 1.416736 69.400002
-8.768085 -3.834330 1.499964 25.000000
-5.981950 -3.730774 1.487985 30.333334
-8.749435 -3.561584 1.480660 1.000000
6.230868 -3.361993 1.494318 54.000000
-8.846643 -3.286561 1.479215 17.666666
-8.367809 -3.329956 1.411597 36.000000
7.335815 -3.324586 1.407098 64.000000
7.369640 -3.256525 1.407649 73.000000
7.421621 -3.168643 1.409852 66.666664
-8.871448 -3.117223 1.473846 10.250000
-7.929884 -3.069433 1.485576 30.000000
-7.606805 -3.082620 1.433946 20.000000
-6.183248 -3.101697 1.460037 88.000000
-6.007114 -3.072673 1.424104 30.000000
7.537298 -3.134272 1.426144 48.000000
7.682543 -3.091475 1.446796 32.666668
-7.565262 -3.038147 1.424308 21.000000
6.342421 -3.021020 1.482753 69.800003
7.701449 -3.047638 1.447026 51.000000
-6.012493 -2.957211 1.414191 54.000000
-5.766426 -2.776394 1.470031 40.000000
-5.656665 -2.782199 1.447943 118.000000
-5.486427 -2.730658 1.407648 30.500000
-6.236551 -2.543147 1.421557 28.916666
-5.936484 -2.290587 1.461566 14.214286
-6.109600 -2.145540 1.487343 0.000000
-5.965704 -2.137181 1.455554 17.750000
-6.553066 -1.937374 1.442277 0.000000
-6.085626 -1.938542 1.467046 42.333332
-6.780155 -1.786321 1.479862 16.000000
-6.663941 -1.789337 1.456320 29.000000
-6.252809 -1.827307 1.496297 12.666667
-6.559252 -1.695117 1.429886 25.000000
-6.220632 -1.611015 1.476000 28.166666
-6.115809 -1.560038 1.449734 31.000000
-6.285485 -1.540373 1.486447 9.000000
-6.376559 -1.388535 1.498983 9.500000
-5.852269 -1.424480 1.495376 41.500000
-6.697930 -1.354189 1.442277 0.000000
-6.390681 -1.203099 1.493692 19.272728
-9.285872 -1.021906 1.464246 6.000000
-8.191308 -1.023186 1.442207 5.000000
-8.090648 -1.049372 1.425341 4.000000
-6.438848 -0.988820 1.496297 54.000000
-8.023928 -0.912703 1.410884 7.500000
-6.292649 -0.865311 1.458987 34.000000
-6.305663 -0.786530 1.459584 4.000000
-8.906134 -0.716570 1.400448 40.000000
-7.501299 -0.649683 1.451429 3.000000
-6.282652 -0.643708 1.450629 19.000000
-6.644609 -0.522911 1.406757 51.000000
-8.519251 -0.443495 1.490395 7.000000
-7.081048 -0.389694 1.496796 26.000000
-6.962574 -0.405116 1.472015 33.000000
-6.781571 -0.415967 1.434016 36.000000
-8.178859 -0.316376 1.429988 25.250000
-8.095954 -0.294037 1.415359 29.000000
-6.925954 -0.272122 1.462928 32.000000
-6.851435 -0.296357 1.447440 38.000000
-6.634154 -0.218918 1.400975 42.000000
-6.252320 -0.206337 1.436899 49.166664
7.282620 -0.217416 1.404487 0.000000
-8.207169 -0.091677 1.433946 3.000000
-8.088642 -0.115771 1.413294 23.000000
-6.360558 -0.149895 1.461375 7.000000
-6.529757 -0.051286 1.499879 42.000000
-8.183798 0.062849 1.429815 20.000000
-7.776355 0.085508 1.499129 37.000000
-6.973653 0.098595 1.472015 36.000000
-6.852000 0.118405 1.446407 36.000000
-7.580991 0.226324 1.462029 0.000000
-6.846860 0.290559 1.446407 30.000000
7.273852 0.297352 1.403351 61.000000
7.404274 0.407482 1.429473 1.000000
-7.065068 0.567170 1.495970 7.250000
-6.716181 0.560434 1.422452 22.000000
-6.813440 0.698092 1.445581 18.000000
-6.227739 0.805686 1.410449 31.454546
-6.160083 0.788032 1.426452 31.000000
-7.275516 0.977224 1.415087 31.000000
-6.862657 0.973002 1.462928 31.666666
-7.604208 1.094428 1.480958 32.000000
-6.994972 1.119161 1.495144 19.000000
-7.295375 1.190740 1.424930 50.000000
-6.649043 1.192756 1.425756 67.000000
-6.335501 1.157068 1.479284 28.000000
6.631450 1.157361 1.420800 37.500000
-7.960865 1.272274 1.408475 1.000000
-7.477495 1.268750 1.462029 65.000000
6.285614 1.291395 1.473911 51.000000
6.367262 1.256004 1.490701 34.250000
-6.522727 1.382870 1.407308 50.000000
-6.352678 1.388592 1.493611 53.000000
-7.919334 1.444900 1.406410 12.000000
-6.760732 1.455548 1.459624 20.000000
-6.671216 1.480196 1.442277 28.000000
-6.494706 1.514082 1.407583 27.400000
6.312182 1.578504 1.494506 48.500000
-6.678567 1.673802 1.432182 64.166672
-6.559252 1.695117 1.429886 58.000000
-6.275600 1.642860 1.490029 27.000000
-6.679863 1.759895 1.457972 45.000000
-7.141574 1.845607 1.421901 41.000000
-6.826769 1.902164 1.495763 10.250000
-7.317322 1.964777 1.460515 0.000000
-7.018620 2.027149 1.408273 0.000000
-6.718103 1.951730 1.476558 38.000000
-6.997138 2.044781 1.405244 11.000000
-6.738764 2.195462 1.495901 92.166672
-7.754513 2.749063 1.437388 62.000000
-5.573721 3.030077 1.457196 11.000000
-7.873623 3.115851 1.479380 41.500000
-6.839540 3.101115 1.447644 5.000000
-7.799674 3.214792 1.473873 48.000000
-6.682652 3.196076 1.427958 17.000000
-6.686123 3.327783 1.439694 10.000000
-5.828985 3.264390 1.410061 77.000000
-7.302415 3.406627 1.407786 5.500000
-6.728269 3.388382 1.452187 3.000000
-8.742593 3.635611 1.484066 30.000000
-8.710129 3.590054 1.476634 36.000000
-8.358812 3.589473 1.425843 33.333332
-7.201540 3.710627 1.415359 12.000000
-8.759357 3.791940 1.496083 30.799999
-6.220933 3.764423 1.401675 51.428570
-8.449501 4.071911 1.470130 4.000000
-6.208112 4.119939 1.436287 27.250000
-6.457334 4.227170 1.487772 5.000000
-6.169065 4.150131 1.433258 22.000000
-6.104157 4.204576 1.428842 45.333332
-7.961417 4.293956 1.417791 23.000000
-6.124463 4.318734 1.444615 71.000000
-8.003443 4.349133 1.427702 23.000000
-5.929238 4.525050 1.437801 45.000000
7.785509 4.589676 1.416553 0.000000
7.789658 4.559206 1.414694 24.000000
-6.103929 4.658635 1.480201 42.000000
-9.197975 4.794322 1.440225 12.000000
-9.059652 4.776611 1.422071 1.000000
-5.997335 4.820260 1.483229 30.000000
-6.940865 4.914373 1.485806 50.000000
-9.112091 4.988722 1.442425 8.000000
-6.872569 4.958467 1.480585 65.250000
-6.837979 5.089510 1.489248 52.888889
-5.509638 5.099452 1.447189 31.400000
7.860842 5.051278 1.464556 9.500000
-5.511109 5.159009 1.455215 33.000000
7.768190 5.183742 1.463781 5.250000
-5.581202 5.290812 1.482472 76.000000
-5.499091 5.262782 1.467329 36.000000
7.845096 5.315524 1.485305 0.000000
-5.560747 5.388624 1.492693 24.400000
7.896914 5.386909 1.498312 6.000000
-5.929434 5.444759 1.406410 0.000000
7.539848 5.461952 1.459291 16.000000
-5.832808 5.562373 1.408131 4.500000
-5.374069 5.615796 1.498372 47.500000
-4.274625 5.619382 1.490188 4.000000
7.530629 5.559766 1.467188 7.375000
-4.232699 5.655907 1.491014 30.750000
-4.200907 5.706324 1.495557 1.000000
6.910984 5.836122 1.417791 13.000000
-5.460166 5.923278 1.407442 59.500000
-5.396282 5.928361 1.400558 40.000000
6.855005 5.886129 1.416199 13.285714
-5.374890 5.961047 1.402279 39.000000
6.789459 5.978390 1.417946 3.500000
-5.492867 6.130504 1.438076 47.000000
6.767829 6.102341 1.428321 4.000000
-5.596035 6.305103 1.472841 37.000000
-8.159261 6.429931 1.442425 3.000000
-8.136352 6.579288 1.452877 21.000000
-8.081841 6.577305 1.446826 22.000000
-6.590943 6.609371 1.463007 5.000000
-8.357738 6.714994 1.488636 6.000000
-8.223585 6.735723 1.475983 3.000000
-7.709604 6.645365 1.413269 22.000000
-6.618604 6.721045 1.478492 3.000000
-6.600218 6.744631 1.479111 4.000000
-6.436908 6.777157 1.465020 19.250000
-6.401777 6.893672 1.474569 8.000000
-8.195141 6.952188 1.492211 29.000000
-8.047834 6.981090 1.479283 29.000000
-8.067647 7.042819 1.486985 4.000000
-5.868887 7.069109 1.440090 4.000000
-7.023477 7.267941 1.403366 15.000000
-7.354086 7.421135 1.450677 9.000000
-5.390085 7.440639 1.440090 19.000000
-5.509081 7.529964 1.462388 4.000000
-7.573942 7.571218 1.486985 2.500000
-6.908704 7.565996 1.422621 3.000000
-5.393735 7.545085 1.453716 21.000000
-6.969808 7.729898 1.445176 39.000000
-4.416324 7.808640 1.406111 41.428570
-4.359271 7.911479 1.415830 28.916666
-8.787831 8.066685 1.444605 41.000000
-8.870373 8.193946 1.462398 17.000000
-8.498216 8.359922 1.443644 1.000000
-8.135461 8.522201 1.426812 1.000000
-5.607738 8.446725 1.407767 25.000000
10.557390 8.518696 1.402832 255.000000
10.642476 8.504906 1.408798 7.000000
11.003963 8.529821 1.439774 140.285721
11.124155 8.495833 1.447474 224.000000
11.198336 8.496919 1.453645 251.000000
11.317791 8.503756 1.463932 165.500000
11.424758 8.500253 1.472572 197.000000
-5.644425 8.560221 1.423721 52.000000
7.597190 8.733437 1.401806 21.500000
7.691018 8.702186 1.406454 16.000000
7.843562 8.707995 1.419278 12.333333
7.990623 8.704872 1.430980 11.666667
8.147370 8.709400 1.444285 16.666666
8.304891 8.711753 1.457589 19.333334
8.464107 8.712842 1.471054 17.666666
8.626863 8.714539 1.485000 8.750000
8.743269 8.721931 1.495580 0.000000
-7.620827 8.860003 1.415271 17.500000
7.592859 8.868274 1.413828 24.000000
7.590843 9.008085 1.426572 16.000000
7.590357 9.152518 1.439957 18.000000
-6.858227 9.339765 1.403248 2.000000
7.592302 9.332490 1.456948 24.000000
7.585429 9.474995 1.469852 16.500000
-7.076920 9.701323 1.454223 12.000000
2.154000 10.328457 1.464980 68.000000
2.307352 10.330848 1.469794 66.000000
2.462230 10.335114 1.475212 62.799999
2.618194 10.339261 1.480934 58.750000
2.072766 10.430014 1.476533 13.000000
2.759139 10.347654 1.486985 59.750000
2.915904 10.345705 1.492486 53.599998
3.075695 10.350014 1.499225 49.750000
4.249257 10.792891 1.404691 6.000000
-8.046500 11.326718 1.436776 15.000000
-6.569549 11.984621 1.413324 98.000000
-5.755337 12.396167 1.413324 11.500000
-6.028481 12.442796 1.429781 1.000000
-5.758392 12.635668 1.435953 2.000000
-6.763136 12.811161 1.498082 1.000000
-5.668925 12.756649 1.443565 2.000000
-5.563038 12.788013 1.442125 5.000000
-6.640424 15.134477 1.419204 1.000000
-6.568993 15.100448 1.414070 2.000000
-6.256481 15.292886 1.418862 0.000000
-7.346751 15.535157 1.475671 4.000000
-7.518452 15.643146 1.490386 2.000000
-7.507006 15.745830 1.497915 0.000000
-3.608996 -23.072910 1.596993 0.000000
-5.128369 -22.812044 1.598903 12.000000
-5.602810 -22.589182 1.591535 3.000000
-4.285046 -22.569817 1.570977 27.666666
-4.126853 -22.641220 1.573797 0.000000
-4.184861 -22.557516 1.568885 30.000000
-6.430314 -22.292940 1.586623 0.000000
-5.897692 -22.274641 1.575707 11.000000
-6.267395 -22.252239 1.580892 9.000000
-6.157873 -22.129568 1.570795 21.000000
-5.625446 -22.085600 1.558515 7.000000
-5.326874 -22.069202 1.552511 14.000000
-5.187189 -22.098236 1.552238 4.500000
-5.043802 -22.111053 1.550874 9.000000
-6.049182 -22.006430 1.560698 5.000000
-4.590333 -22.030294 1.538866 32.000000
-4.512280 -22.001604 1.535864 32.000000
-4.850405 -21.896843 1.533681 8.000000
-4.640512 -21.925970 1.532589 23.000000
-4.428137 -21.941347 1.530679 3.000000
-4.692601 -21.833250 1.527131 5.000000
-5.316500 -21.726748 1.529588 0.000000
-6.427184 -21.274439 1.519763 4.000000
-3.494617 -17.894869 1.565676 17.000000
-6.177509 -17.522556 1.595449 21.000000
-6.397946 -17.445400 1.595620 16.500000
-6.271353 -17.438374 1.591342 13.500000
-4.948970 -17.361992 1.550276 50.000000
-3.791258 -17.373709 1.527004 13.000000
-5.432363 -17.324078 1.559059 47.666668
-5.357787 -17.340353 1.558489 0.000000
-5.000177 -17.334871 1.549249 25.000000
-4.868470 -17.285387 1.542062 22.000000
-4.754609 -17.190947 1.531624 36.500000
-4.596235 -17.098202 1.520365 27.400000
-4.070061 -17.097559 1.509209 10.000000
-4.006309 -17.067583 1.505444 1.000000
-4.313276 -17.046026 1.509893 5.000000
8.073062 -16.530260 1.579707 2.000000
8.160581 -16.511658 1.581589 5.500000
8.275774 -16.483215 1.583813 2.500000
9.369715 -16.060154 1.596647 3.500000
9.377517 -15.900822 1.585182 1.000000
-4.803370 -14.566683 1.586132 8.000000
-5.151051 -14.252937 1.567205 18.000000
-7.092811 -13.718513 1.597035 15.500000
-5.095060 -13.692885 1.510837 6.000000
-5.365540 -13.503586 1.502608 9.000000
12.223246 -12.684078 1.512631 10.000000
-4.280494 -12.452638 1.594644 7.000000
-8.562721 -12.233377 1.544164 2.000000
5.552860 -11.935325 1.594163 7.000000
-8.990707 -11.561554 1.514540 3.000000
-5.161366 -11.489909 1.525396 18.250000
-6.513208 -10.943346 1.542227 14.000000
-6.848284 -10.787047 1.547356 24.333334
-6.682423 -10.798809 1.537899 27.333334
-6.566950 -10.762616 1.526838 14.000000
-4.030890 -10.758073 1.595176 25.333334
-3.828554 -10.799520 1.590959 0.000000
-7.123749 -10.742430 1.560982 13.000000
-4.093931 -10.737772 1.595635 38.000000
-3.943399 -10.694798 1.582707 31.000000
-3.902985 -10.688526 1.579956 7.000000
-6.972359 -10.634535 1.539983 24.666666
-6.860371 -10.633126 1.532449 19.000000
-7.156613 -10.467679 1.535614 18.750000
-3.788170 -10.527847 1.553550 18.000000
-3.202904 -10.476224 1.521093 11.000000
-8.050644 -10.420074 1.594644 4.000000
