# This PCD file was generated using the MATLAB® pcwrite function
# from Computer Vision Toolbox®.
# .PCD v.7 - Point Cloud Data file format
VERSION .7
FIELDS x y z intensity
SIZE 4 4 4 4
TYPE F F F F
COUNT 1 1 1 1
WIDTH 1249
HEIGHT 1
VIEWPOINT 0 0 0 1 0 0 0
POINTS 1249
DATA ascii
-7.956793 -5.000968 0.971840 15.000000
-7.853632 -4.970615 0.961142 16.000000
-7.752432 -4.992321 0.953531 9.500000
-8.139956 -4.869732 0.980892 3.000000
-7.333421 -4.837338 0.908477 3.000000
-8.295889 -4.753024 0.988709 0.000000
-4.937442 -4.771260 0.953365 18.000000
-4.990528 -4.680893 0.950064 2.750000
-4.902649 -4.664179 0.939612 16.000000
-4.127762 -4.668869 0.976783 2.000000
-7.638918 -4.521272 0.917940 6.500000
-6.825239 -4.595021 0.996412 12.000000
-5.309517 -4.550808 0.970969 5.000000
-5.172325 -4.518498 0.953640 11.250000
-4.080215 -4.512776 0.953590 22.000000
-8.181711 -4.451556 0.963200 17.000000
-6.948025 -4.458839 0.999778 30.000000
-5.328252 -4.311655 0.951715 24.000000
-4.121516 -4.392304 0.944093 20.000000
-5.346969 -4.285242 0.951439 20.500000
-4.177539 -4.205338 0.929090 12.000000
-4.156912 -4.257526 0.932652 19.000000
-6.573545 -4.189424 0.943995 9.000000
-6.351797 -4.020094 0.910332 9.000000
-8.103705 -3.832335 0.926992 12.000000
-8.062691 -3.751132 0.919586 5.000000
-6.448473 -3.703533 0.900554 27.000000
-3.935729 -3.720533 0.946211 3.250000
-3.026856 -3.729922 0.925977 16.500000
-2.812104 -3.726915 0.942647 17.000000
-3.991641 -3.685251 0.900143 16.750000
-2.621401 -3.668293 0.951605 21.000000
-5.325671 -3.475775 0.968103 13.500000
-3.908540 -3.462479 0.912273 9.600000
-3.845219 -3.465899 0.997905 1.000000
-5.184980 -3.332695 0.918614 23.571428
-8.162304 -3.220075 0.907380 5.333333
-6.874981 -3.277724 0.922355 4.000000
-5.856363 -3.264970 0.930993 1.333333
-5.694433 -3.229608 0.908988 21.333334
-5.638522 -3.240967 0.903029 49.500000
-3.709134 -3.249446 0.950584 6.750000
-8.229371 -3.187008 0.912591 6.000000
-6.950003 -3.154124 0.924278 2.000000
-6.820902 -3.121412 0.908409 26.000000
-6.298147 -3.173149 0.979221 52.000000
-6.242089 -3.108111 0.968218 77.000000
-5.394853 -3.191864 0.982513 2.000000
-8.539064 -3.062475 0.938101 3.000000
-8.439911 -2.997020 0.926169 9.000000
-6.263784 -3.082164 0.969318 59.000000
-4.588943 -3.025851 0.960324 20.000000
-8.254099 -2.901871 0.904774 15.000000
-6.585549 -2.888111 0.998475 3.000000
-7.617858 -2.772689 0.981745 2.500000
-6.503418 -2.707132 0.978120 23.166666
-3.237637 -2.712879 0.970220 8.250000
-3.233869 -2.618718 0.929796 4.166667
-7.123228 -2.516849 0.914901 2.000000
-6.544901 -2.572941 0.976470 14.666667
-6.406440 -2.502920 0.955015 33.000000
-7.118526 -2.427505 0.910813 10.000000
-4.786612 -2.439949 0.938639 1.500000
-4.762808 -2.456163 0.936230 1.000000
-6.614472 -2.394293 0.976745 32.000000
-6.526922 -2.362713 0.963817 9.000000
-7.883105 -2.199517 0.991122 28.000000
-6.505293 -2.285693 0.957399 24.000000
-6.618118 -2.132466 0.965468 5.000000
-6.539138 -2.182891 0.957216 16.000000
-6.523327 -2.005858 0.947644 40.000000
-5.405015 -2.043501 0.905708 8.750000
-8.011498 -1.993036 0.999778 0.000000
-6.679040 -1.975885 0.967118 2.000000
-8.629010 -1.804291 0.911631 7.000000
-8.540121 -1.729746 0.901071 25.000000
-6.278304 -1.793161 0.906604 52.000000
-8.120180 -1.302095 0.995931 2.000000
-6.682718 -1.374197 0.947313 6.000000
-4.520697 -1.357126 0.996212 4.666667
-8.151690 -1.280895 0.999298 11.000000
-4.742438 -1.232366 0.944581 13.857142
-6.258599 -1.144152 0.997223 56.000000
-4.592389 -1.156084 0.999516 0.000000
-4.748160 -1.060276 0.937875 25.571428
-4.560407 -1.091628 0.989722 37.714287
-6.071536 -0.972502 0.963776 15.000000
-5.775948 -0.943779 0.917322 54.000000
-4.842919 -0.940171 0.905804 5.000000
-4.702560 -0.910263 0.923362 32.000000
-6.955274 -0.879804 0.973444 17.250000
-6.233713 -0.848408 0.986074 5.500000
-4.671401 -0.830452 0.914620 44.500000
-5.975551 -0.717836 0.943336 31.500000
-5.862844 -0.738573 0.926200 27.333334
-6.154091 -0.651164 0.969970 21.000000
-6.038089 -0.658080 0.952008 9.000000
-5.883745 -0.669338 0.928161 36.500000
-4.430071 -0.563053 0.926107 14.666667
-4.149048 -0.506981 0.960102 35.200001
-8.062027 -0.421103 0.977657 33.000000
-7.103725 -0.415193 0.925065 1.500000
-4.191268 -0.470907 0.968778 20.333334
-8.047445 -0.394993 0.975734 33.000000
-6.990530 -0.297878 0.971519 18.000000
-6.314724 -0.318779 0.991029 26.750000
-4.420117 -0.316988 0.931077 34.368420
-4.425933 -0.196913 0.935084 34.833332
-7.136853 -0.144041 0.906620 9.500000
-6.014669 -0.168085 0.943130 38.666668
-5.855256 -0.120606 0.917941 34.000000
-4.471160 -0.142855 0.944171 20.000000
-4.251276 -0.147698 0.964788 34.769230
-7.501722 0.002351 0.908477 46.285713
-5.877823 -0.052027 0.921348 26.000000
-4.256256 -0.086927 0.977832 25.000000
-7.469217 0.056057 0.904561 61.000000
-5.789147 0.044458 0.907411 23.000000
-7.638121 0.177335 0.925240 0.000000
-7.535634 0.139486 0.912737 34.000000
-5.577497 0.132903 0.945719 37.000000
-5.462499 0.282260 0.955643 10.600000
-5.423951 0.423204 0.909864 12.416667
-5.444670 0.586184 0.956744 27.100000
-8.931585 0.636270 0.925964 5.250000
-5.324877 0.663219 0.937492 43.000000
-7.027903 0.711694 0.943021 38.799999
-5.558832 0.763442 0.980287 71.000000
-5.443494 0.725706 0.922312 31.625000
-8.756437 0.893972 0.910226 11.750000
-7.991604 0.892165 0.973810 1.000000
-5.431185 0.869844 0.911821 23.100000
-7.559935 0.988572 0.923316 1.000000
-4.641104 0.908042 0.998139 20.666666
-4.499812 0.909773 0.968952 15.000000
-4.447064 0.954051 0.959976 20.933334
-6.519105 1.083908 0.917607 4.000000
-5.582872 1.018566 0.991474 20.250000
-5.508812 1.023046 0.978911 7.000000
-9.199676 1.144251 0.958674 1.000000
-6.110052 1.164443 0.974925 13.000000
-4.330952 1.195789 0.948301 17.250000
-5.581804 1.255867 0.999563 7.000000
-8.954783 1.400682 0.937278 2.000000
-7.997553 1.349851 0.982226 12.666667
-6.636624 1.362305 0.940712 1.000000
-4.119120 1.355006 0.996039 45.000000
-8.966056 1.431315 0.938924 2.000000
-6.795211 1.417118 0.963817 38.000000
-6.667484 1.482651 0.948414 11.700000
-5.445834 1.436877 0.933861 20.166666
-4.492826 1.534281 0.915188 19.250000
-4.393717 1.560377 0.984131 11.000000
-7.981494 1.628238 0.938007 5.666667
-7.411501 1.666151 0.919950 27.333334
-6.847908 1.623849 0.977204 82.000000
-7.437983 1.745959 0.925240 17.666666
-5.533467 1.768083 0.910508 2.000000
-4.408530 1.785640 0.916892 3.000000
-7.484798 1.806616 0.932453 0.000000
-6.918908 1.809268 0.929359 6.500000
-7.553148 1.974487 0.945437 3.000000
-5.176105 2.029555 0.971338 1.500000
-4.958271 2.089328 0.940016 14.500000
-4.903057 2.120744 0.933304 8.000000
-4.970367 2.229012 0.902690 28.000000
-4.854589 2.247575 0.934656 27.000000
-4.633668 2.232058 0.969244 42.960526
-4.679316 2.364935 0.916008 27.750000
-7.044838 2.446380 0.903119 39.000000
-5.244932 2.497211 0.910508 14.000000
-4.778369 2.443111 0.937606 9.000000
-4.497231 2.554774 0.903645 23.000000
-6.974627 2.695483 0.905523 52.000000
-6.667898 2.687223 0.998200 0.500000
-4.515057 2.621501 0.912135 2.000000
-4.446687 2.658113 0.998662 41.000000
-4.208897 2.642856 0.908235 24.111111
-4.126818 2.669932 0.947501 35.571430
-3.908899 2.638571 0.995386 37.500000
-5.483599 2.781987 0.963776 32.000000
-5.467603 2.752310 0.959440 22.000000
-5.139611 2.761870 0.914534 31.000000
-4.523586 2.761208 0.925904 88.000000
-6.389012 2.823221 0.969869 2.000000
-5.802323 2.897992 0.900553 12.000000
-5.348338 2.819858 0.947672 29.000000
-3.731520 2.835043 0.903405 7.437500
-6.271570 2.937817 0.961617 0.000000
-5.900149 2.923727 0.914306 47.000000
-5.333398 2.963655 0.956343 25.000000
-5.156977 2.994209 0.934665 1.000000
-4.886056 2.961433 0.998186 6.000000
-3.766808 2.964904 0.924084 8.250000
-6.889618 3.094870 0.914660 5.000000
-6.778580 3.070622 0.901195 1.000000
-6.172415 3.034530 0.955015 10.000000
-5.536457 3.053768 0.991029 51.000000
-5.452052 3.091588 0.926587 59.000000
-5.123621 3.127470 0.940858 0.000000
-3.498419 3.133444 0.991256 6.000000
-6.944448 3.251538 0.928606 6.000000
-6.250464 3.283054 0.980321 6.750000
-7.120736 3.347718 0.952891 26.000000
-4.125293 3.314452 0.924527 21.000000
-3.946152 3.351563 0.927664 18.000000
-3.705118 3.313263 0.958155 10.250000
-6.675878 3.420594 0.908409 49.666668
-7.190957 3.589983 0.973329 0.000000
-7.159500 3.546222 0.967559 3.000000
-8.279428 3.687971 0.937278 2.000000
-8.240479 3.608743 0.930284 10.000000
-7.359509 3.732075 0.999298 67.000000
-5.722869 3.757756 0.950614 1.000000
-5.437532 3.715475 0.914456 25.000000
-7.850222 3.827111 0.903128 21.000000
-4.280936 3.955870 0.913605 25.000000
-8.277382 4.067596 0.953736 22.000000
-5.081021 4.064848 0.903487 24.000000
-6.965387 4.190190 0.984390 41.000000
-6.810554 4.184968 0.968039 8.000000
-6.317327 4.132368 0.914179 30.000000
-5.077133 4.105515 0.906604 1.000000
-4.834681 4.154112 0.984580 16.125000
-4.633956 4.175247 0.959007 19.166666
-8.384401 4.218749 0.970606 9.000000
-7.057473 4.275842 0.999298 42.000000
-6.486786 4.214179 0.936781 51.000000
-4.967393 4.212201 0.904325 23.571428
-8.286092 4.400231 0.970194 1.000000
-6.629312 4.366249 0.961307 37.000000
-6.120162 4.326901 0.907687 6.000000
-4.670737 4.343357 0.999701 27.000000
-8.254778 4.450319 0.969783 3.000000
-4.334716 4.485789 0.921716 9.500000
-4.137263 4.559564 0.965015 4.000000
-8.010217 4.682669 0.959497 4.000000
-7.931871 4.729220 0.954971 32.500000
-6.556932 4.760445 0.981264 75.000000
-7.964687 4.859756 0.964845 7.000000
-6.593703 4.834703 0.990161 83.000000
-9.307781 4.905359 0.903472 6.000000
-7.536576 4.936604 0.931683 2.400000
-4.486465 4.975735 0.930260 1.000000
-4.449844 4.997909 0.929159 6.000000
-7.591489 5.045682 0.942627 4.000000
-7.250885 5.058181 0.914237 6.000000
-7.109571 5.036407 0.900989 49.400002
-4.452498 5.032634 0.933010 3.000000
-6.986873 5.202201 0.900797 46.000000
6.103333 5.453101 0.954726 56.083336
6.189977 5.426553 0.996893 54.500000
-7.000460 5.586393 0.926169 35.000000
-6.763468 5.537807 0.903951 27.000000
-5.649820 5.592916 0.962750 14.000000
-5.144974 5.561904 0.917546 7.000000
-5.061005 5.523150 0.907206 19.500000
5.850924 5.585390 0.979581 63.666668
5.951631 5.505363 0.981848 53.714287
-5.629409 5.607834 0.962269 10.000000
-5.326436 5.685910 0.943514 11.000000
5.481083 5.701581 0.957780 33.000000
5.789244 5.667400 0.981120 60.599998
5.288841 5.798170 0.950407 58.666668
5.374816 5.727524 0.951208 62.333332
5.792072 5.796165 0.992325 56.000000
-5.337869 5.880656 0.961788 0.000000
5.242411 5.875679 0.953613 55.000000
-5.170240 5.991897 0.958422 1.000000
-4.825717 5.923242 0.925240 0.000000
5.220946 5.982913 0.961628 53.000000
-5.091595 6.091647 0.961467 16.000000
-7.336687 6.143129 0.989532 13.000000
5.272333 6.118843 0.978138 3.000000
-6.430768 6.436320 0.940879 7.750000
-6.374544 6.573716 0.946947 18.000000
-6.232391 6.569868 0.936455 0.000000
-6.595036 6.611167 0.965668 1.000000
-6.512949 6.653130 0.962788 3.000000
-6.495947 6.719563 0.966491 8.500000
-6.421873 6.812343 0.968137 0.000000
-6.476264 7.001077 0.986241 5.000000
-6.356208 6.905995 0.970606 30.000000
-6.357440 7.026186 0.979863 22.500000
-7.677676 7.182128 0.902787 27.000000
-7.790352 7.218998 0.912027 28.500000
-6.329085 7.211879 0.992275 19.333334
-7.675773 7.317344 0.910659 10.500000
-7.591105 7.328111 0.906039 2.500000
-6.028687 7.321308 0.980755 38.000000
-8.564505 7.593224 0.982868 19.000000
-8.416952 7.629391 0.975510 2.000000
-8.367444 7.680794 0.975339 47.000000
-8.243591 7.833816 0.976537 9.500000
-7.971088 8.040956 0.972259 12.000000
-7.665354 8.131432 0.959597 16.000000
-6.981753 8.117024 0.919385 29.000000
-6.806094 8.195069 0.914765 37.000000
-7.716935 8.272395 0.971460 70.333336
-7.549626 8.238973 0.959597 3.500000
-7.739021 8.313619 0.975339 69.000000
-7.252285 8.512368 0.960281 34.000000
-6.220224 8.755945 0.922294 39.000000
-6.837284 8.894442 0.963361 6.000000
-6.270813 8.886153 0.933930 1.000000
-9.731328 9.160720 0.913932 3.000000
-5.022059 9.299685 0.907579 48.666668
-9.658511 9.323858 0.918025 0.000000
-5.224907 9.356535 0.920241 22.500000
-4.995339 9.390914 0.913396 51.000000
-6.506192 9.470114 0.986632 10.000000
-6.383181 9.417309 0.976936 17.333334
-5.369170 9.439934 0.932561 22.000000
6.552095 9.455301 0.987830 66.750000
6.671986 9.437124 0.992450 58.500000
-5.402186 9.567808 0.943512 55.000000
-5.058842 9.582779 0.930508 40.000000
6.471932 9.546521 0.990397 67.000000
-9.278112 9.658242 0.915842 0.000000
-9.167807 9.664234 0.910930 0.000000
-6.438224 9.693972 0.999295 30.000000
-5.289196 9.648914 0.944881 72.000000
-6.316052 9.740762 0.996899 29.000000
-6.228965 9.739960 0.992792 44.000000
-5.997091 9.744322 0.982526 21.000000
-9.152453 9.831994 0.918571 0.000000
-8.746441 9.882576 0.902470 5.000000
-6.188335 9.845957 0.998610 45.000000
-6.063928 9.852868 0.993477 45.500000
-4.972058 9.903119 0.951554 46.000000
-9.086300 9.947281 0.921300 8.000000
-8.880957 9.971274 0.913113 2.000000
-5.014142 9.986663 0.959597 45.000000
-5.191337 10.023857 0.969350 26.250000
-5.004168 10.165337 0.972943 2.000000
-4.376050 10.234753 0.955832 17.000000
-4.353208 10.270465 0.957886 47.000000
-4.249821 10.295450 0.956448 29.200001
-4.149940 10.328503 0.955832 8.000000
-7.872853 10.863936 0.917480 6.000000
-9.477367 11.124059 0.999349 4.000000
-7.385636 12.000385 0.963599 14.500000
-6.167836 11.955249 0.919936 34.000000
-7.773347 12.029570 0.979427 2.000000
-6.544446 12.303134 0.952956 11.000000
-6.127903 13.117400 0.990070 2.000000
-6.066211 13.255860 0.996893 10.000000
-7.960970 15.787428 0.900944 3.000000
-7.331297 16.282461 0.909900 15.000000
-7.267075 16.276234 0.908272 2.000000
-6.575512 17.291981 0.942673 1.000000
-7.300625 17.367493 0.959975 0.000000
-6.642693 17.304802 0.944505 0.000000
-6.577485 17.462088 0.950815 1.000000
-6.480059 17.536711 0.952647 2.500000
-6.916407 17.850042 0.975445 0.000000
-6.281168 18.408672 0.991119 1.000000
-5.826999 -30.897625 1.055684 5.000000
-5.728444 -30.907919 1.055415 4.000000
-2.864711 -29.970436 1.010852 20.000000
-2.722731 -29.975601 1.010584 255.000000
-2.579719 -29.968224 1.009913 255.000000
-2.437021 -29.962078 1.009309 255.000000
-2.295030 -29.963303 1.008973 255.000000
-2.199714 -29.954416 1.008436 255.000000
-2.104476 -29.945227 1.007900 1.000000
6.216069 -20.510958 1.092084 2.000000
5.777794 -20.202780 1.070710 2.000000
6.547424 -20.222925 1.083127 2.000000
7.057529 -20.266466 1.093508 6.000000
7.469080 -20.148232 1.094934 13.666667
5.790152 -20.008009 1.061347 24.000000
6.769074 -20.044432 1.078038 2.000000
6.637691 -19.861004 1.067046 1.000000
7.609030 -19.822205 1.081906 33.000000
7.765438 -19.855852 1.086384 9.000000
6.176498 -19.601206 1.047199 12.000000
7.894115 -19.637228 1.078445 11.000000
6.071629 -19.590061 1.045062 10.000000
8.157154 -19.577044 1.080684 17.000000
8.424673 -19.524345 1.083534 4.000000
-6.073356 -19.451464 1.038345 20.000000
5.953868 -19.425705 1.035291 25.000000
7.891199 -19.453154 1.069692 21.000000
8.603460 -19.433119 1.082924 4.000000
-6.094749 -19.306572 1.031627 29.000000
5.798443 -19.351755 1.029388 7.000000
6.871768 -19.340881 1.045876 52.000000
6.945989 -19.356796 1.047912 20.000000
7.926548 -19.365414 1.066232 28.000000
-6.623427 -19.279549 1.038752 22.000000
-5.952106 -19.275782 1.027963 26.000000
5.826768 -19.226395 1.023688 25.000000
6.350735 -19.202852 1.030609 36.000000
7.483464 -19.223999 1.051169 12.500000
7.593104 -19.236828 1.053815 19.000000
-6.650737 -19.098181 1.030474 50.666668
5.666139 -19.128567 1.016564 12.000000
6.659460 -19.123367 1.031831 7.000000
6.735413 -19.147570 1.034273 40.000000
-6.759500 -19.088236 1.031831 39.000000
-6.089787 -19.081821 1.020635 34.000000
6.142744 -19.075306 1.021144 17.000000
6.244406 -19.082232 1.023078 6.000000
7.600279 -19.079275 1.046487 18.000000
-6.791183 -18.987913 1.027556 40.000000
-6.117817 -18.963747 1.015343 10.000000
6.518631 -18.910036 1.019210 8.000000
7.198845 -18.931189 1.032034 64.000000
7.909551 -18.899002 1.043942 4.500000
8.021105 -18.914890 1.046894 9.000000
8.224521 -18.897062 1.050151 4.000000
-7.130874 -18.811712 1.025113 48.000000
6.901355 -18.858839 1.023281 12.000000
7.070958 -18.862022 1.026436 7.500000
-6.963802 -18.725096 1.017989 50.000000
-6.300842 -18.722569 1.006590 34.000000
6.260348 -18.731936 1.006386 30.000000
-6.837629 -18.654549 1.012391 31.500000
-6.094383 -18.689968 1.001704 20.000000
6.769937 -18.681370 1.012493 28.000000
-6.976251 -18.579710 1.011271 53.000000
-6.706943 -18.568220 1.005979 25.000000
-6.998632 -14.470915 1.099229 1.000000
-6.828684 -14.348846 1.086676 14.000000
-6.758018 -14.316096 1.082582 2.000000
-5.999055 -14.057784 1.045195 11.000000
-5.948642 -14.061861 1.044104 0.000000
-5.793046 -14.061954 1.040010 1.000000
-6.797479 -13.943076 1.060750 3.000000
5.199903 -13.681603 1.000895 255.000000
5.342665 -13.667915 1.003533 255.000000
5.506692 -13.643146 1.006103 255.000000
5.669534 -13.613442 1.008445 255.000000
5.763788 -13.598422 1.009992 255.000000
-6.841214 -13.596323 1.040829 3.000000
5.872782 -13.567928 1.011015 100.500000
-7.730215 -13.416148 1.058840 5.000000
-6.888354 -13.271967 1.022545 8.000000
-7.303437 -13.148675 1.028549 0.000000
-7.079066 -13.180272 1.023091 16.000000
-5.927218 -10.830775 1.060210 24.000000
-5.661073 -10.824030 1.048917 5.000000
-5.807562 -10.691751 1.044810 5.000000
-4.544612 -9.434632 1.082931 0.500000
-4.580329 -9.395231 1.080874 16.000000
-8.997604 -8.919428 1.087931 1.000000
-8.951764 -8.818399 1.079033 0.000000
-5.703347 -8.839692 1.087868 15.000000
-4.991696 -8.887802 1.054130 39.500000
-4.897590 -8.817331 1.043020 22.000000
-4.974578 -8.760403 1.041786 14.000000
-4.833365 -8.766472 1.035203 26.000000
-6.101860 -8.545026 1.085811 9.000000
-6.388849 -8.487531 1.098566 14.000000
-6.017436 -8.483021 1.075525 45.000000
-5.904696 -8.435912 1.064827 40.000000
-5.001332 -8.440164 1.014539 25.666666
-4.873641 -8.417720 1.005853 21.666666
-8.139209 -8.378504 1.003059 0.000000
-6.419589 -8.308974 1.085811 4.000000
-5.725895 -8.346824 1.046723 1.000000
-6.431005 -8.269919 1.083342 14.000000
-5.837205 -8.283971 1.047958 43.000000
-6.487857 -8.077924 1.071410 0.000000
-5.772168 -7.924330 1.013808 7.000000
-5.235986 -7.381380 1.095957 31.000000
-4.995892 -7.381750 1.079447 38.666668
-4.810122 -7.328335 1.061573 12.500000
-5.399399 -7.267648 1.096438 3.000000
-7.160445 -7.187992 1.049192 1.000000
-5.312976 -7.012235 1.065420 5.500000
-4.853972 -7.028355 1.034403 34.000000
-7.372338 -6.993642 1.050838 1.000000
-5.287798 -6.979054 1.060371 16.000000
-4.881111 -6.927114 1.026228 58.000000
-4.483867 -6.490035 1.095297 3.000000
-4.359523 -6.439049 1.079710 31.666666
-5.524250 -6.310281 1.015648 2.000000
-8.274091 -6.156093 1.066473 0.000000
-7.981371 -5.822252 1.021625 1.000000
-6.718721 -5.509008 1.052196 18.000000
-6.690650 -5.433477 1.043780 56.500000
-6.896905 -5.336303 1.056043 18.000000
-6.796054 -5.326784 1.045704 42.000000
-6.769071 -5.383306 1.047387 40.000000
-7.342114 -5.215839 1.090667 2.000000
-7.031758 -5.028680 1.046906 11.000000
-8.367464 -4.899351 1.002699 0.000000
-7.352178 -4.849709 1.066623 20.666666
-6.269943 -4.786798 1.095297 29.000000
-7.587477 -4.604194 1.074798 13.000000
-6.331609 -4.678309 1.093096 2.000000
-6.216187 -4.673952 1.079893 16.333334
-7.584897 -4.570089 1.072393 13.000000
-4.863279 -4.582922 1.047394 0.000000
-7.679776 -4.464356 1.075760 32.000000
-7.549203 -4.420240 1.059409 38.000000
-5.002296 -4.439689 1.048323 6.000000
-7.238937 -4.279338 1.018373 50.000000
-4.172727 -4.213710 1.036048 14.000000
-4.097980 -4.211992 1.083863 19.000000
-3.840379 -4.141438 1.088761 36.000000
-6.316902 -4.094398 1.045236 11.500000
-4.009000 -3.902187 1.078464 18.799999
-3.023325 -3.820258 1.028262 11.000000
-2.876495 -3.806199 1.006950 3.000000
-7.989287 -3.716981 1.067104 2.000000
-2.694673 -3.758347 1.062228 12.750000
-5.349926 -3.551791 1.006514 0.000000
-6.673154 -3.484678 1.045304 33.875000
-5.288332 -3.451508 1.074530 9.750000
-8.023860 -3.312115 1.051234 1.000000
-7.871098 -3.307087 1.033922 1.000000
-5.283530 -3.356539 1.093599 24.200001
-4.922915 -3.354286 1.040752 5.666667
-6.807619 -3.275643 1.048976 33.200001
-6.447255 -3.286454 1.004802 68.000000
-6.510614 -3.163074 1.082993 52.200001
-6.199239 -3.135630 1.088894 67.000000
-4.585844 -2.940669 1.050147 22.000000
-6.385121 -2.836206 1.095087 21.500000
-6.384629 -2.728544 1.088274 0.000000
-7.067774 -2.659420 1.048536 1.000000
-6.955768 -2.579949 1.030107 1.500000
-6.833455 -2.595786 1.014979 3.000000
-3.119070 -2.565497 1.048457 6.433333
-6.535902 -2.412519 1.091990 24.000000
-7.309607 -2.363758 1.066690 13.000000
-7.960228 -2.248017 1.001702 9.000000
-8.014814 -2.060851 1.002183 5.000000
-8.219748 -1.908260 1.021900 1.000000
-8.188722 -1.793028 1.015167 5.333333
-8.273561 -1.608196 1.020697 8.500000
-8.140587 -1.675352 1.006511 8.000000
-6.287677 -1.323900 1.007133 18.000000
-4.629322 -1.310833 1.015486 6.000000
-4.487345 -1.318981 1.074316 11.000000
-4.443917 -1.374761 1.068471 9.888889
-7.812387 -1.201044 1.097497 2.000000
-6.299808 -1.274798 1.007443 15.000000
-4.652596 -1.249264 1.016780 17.299999
-4.512020 -1.226912 1.074058 7.769231
-4.493033 -1.123584 1.063795 43.000000
-4.627190 -1.067409 1.002270 17.666666
-4.425292 -1.064725 1.067867 30.266666
-4.271022 -1.082560 1.093942 35.666668
-6.558360 -0.924053 1.038103 1.000000
-6.387236 -0.920414 1.011469 0.000000
-6.141725 -0.944204 1.085613 27.000000
-4.419381 -0.995140 1.040513 7.000000
-4.176586 -0.995774 1.065992 42.000000
-4.150201 -0.955110 1.057317 27.000000
-6.886747 -0.608553 1.083629 20.000000
-6.778539 -0.641880 1.067215 10.000000
-5.936293 -0.665862 1.043621 20.000000
-7.414041 -0.526243 1.032033 10.000000
-7.299982 -0.564267 1.016629 1.000000
-6.610799 -0.542361 1.039652 30.000000
-7.216897 -0.375697 1.003426 7.000000
-8.416185 -0.232038 1.019615 16.000000
-6.959160 -0.230858 1.091371 5.000000
-7.228020 -0.194321 1.003976 13.000000
-5.694778 -0.116742 1.063526 16.666666
-5.666064 -0.133536 1.092547 25.000000
-7.820716 -0.062790 1.085945 3.000000
-7.549488 -0.001327 1.048261 11.000000
-6.048254 -0.033256 1.056700 39.799999
-5.724478 -0.016643 1.081142 33.214287
-7.501420 0.087251 1.041660 46.750000
-5.866372 0.085656 1.095785 29.666666
-7.253768 0.116488 1.050795 43.666668
-5.794275 0.154534 1.093264 29.538462
-5.763767 0.230531 1.085924 20.000000
-8.453529 0.382395 1.024785 0.000000
-8.907019 0.459001 1.080088 26.000000
-8.603007 0.416242 1.043059 1.000000
-6.931311 0.789711 1.093436 55.333332
-6.907018 0.816278 1.090132 10.000000
-8.806761 0.950443 1.072714 14.833333
-7.613415 0.948113 1.065315 30.000000
-7.458262 0.928977 1.043585 15.000000
-5.396259 0.946143 1.056110 17.750000
-4.660501 0.904208 1.001994 5.500000
-9.735286 1.086826 1.012985 16.000000
-7.775712 1.067905 1.089796 21.000000
-4.655710 1.003803 1.093971 22.900000
-4.401002 1.059282 1.046296 32.923077
-4.247108 1.081332 1.018213 35.571430
-4.155808 1.073996 1.065670 37.666668
-5.701322 1.171084 1.087066 8.000000
-5.617002 1.175909 1.002661 6.750000
-4.339785 1.180093 1.033051 22.666666
-4.258184 1.175879 1.014769 27.750000
-6.002610 1.251811 1.071272 17.000000
-4.219306 1.293982 1.013718 30.384615
-4.150358 1.358607 1.003083 35.799999
-4.127713 1.413246 1.042743 34.000000
-4.853726 1.602397 1.078817 64.000000
-4.659175 1.603451 1.085973 40.500000
-4.396938 1.594491 1.085038 32.000000
-5.057423 1.647673 1.025351 27.750000
-7.355839 1.776847 1.050737 24.000000
-7.296501 1.835462 1.044685 0.000000
-6.735471 1.864104 1.095397 31.000000
-7.319909 1.958016 1.052112 9.750000
-6.682541 1.910567 1.089389 12.200000
-6.569170 1.963350 1.074647 4.000000
-5.265134 1.952789 1.082536 29.777779
-5.220985 2.036040 1.080271 39.500000
-5.028290 2.110400 1.051229 11.571428
-4.888683 2.142929 1.028948 0.000000
-4.870333 2.171441 1.027938 14.000000
-4.736167 2.147425 1.002448 0.000000
-4.700848 2.251743 1.078254 30.461538
-7.052065 2.318586 1.030749 6.000000
-4.610879 2.303927 1.087903 39.000000
-7.212176 2.480536 1.058989 7.000000
-7.012967 2.486177 1.033133 1.000000
-7.099705 2.516913 1.045923 10.250000
-4.539000 2.576372 1.006107 32.166668
-8.645894 2.691364 1.096598 15.666667
-6.985737 2.663463 1.038084 10.000000
-6.806372 2.644166 1.013879 14.000000
-4.975780 2.667560 1.088329 27.000000
-4.525033 2.666276 1.053487 22.000000
-4.448860 2.697583 1.045392 28.777779
-4.087634 2.676029 1.031181 3.666667
-3.962312 2.683760 1.019892 34.777779
-4.532074 2.767475 1.023648 2.000000
-4.423414 2.777969 1.086464 19.333334
-4.005222 2.768178 1.027602 21.000000
-3.856849 2.737870 1.086405 21.750000
-8.588413 2.952199 1.099804 14.000000
-5.024632 2.993927 1.021867 14.400000
-5.568884 3.117450 1.000320 45.000000
-5.014197 3.158802 1.035360 11.500000
-6.065950 3.296284 1.082080 10.000000
-4.844077 3.258157 1.078044 31.444445
-3.814762 3.216874 1.053209 9.500000
-3.581585 3.228272 1.017689 0.000000
-3.500179 3.292105 1.014178 2.750000
-6.142222 3.362767 1.097565 40.000000
-5.937699 3.348453 1.068454 21.000000
-5.854522 3.374662 1.059163 24.000000
-4.952069 3.307626 1.040408 30.666666
-5.216039 3.413280 1.089055 117.000000
-3.902466 3.429583 1.001502 15.250000
-3.806273 3.491893 1.090216 7.200000
-3.538006 3.407071 1.036688 9.000000
-9.307067 3.681154 1.034997 12.000000
-5.850605 3.653700 1.081151 5.750000
-7.831269 3.772325 1.052677 24.500000
-5.521416 3.754935 1.046620 27.000000
-5.579170 3.854561 1.062879 58.000000
-5.405639 3.835956 1.038929 32.000000
-4.243764 3.872375 1.003693 3.000000
-7.512599 3.929162 1.026708 0.000000
-7.373698 3.945461 1.012763 25.000000
-5.382317 3.993680 1.050491 18.000000
-8.109025 4.080188 1.099324 10.000000
-7.390515 4.014592 1.018533 6.500000
-6.670857 4.086324 1.086220 4.000000
-5.573084 4.044939 1.079355 56.000000
-5.352236 4.069938 1.053898 2.500000
-7.785871 4.134594 1.067585 62.000000
-7.536458 4.186128 1.044021 37.000000
-7.355095 4.176576 1.024304 11.000000
-6.639665 4.285464 1.097277 22.400000
-7.786638 4.357154 1.080569 33.000000
-7.527426 4.352943 1.053037 24.750000
-7.367295 4.379436 1.037929 57.000000
-7.179598 4.380724 1.018533 50.000000
-6.167079 4.337463 1.046886 37.000000
-7.500489 4.448156 1.056043 42.000000
-6.947120 4.482261 1.001221 29.000000
-6.226478 4.483253 1.065370 31.600000
-4.343417 4.410644 1.081483 16.000000
-8.791600 4.545498 1.023477 10.750000
-7.074006 4.522273 1.016770 19.000000
-6.285353 4.519812 1.074942 0.000000
-6.228095 4.568246 1.072467 63.000000
-4.050196 4.563455 1.065994 9.500000
-8.852497 4.665416 1.034791 11.000000
-7.037683 4.698874 1.024785 15.000000
-6.321700 4.698335 1.093647 87.000000
-7.103530 4.786033 1.037288 24.000000
-7.109540 4.893533 1.045223 18.000000
-5.580102 4.933386 1.034233 12.000000
-7.199782 5.073246 1.066623 20.000000
-7.096362 5.033692 1.053639 31.750000
-6.989039 5.090969 1.047146 57.000000
-5.538459 5.021967 1.038084 20.000000
-19.222422 5.118288 1.013612 7.500000
-6.970994 5.196054 1.052917 52.000000
-19.219318 5.214565 1.014732 1.000000
6.747776 5.375124 1.044742 7.500000
6.257990 5.405925 1.060030 40.000000
-6.927772 5.528388 1.073355 0.000000
-6.765847 5.516000 1.057165 30.666666
-5.129611 5.582154 1.052662 3.500000
-4.923235 5.600055 1.035333 7.000000
-4.851286 5.570869 1.025706 19.000000
-7.009057 5.683900 1.092831 15.500000
-5.129432 5.617445 1.056238 0.000000
5.245971 5.730985 1.078793 55.500000
5.342262 5.708712 1.085615 53.599998
-6.403650 5.878153 1.052677 0.000000
-6.255167 5.851434 1.037288 0.000000
5.184834 5.809249 1.081177 51.166668
5.830371 5.851558 1.097861 57.333332
-19.032005 5.942386 1.015953 0.000000
-7.859782 5.994076 1.022174 5.333333
-6.469068 5.994636 1.068065 75.500000
-6.314815 5.994638 1.054440 38.666668
5.123694 5.982141 1.093647 0.000000
5.186190 5.978801 1.098964 38.666668
5.843675 5.952783 1.010198 12.333333
-7.886081 6.180368 1.036108 30.600000
-7.492187 6.173885 1.003933 23.000000
-6.311817 6.131544 1.065661 7.000000
-6.264125 6.123586 1.060852 18.000000
-7.841052 6.216971 1.034791 28.000000
-7.341354 6.392947 1.006676 13.666667
-18.905516 6.494933 1.018600 1.000000
-7.302526 6.443746 1.007122 11.250000
-6.298436 6.413784 1.088624 39.500000
-6.218225 6.432414 1.083454 32.000000
-7.263247 6.562886 1.012299 17.000000
-6.269510 6.526375 1.095957 13.000000
-7.891831 6.705567 1.070917 20.000000
-7.289570 7.170945 1.057421 5.000000
-7.631697 7.275188 1.090337 3.000000
-6.509264 7.354816 1.015659 21.000000
-6.361905 7.419835 1.010722 39.000000
-6.216116 7.484666 1.006127 79.333336
-6.401258 7.561473 1.024505 28.000000
-6.150826 7.598352 1.010928 21.000000
-6.557415 7.647966 1.041786 93.000000
-6.271559 7.797459 1.034791 8.000000
-6.229814 7.858752 1.037054 43.750000
-6.045671 7.898835 1.028620 30.333334
-6.697627 7.962144 1.075936 92.000000
-8.344343 8.157133 1.002032 0.000000
-6.153437 8.216494 1.061536 1.000000
-6.065290 8.397375 1.071205 14.500000
-6.217050 8.410894 1.081594 23.000000
-6.026664 8.483252 1.076101 35.599998
-5.933779 8.493241 1.071410 10.000000
-9.386220 8.507991 1.087845 39.750000
-9.312250 8.683966 1.093406 4.000000
-7.909112 8.768559 1.014010 15.000000
-5.157675 8.969666 1.069970 32.500000
-5.017982 8.974856 1.063318 41.333332
-4.888435 8.971285 1.056516 30.000000
-8.966631 9.102238 1.097171 1.000000
-8.645897 9.085480 1.076980 3.500000
-5.064303 9.102491 1.077171 30.000000
-8.492272 9.180455 1.073900 1.000000
-8.024643 9.241062 1.050970 39.000000
-7.763055 9.228725 1.035570 3.000000
-8.076280 9.359766 1.061579 13.000000
6.778913 9.493167 1.001690 53.000000
-8.313258 9.512897 1.084851 4.000000
-6.938566 9.574692 1.015379 25.000000
-7.182037 9.653014 1.033175 9.000000
-7.114339 9.603888 1.026330 19.666666
-6.653801 9.620066 1.004428 108.000000
-6.454731 9.718820 1.001861 42.000000
6.503936 9.741187 1.005797 97.000000
7.033407 9.751995 1.032490 53.000000
-6.425235 9.807572 1.006824 82.000000
-6.266129 9.900552 1.006139 27.000000
-7.043808 10.115866 1.058499 71.000000
-6.315634 10.118914 1.024277 36.000000
17.985844 10.196633 1.053510 24.500000
-7.258886 10.286317 1.081086 36.000000
-6.198317 10.214514 1.025988 30.000000
-6.122990 10.271429 1.026844 17.000000
-7.308891 10.426551 1.093406 53.000000
-6.277263 10.418268 1.044468 13.000000
6.097046 10.429626 1.037418 57.599998
6.249541 10.425612 1.043784 36.000000
6.350198 10.481296 1.052339 0.000000
6.953457 10.485636 1.080402 57.000000
6.011582 10.509569 1.039677 63.000000
6.954226 10.594923 1.088273 35.500000
6.001178 10.607172 1.046522 37.500000
-6.185362 10.717675 1.062606 5.000000
-6.100165 10.725150 1.059526 1.000000
-9.888116 11.243524 1.023909 4.000000
-9.444715 11.592752 1.022545 8.000000
-9.430844 11.650284 1.025001 0.000000
-8.673648 11.890182 1.006444 14.000000
-8.801722 11.947186 1.014767 19.500000
-8.795489 12.137104 1.025001 11.000000
-8.112703 12.298891 1.007536 32.000000
-8.268984 12.408325 1.019680 40.500000
-8.373633 12.781637 1.044922 22.000000
-7.259292 12.999662 1.018179 15.000000
-8.448013 13.073563 1.064435 19.500000
-8.298740 13.051605 1.057658 17.000000
-7.973164 13.046814 1.045605 3.500000
-8.262891 13.146681 1.061842 2.000000
-7.982737 13.248814 1.057749 0.000000
6.847523 13.662266 1.045059 67.750000
6.996070 13.636240 1.048061 62.500000
6.734257 13.758533 1.047515 72.500000
7.149100 13.739094 1.059113 65.666664
7.299070 13.849776 1.070575 48.000000
-7.344136 13.911729 1.075760 33.000000
6.592773 13.966043 1.056111 59.000000
6.672873 13.908716 1.054929 63.333332
6.560711 14.011985 1.058022 56.000000
-7.222313 14.217499 1.090496 14.000000
6.619191 14.253311 1.074668 58.000000
-6.674588 14.346381 1.082036 27.000000
6.617786 14.368279 1.081764 60.000000
-6.688008 14.494102 1.091588 26.000000
-6.524612 14.595444 1.093280 20.799999
6.670442 14.603164 1.097865 46.000000
-6.440889 14.679709 1.096227 15.000000
-6.556989 18.829102 1.015953 0.000000
-7.416140 19.050869 1.041703 16.500000
-6.326124 19.027908 1.021755 1.000000
-7.316916 19.151220 1.044655 9.000000
-7.233340 19.575260 1.063382 0.000000
-7.529403 20.181229 1.097580 2.000000
-6.345998 20.475315 1.092287 1.000000
7.837249 -20.226572 1.105315 4.000000
-6.326075 -16.142159 1.185601 1.000000
-7.773029 -15.092268 1.160904 2.000000
-7.700151 -15.066864 1.157083 3.000000
-7.508387 -14.806246 1.135251 2.000000
-7.247818 -14.749001 1.123790 4.000000
-7.886374 -14.303840 1.116967 11.000000
-7.731581 -14.233880 1.107689 5.000000
-7.755187 -14.171012 1.104687 11.000000
-6.414642 -12.359254 1.195731 2.000000
-6.228041 -12.186390 1.175198 2.000000
-6.521305 -11.075400 1.103673 4.000000
-4.328280 -10.745229 1.197931 6.500000
-5.099018 -9.938725 1.155140 30.000000
-5.000229 -9.937582 1.150408 28.250000
-5.086254 -9.799815 1.141768 22.000000
-5.788300 -9.690725 1.167278 3.000000
-5.135688 -9.598305 1.125721 9.500000
-5.042253 -9.616325 1.122841 21.000000
-5.902115 -9.537711 1.159872 1.000000
-4.752295 -9.594451 1.107206 53.000000
-5.145722 -9.473551 1.114859 24.799999
-6.081728 -9.329330 1.151643 13.500000
-6.156692 -9.035532 1.130659 20.000000
-6.432995 -8.890100 1.134773 12.000000
-6.363232 -8.852114 1.127367 15.000000
-6.478691 -8.777858 1.128190 19.000000
-6.360641 -8.533499 1.100623 26.500000
-4.616457 -8.342167 1.154626 10.000000
-5.399686 -8.254729 1.194541 18.000000
-4.752033 -8.247375 1.152703 30.000000
-4.664648 -8.240373 1.146726 27.142857
-7.617565 -8.194607 1.156991 3.000000
-4.836795 -8.136406 1.146291 21.000000
-4.736929 -8.103062 1.136673 34.666668
-5.317574 -8.018764 1.165206 9.000000
-4.868616 -8.007564 1.134910 33.000000
-4.988394 -7.967787 1.138436 29.000000
-5.335057 -7.882721 1.152703 34.500000
-4.978265 -7.841279 1.124811 29.333334
-4.903305 -7.813509 1.117117 27.000000
-7.591290 -7.668527 1.115847 3.000000
-5.342224 -7.481235 1.113269 15.000000
-5.403597 -7.369801 1.106697 19.666666
-4.717294 -7.208740 1.196214 41.444443
-4.556443 -7.245124 1.188405 11.500000
-4.465075 -7.263556 1.183867 9.000000
-4.921400 -7.052023 1.194044 6.500000
-6.469946 -6.916354 1.146932 0.000000
-4.889520 -6.936475 1.178366 9.000000
-4.610234 -6.902309 1.152510 37.000000
-5.171731 -6.823390 1.188818 1.000000
-5.257065 -6.757863 1.188818 1.000000
-4.645042 -6.768696 1.139857 28.000000
-6.655085 -6.617716 1.136593 0.000000
-6.656407 -6.454979 1.122887 11.000000
-6.850758 -6.377268 1.133467 8.000000
-6.646214 -6.284638 1.107739 1.000000
-4.420615 -6.229615 1.197287 10.333333
-4.273596 -6.290828 1.192023 5.500000
-4.255099 -6.138143 1.170653 23.833334
-5.725453 -5.938220 1.145358 9.250000
-4.248929 -5.869722 1.135761 15.000000
-7.479417 -5.712246 1.139719 3.000000
-6.335370 -5.676425 1.181116 1.000000
-7.968269 -5.364554 1.163282 11.000000
-6.812836 -5.303698 1.198830 47.799999
-8.068191 -5.249560 1.165687 1.000000
-7.843140 -5.244581 1.142604 8.000000
-7.911209 -5.112119 1.140680 8.000000
-7.998306 -5.027089 1.144047 10.000000
-7.897371 -4.963669 1.129620 9.333333
-7.019505 -4.984815 1.195419 3.000000
-7.862671 -4.816460 1.116636 21.333334
-7.939990 -4.750103 1.120483 17.000000
-7.205712 -4.718877 1.195970 19.000000
-6.432512 -4.721693 1.107950 3.000000
-6.346494 -4.751239 1.100798 3.000000
-8.003304 -4.618846 1.119040 6.000000
-8.013026 -4.524325 1.114392 9.333333
-8.165655 -4.426218 1.124811 4.000000
-5.015074 -4.436882 1.169857 10.375000
-4.846933 -4.398013 1.143439 11.000000
-6.218167 -4.299246 1.184899 29.000000
-4.342248 -4.337688 1.183151 25.000000
-6.189371 -4.103463 1.163964 22.200001
-6.117614 -4.117068 1.155788 27.000000
-3.973268 -4.162520 1.109280 15.200000
-6.342793 -4.054745 1.179944 13.500000
-5.921445 -4.012134 1.121102 57.000000
-3.674584 -4.070328 1.157394 27.250000
-6.333420 -3.931530 1.168441 23.428572
-3.940051 -3.830194 1.159769 25.000000
-3.031112 -3.895037 1.133640 20.000000
-6.491850 -3.734760 1.173905 27.500000
-3.938815 -3.775009 1.101206 15.000000
-6.511333 -3.621244 1.167804 22.600000
-6.671332 -3.547211 1.184280 0.000000
-6.666460 -3.477924 1.178551 34.500000
-6.728673 -3.232509 1.170034 32.000000
-6.380112 -3.126924 1.113669 63.500000
-6.667900 -3.012083 1.146807 6.000000
-6.502091 -3.023722 1.123951 13.800000
-8.825343 -2.901641 1.125051 3.500000
-8.678952 -2.914043 1.108701 4.500000
-7.120943 -2.807888 1.199765 3.000000
-7.134322 -2.770057 1.199558 25.666666
-6.526486 -1.979214 1.191513 10.666667
-5.991303 -1.508291 1.190975 36.250000
-4.494060 -1.440711 1.171691 8.583334
-4.253535 -1.401056 1.196878 30.222221
-7.925537 -1.326865 1.115789 6.000000
-7.102588 -1.360160 1.133490 6.000000
-6.989016 -1.323116 1.114908 24.000000
-7.988556 -1.279559 1.123353 3.000000
-4.303925 -1.210228 1.194927 27.750000
-4.307043 -1.138688 1.162581 5.777778
-6.577919 -0.549667 1.192921 47.666668
-8.050100 -0.309235 1.118585 0.666667
-8.125533 -0.269551 1.128854 2.000000
-6.840568 -0.226924 1.195758 65.000000
-6.615339 -0.177869 1.156175 1.500000
-6.372301 -0.121295 1.113494 7.500000
-7.525530 0.045902 1.179583 12.500000
-7.428861 0.080390 1.164459 1.000000
-8.496935 0.305631 1.180566 36.000000
-5.887613 0.321005 1.106041 12.571428
-5.850448 0.381819 1.117009 33.625000
-8.616215 0.472684 1.198170 6.500000
-5.802382 0.410831 1.121318 45.000000
-6.078576 0.507229 1.175832 71.000000
-5.182909 0.621688 1.199008 4.500000
-8.439264 0.774041 1.176715 34.666668
-8.446344 0.863581 1.178916 25.500000
-8.252017 0.817841 1.151410 11.000000
-7.050768 0.878221 1.113669 3.000000
-8.123487 0.921229 1.135181 24.000000
-4.571781 1.056727 1.106438 14.166667
-5.841091 1.155533 1.147818 3.000000
-9.430178 1.218055 1.151500 7.000000
-5.905387 1.281071 1.164854 29.500000
-4.777933 1.282925 1.136326 7.000000
-5.721203 1.321235 1.131918 20.125000
-5.645630 1.392967 1.120940 26.500000
-4.190840 1.339855 1.175895 31.000000
-5.599136 1.446931 1.114807 15.600000
-4.347519 1.475829 1.111452 50.000000
-4.244461 1.486839 1.116592 40.500000
-9.306579 1.575760 1.143085 10.000000
-4.440583 1.543767 1.167193 45.000000
-4.354081 1.601127 1.151772 26.000000
-4.198827 1.551304 1.196322 17.549999
-7.961273 1.686411 1.129955 4.000000
-7.801001 1.678088 1.107950 1.000000
-5.310437 1.652029 1.173812 11.000000
-4.592738 1.629080 1.119313 32.000000
-4.294271 1.650484 1.142271 27.714285
-9.310574 1.787910 1.148134 2.500000
-9.238480 1.774035 1.139238 14.000000
-8.009029 1.801975 1.139857 0.000000
-7.005172 1.765972 1.132354 8.666667
-5.294013 1.729328 1.175464 54.000000
-6.810430 1.821592 1.104998 9.500000
-4.808309 1.816931 1.180651 6.000000
-4.626849 1.826862 1.142594 31.600000
-4.551064 1.861714 1.129431 40.000000
-5.495735 1.929966 1.122833 1.000000
-5.324067 1.907339 1.193637 33.000000
-5.077046 1.966023 1.149113 14.700000
-5.097038 2.045906 1.159218 2.666667
-6.703740 2.130396 1.102520 5.000000
-7.226176 2.234112 1.185519 2.000000
-4.896815 2.345352 1.112628 49.666668
-4.694874 2.341408 1.107315 21.250000
-8.886146 2.563172 1.120002 0.000000
-8.745833 2.597228 1.104854 27.500000
-7.087963 2.512764 1.178706 4.000000
-6.980477 2.555197 1.181813 51.625000
-8.719427 2.664119 1.104132 17.500000
-6.998193 2.643020 1.172512 56.000000
-7.034925 2.707518 1.181493 32.000000
-6.955170 2.764987 1.173131 14.000000
-3.776905 2.725998 1.156430 38.166668
-8.840394 2.823030 1.123849 21.000000
-8.726818 2.847302 1.111666 18.000000
-7.099064 2.809265 1.196668 22.000000
-3.588724 2.902982 1.145989 0.000000
-8.695390 2.958457 1.112308 17.000000
-3.570555 2.906888 1.143098 9.000000
-3.564408 2.920552 1.144061 0.000000
-3.680346 3.064169 1.144453 0.500000
-3.560546 3.012129 1.157876 5.666667
-4.215085 3.123719 1.107315 4.250000
-3.734127 3.118894 1.117522 14.000000
-5.234034 3.287187 1.191448 33.000000
-4.678274 3.290352 1.102565 32.076923
-4.689075 3.395571 1.116018 27.000000
-8.930627 3.548514 1.163763 0.000000
-4.875167 3.553731 1.162961 22.000000
-4.757964 3.514285 1.140247 53.000000
-5.711579 3.673865 1.186465 12.000000
-5.518206 3.786851 1.169254 24.500000
-5.264705 3.760824 1.130360 10.000000
-5.132428 3.715274 1.106954 21.500000
-8.444005 3.878390 1.125292 21.666666
-5.529174 3.826446 1.174762 28.000000
-5.232916 3.838337 1.133802 6.000000
-8.291592 3.914109 1.110384 7.000000
-7.554430 3.952838 1.183867 35.750000
-7.383406 3.982174 1.164796 22.666666
-7.106530 3.948947 1.128854 8.000000
-7.060871 3.981845 1.125554 3.000000
-6.186173 3.910735 1.147116 81.000000
-7.008742 4.025360 1.122253 2.500000
-5.477439 4.084206 1.193693 45.500000
-5.279580 4.093791 1.167189 36.000000
-8.480904 4.134579 1.142604 2.000000
-7.496102 4.103994 1.186617 5.000000
-5.790762 4.191812 1.120483 43.000000
-8.192858 4.257662 1.118159 19.000000
-6.746367 4.279735 1.109325 6.000000
-8.385258 4.385571 1.145970 28.000000
-7.963390 4.390590 1.101247 12.000000
-7.281681 4.320110 1.175615 67.000000
-6.738474 4.470253 1.122803 4.000000
-8.397514 4.544271 1.156309 1.500000
-6.750518 4.601440 1.134356 16.000000
-5.101640 4.539011 1.193004 32.000000
-8.239906 4.644844 1.145489 0.000000
-6.482942 4.692866 1.111250 129.000000
-5.018560 4.674015 1.198167 30.500000
-8.370305 4.753061 1.165687 3.000000
6.086066 5.384333 1.128304 61.599998
5.961821 5.461105 1.122620 59.166668
-4.623062 5.550723 1.132251 10.000000
5.807117 5.524261 1.112901 57.333332
5.781799 5.675981 1.125004 60.250000
-9.168859 5.794071 1.121607 2.000000
-6.283591 5.733689 1.181116 20.000000
-6.265548 5.753400 1.181116 10.000000
5.705221 5.797573 1.129405 0.000000
5.542362 5.811923 1.115101 37.000000
5.829343 5.886599 1.150309 5.000000
-7.536330 5.936897 1.161840 32.000000
-7.250386 6.103302 1.147733 23.000000
-7.743548 6.152834 1.197746 36.666668
-7.273597 6.148849 1.153424 46.000000
-7.110291 6.165645 1.139719 2.000000
-7.510074 6.228346 1.181556 19.000000
-7.271015 6.265108 1.162321 16.000000
-6.694963 6.586015 1.137314 16.000000
-7.081045 6.665839 1.177709 6.000000
-6.283578 6.609953 1.104453 29.666666
-7.194748 6.730371 1.193098 31.000000
-6.310088 6.735967 1.117758 14.333333
-6.212799 6.716261 1.107980 17.000000
-6.413449 7.065608 1.155588 37.000000
-6.230871 7.084964 1.142604 31.000000
-6.457711 7.159441 1.167610 52.000000
-6.290636 7.267315 1.164004 27.000000
-6.196233 7.295827 1.159195 17.000000
-6.146081 7.236952 1.149817 21.500000
-6.468903 7.309193 1.182037 10.000000
-8.671814 7.472114 1.183736 1.000000
-8.455320 7.567897 1.173449 2.000000
-8.624804 7.646791 1.191965 6.500000
-8.287637 7.655656 1.166729 21.333334
-7.963696 7.687765 1.144648 21.000000
-7.809963 7.634742 1.129425 34.000000
-6.233720 7.618817 1.192136 46.666668
-5.842337 7.699788 1.170496 15.000000
-5.656346 7.677698 1.154867 21.500000
-7.930944 7.704427 1.143414 21.000000
-5.879529 7.748770 1.177950 14.500000
-7.729275 7.995513 1.149997 34.000000
-7.955174 8.050095 1.170364 0.000000
-7.865639 8.034933 1.162752 24.000000
-7.723410 8.039843 1.152877 19.000000
-8.135117 8.103939 1.187439 11.000000
-7.457355 8.241648 1.149380 1.000000
-7.239236 8.283889 1.137653 9.000000
-5.428456 8.229489 1.193922 40.000000
-7.860176 8.338099 1.184970 40.000000
-5.331513 8.336642 1.198388 33.000000
-4.708798 8.463513 1.172900 0.000000
-4.936432 8.553594 1.195983 0.000000
-4.852600 8.531414 1.188609 41.000000
-4.828556 8.614951 1.195983 64.000000
-6.857885 8.749333 1.149585 1.000000
-7.356399 8.971779 1.199782 1.000000
-6.950704 8.954449 1.172215 26.500000
-6.734869 8.934227 1.156991 15.000000
-9.215778 9.180459 1.117020 4.000000
-5.279693 9.282618 1.104326 37.000000
-6.457196 9.398797 1.179210 3.000000
-5.520370 9.326943 1.120784 43.000000
6.537916 9.361376 1.180787 60.000000
6.688334 9.397358 1.192788 65.000000
-6.378641 9.410612 1.175644 16.666666
-5.702263 9.463950 1.142591 55.000000
-5.528606 9.442154 1.131482 24.000000
6.435939 9.445436 1.181953 64.333336
-5.904582 9.526823 1.159049 60.000000
-5.750538 9.543962 1.152260 66.500000
6.399461 9.519813 1.186204 55.000000
-5.610895 9.652104 1.154523 2.000000
-6.078991 9.877398 1.199371 53.000000
-9.820066 9.906140 1.197785 3.000000
-9.072924 10.058837 1.163220 1.000000
-5.413148 10.099707 1.184970 42.000000
-5.467536 10.124663 1.189907 29.000000
-5.296256 10.148014 1.183736 43.500000
-5.303096 10.278957 1.196079 47.000000
-4.233638 10.286831 1.150340 24.500000
-9.283338 10.357351 1.194362 15.000000
-8.838032 10.307867 1.165958 1.000000
-4.140152 10.304141 1.148351 6.000000
-8.723138 10.436461 1.168011 0.000000
-7.259944 10.567241 1.100935 9.000000
-6.857008 11.626961 1.159113 2.000000
-5.840250 11.863730 1.135500 26.000000
-7.937723 14.480539 1.129248 6.000000
-7.903632 14.526441 1.130885 43.000000
-6.695750 14.692482 1.104141 7.000000
-7.731895 14.758377 1.139345 19.000000
6.677225 14.740370 1.106597 8.000000
-6.458412 14.846251 1.107143 12.000000
-8.098780 14.997143 1.165543 29.000000
-8.030891 14.983821 1.162541 32.000000
-6.444931 14.943417 1.112874 10.000000
-7.757950 15.037186 1.157083 3.000000
-8.064362 15.160478 1.174276 0.000000
-6.473256 15.139721 1.125973 2.000000
-6.467712 15.259186 1.133341 3.000000
-6.332638 15.548649 1.148077 3.500000
-6.502817 15.614441 1.156674 0.500000
-6.552748 15.734231 1.165543 5.000000
-7.221853 15.913108 1.195016 3.000000
-7.410996 20.450356 1.108368 1.000000
-6.687948 20.546883 1.101040 0.500000
-6.474806 20.661125 1.103279 1.000000
-7.088728 20.775448 1.118546 1.000000
-6.997866 20.721916 1.114475 2.000000
-6.956785 20.815788 1.118343 2.000000
-7.510891 21.352123 1.153354 0.000000
5.075766 32.487350 1.104005 44.000000
5.180950 32.490982 1.104676 41.000000
4.977912 32.530796 1.104945 41.000000
5.298404 32.569244 1.107898 45.000000
-6.456626 -17.605576 1.282343 24.500000
-6.209390 -17.525053 1.271427 0.000000
-6.692067 -17.479008 1.279887 12.000000
-6.540011 -17.408636 1.271700 5.000000
-6.451886 -17.339333 1.265150 0.000000
-6.767327 -17.188652 1.263240 3.000000
-7.169106 -16.799603 1.249049 0.000000
-6.909364 -16.623211 1.231038 10.000000
-7.397375 -16.398708 1.230220 0.500000
-7.526101 -16.139904 1.217803 23.000000
3.676533 -13.905227 1.235087 203.333328
3.757061 -13.885746 1.235258 255.000000
3.870829 -13.873053 1.236798 255.000000
4.006577 -13.853820 1.238395 255.000000
4.143448 -13.837077 1.240335 255.000000
4.303844 -13.817905 1.242787 255.000000
4.464706 -13.798234 1.245354 255.000000
4.602543 -13.779484 1.247521 255.000000
4.739131 -13.755589 1.249346 255.000000
4.901256 -13.733884 1.252198 255.000000
5.064837 -13.714108 1.255392 255.000000
5.203807 -13.691829 1.257788 255.000000
5.345181 -13.674349 1.260754 255.000000
5.508642 -13.647963 1.263834 255.000000
5.673685 -13.623408 1.267256 255.000000
5.792216 -13.605963 1.269823 255.000000
5.883880 -13.564379 1.269652 53.666664
-7.331876 -12.724813 1.261096 4.000000
-6.705849 -12.724159 1.235087 5.000000
-7.321172 -12.523669 1.245696 1.000000
-7.119754 -12.267409 1.217976 10.000000
-5.156586 -10.923643 1.249156 8.000000
-5.220883 -10.816854 1.242058 21.500000
-6.119988 -10.777509 1.281660 1.000000
-5.107100 -10.731347 1.228995 4.000000
-4.803429 -10.783609 1.220766 1.000000
-4.708383 -10.777636 1.216240 27.142857
-4.555170 -10.767721 1.209040 22.000000
-4.449817 -10.769412 1.204994 27.333334
-6.132092 -10.681238 1.273637 13.500000
-4.609056 -9.684828 1.298894 6.000000
-7.678776 -9.499434 1.263145 0.000000
-4.751666 -9.443688 1.280260 22.500000
-4.789169 -9.298746 1.266675 7.000000
-4.759932 -9.313745 1.266675 0.000000
-4.960865 -9.271393 1.273407 11.000000
-7.293830 -9.140094 1.209245 3.000000
-4.879565 -9.188732 1.259942 11.000000
-8.613852 -9.092986 1.295238 1.000000
-4.746693 -9.041084 1.236619 40.500000
-5.567307 -8.628841 1.243592 7.000000
-5.438625 -8.371552 1.208967 10.000000
-4.640085 -8.108608 1.297192 28.000000
-4.550751 -8.109024 1.291141 25.000000
-4.454081 -8.135548 1.287840 0.000000
-6.357100 -8.069737 1.244073 0.000000
-6.767442 -7.513497 1.224596 7.500000
-6.826068 -7.436308 1.222432 3.000000
-7.838988 -7.297197 1.296971 1.000000
-4.680298 -7.301521 1.204221 60.000000
-7.578778 -7.121951 1.259461 11.000000
-6.185377 -6.996215 1.296642 1.000000
-6.082304 -6.923341 1.279588 4.000000
-5.692195 -6.927307 1.244931 5.000000
-5.601822 -6.961111 1.240667 18.250000
-5.469523 -6.955510 1.228610 26.666666
-5.661530 -6.824191 1.231177 5.000000
-5.447857 -6.824413 1.212473 23.000000
-6.571236 -6.511868 1.284539 4.000000
-4.818428 -6.398915 1.255510 28.000000
-5.108669 -6.338050 1.275950 24.500000
