# This PCD file was generated using the MATLAB® pcwrite function
# from Computer Vision Toolbox®.
# .PCD v.7 - Point Cloud Data file format
VERSION .7
FIELDS x y z intensity
SIZE 4 4 4 4
TYPE F F F F
COUNT 1 1 1 1
WIDTH 1244
HEIGHT 1
VIEWPOINT 0 0 0 1 0 0 0
POINTS 1244
DATA ascii
-6.670265 -9.885426 2.083455 3.000000
-6.394862 -9.941845 2.065212 43.000000
-10.701802 -9.649484 2.000801 4.000000
-7.235865 -8.129921 2.098023 8.000000
-8.590273 -7.993758 2.050067 1.000000
-8.496092 -7.956065 2.033546 18.000000
-8.326660 -7.946015 2.010828 21.000000
-10.833802 -7.744810 2.087356 0.000000
-6.205257 -7.671062 2.082463 12.000000
-6.118088 -7.710809 2.077507 0.000000
-6.339378 -7.614136 2.091136 19.500000
-7.628823 -7.557262 2.070009 0.000000
-7.585082 -7.281461 2.026853 44.000000
-9.406973 -7.158449 2.065212 5.500000
-8.078481 -7.122138 2.076066 11.500000
-8.127201 -7.007888 2.068685 28.250000
-9.182202 -6.874163 2.003944 57.000000
-9.420279 -6.846765 2.034578 6.500000
-8.072669 -6.785785 2.032910 9.000000
-8.576816 -6.048038 2.023067 65.000000
-7.952852 -5.784444 2.075579 40.666668
-7.918076 -5.840725 2.076681 63.200001
-7.961607 -5.626709 2.057682 23.333334
5.043563 -5.560154 2.006280 255.000000
-7.916912 -5.508632 2.035654 46.000000
5.187314 -5.541189 2.028588 255.000000
5.403802 -5.506522 2.061947 138.500000
-7.908150 -5.392567 2.020234 57.666668
-9.153302 -5.355189 2.044267 7.000000
-8.974009 -5.288203 2.007924 24.000000
-7.949486 -5.347878 2.022161 59.000000
-8.039009 -5.190725 2.019683 12.000000
-7.576439 -4.937147 2.077146 41.000000
-7.601278 -4.807184 2.065804 40.000000
-7.851477 -4.660013 2.097144 7.000000
-7.467757 -4.755655 2.033567 53.000000
-9.502447 -4.636704 2.038210 7.000000
-9.346442 -4.633515 2.010953 3.000000
-9.533314 -4.522703 2.034046 0.500000
-7.319282 -4.023812 2.073671 2.500000
-7.388434 -3.238682 2.002830 7.000000
-7.732511 -3.131991 2.071262 68.000000
-7.097927 -3.122045 2.072378 33.599998
-7.144095 -2.972275 2.067972 49.333332
-7.301795 -2.693776 2.080021 22.000000
-7.718734 -2.575166 2.020179 19.000000
-7.241356 -2.373870 2.036644 40.000000
-7.107467 -2.420965 2.006693 45.000000
-7.858943 -2.323448 2.034636 10.000000
-7.324653 -2.291195 2.051103 67.000000
-7.823922 -2.074476 2.009577 36.000000
-7.961035 -1.977532 2.036564 25.000000
-9.494840 -1.857649 2.041986 0.000000
-9.436977 -1.631747 2.021335 6.000000
-7.683383 -1.378304 2.086217 8.000000
-8.322289 -1.331524 2.092466 2.000000
-9.429340 -1.146084 2.004814 6.000000
-7.541225 -1.012914 2.033545 1.000000
-7.768682 -0.722047 2.085185 66.000000
-7.574619 -0.680013 2.032513 11.000000
-8.112328 -0.593570 2.019456 29.250000
-8.049599 -0.468364 2.001867 3.000000
-8.105297 -0.446062 2.015360 13.000000
-8.207513 1.154953 2.057768 38.000000
-7.456181 1.216986 2.019087 4.000000
-7.704046 1.257445 2.086217 20.000000
-7.368463 1.381602 2.003595 24.500000
-7.407011 1.619052 2.026316 0.000000
-11.466671 1.648287 2.023908 0.000000
-7.522612 1.669102 2.059365 0.000000
-11.501621 1.838143 2.034923 2.000000
-11.466238 1.943544 2.031825 6.500000
-8.870473 2.026720 2.089981 2.000000
-8.770304 1.974865 2.064908 19.000000
-7.380813 2.031629 2.045939 14.000000
-7.790149 2.065521 2.000903 4.000000
-7.429594 2.086957 2.062464 31.666666
-7.951530 2.490699 2.068732 16.875000
-6.960076 3.011917 2.026833 6.000000
-6.953497 3.639838 2.097578 15.000000
-7.301129 3.939477 2.059696 8.000000
-7.384218 4.014311 2.086683 41.000000
-7.190018 3.967443 2.038813 29.333334
-8.144050 4.101416 2.094458 4.000000
-6.643012 4.114027 2.088283 26.000000
-6.532091 4.131011 2.065562 19.000000
-6.961147 4.250768 2.024998 56.000000
-8.769189 4.590269 2.089071 2.000000
-7.571548 4.558445 2.029985 4.000000
-7.607436 4.670085 2.050357 15.750000
-8.319887 4.815084 2.028908 26.166666
-8.397163 5.010638 2.063877 22.000000
-8.274021 4.946017 2.034552 28.000000
-8.254555 5.076252 2.045291 2.000000
-5.435136 5.152346 2.001529 8.000000
7.257431 5.325264 2.067594 4.000000
8.285898 5.313328 2.077507 0.000000
-6.103897 5.398375 2.023071 16.000000
7.248183 5.406570 2.076997 0.000000
8.308819 5.431907 2.095184 22.400000
8.722938 5.671237 2.005653 8.000000
-6.823148 5.883352 2.069385 0.000000
4.752609 5.932207 2.031480 3.500000
4.934676 5.908090 2.057300 21.000000
4.970618 5.913264 2.064529 6.000000
-6.636106 6.006643 2.055954 5.333333
-6.463262 5.993408 2.024613 4.500000
4.617498 6.030671 2.029931 13.500000
4.693646 5.979724 2.031652 8.666667
-4.419036 6.082295 2.009275 13.000000
4.636679 6.236469 2.076922 9.000000
4.669518 6.198991 2.074168 10.000000
-8.423090 6.407382 2.040102 15.500000
9.622837 6.879118 2.066589 0.000000
-6.569965 7.040545 2.032487 2.000000
9.507183 7.071007 2.070031 13.500000
9.516157 7.170938 2.081734 22.000000
-5.233948 7.940715 2.007293 0.000000
-5.276180 7.950322 2.013901 0.000000
-6.717665 8.251360 2.051081 1.000000
-10.056465 8.378708 2.051637 6.000000
-4.456085 8.384209 2.003989 0.000000
-7.715354 8.556750 2.012894 2.000000
-5.822400 8.684299 2.015496 4.000000
-5.644455 8.741809 2.005905 3.666667
-9.598004 8.869196 2.048334 11.000000
-7.516590 8.882100 2.032857 4.000000
-7.508636 8.986605 2.045937 8.000000
-9.795815 9.109209 2.096647 5.000000
-7.492593 9.053736 2.053165 7.000000
-7.370813 9.137969 2.051100 5.500000
11.362843 9.135961 2.024456 9.000000
-7.234678 9.203559 2.045249 15.000000
-5.468068 9.180088 2.059788 7.750000
-7.210504 9.292435 2.054886 12.000000
-5.350641 9.346530 2.076066 9.000000
-7.101551 9.486092 2.070261 12.000000
-6.987466 9.477615 2.057181 35.000000
-4.868647 9.518268 2.060924 5.000000
-4.844055 9.544023 2.063195 0.000000
-6.534457 9.978091 2.083799 7.000000
-8.431751 10.221257 2.076826 1.000000
-7.492798 10.343288 2.001879 73.000000
-5.798550 10.504056 2.096191 3.000000
7.932457 10.534375 2.066916 22.000000
-7.832597 10.741173 2.083639 33.000000
-7.665081 10.686735 2.061341 49.000000
-7.596329 10.696983 2.056386 30.000000
-7.514015 10.687384 2.047714 6.000000
-7.391644 10.690828 2.037185 0.000000
7.821866 10.734324 2.081781 18.000000
8.015667 10.644775 2.088594 7.000000
-7.260687 10.825410 2.043069 19.500000
-7.188823 10.828252 2.037185 7.000000
7.799691 10.774851 2.084878 0.000000
-7.361492 10.864705 2.057005 23.000000
-7.054334 10.921049 2.037804 26.000000
-10.029933 11.265268 2.094322 0.000000
-6.255680 11.416823 2.040488 24.666666
6.041840 11.725927 2.067535 1.000000
-6.339042 11.743400 2.091691 12.000000
6.149668 11.843668 2.091691 105.000000
4.422812 12.053336 2.012409 55.750000
4.585822 12.142408 2.034397 22.000000
4.304949 12.143500 2.019429 53.000000
4.281377 12.322132 2.044617 54.000000
4.269635 12.413997 2.057625 0.000000
-7.816393 12.886092 2.092672 17.000000
-7.678391 12.885828 2.082769 9.500000
6.097078 13.069388 2.002451 52.500000
5.935694 13.152164 2.003551 63.000000
-6.718873 13.335797 2.073417 4.000000
6.066756 13.275423 2.026657 44.000000
-6.812759 13.417068 2.089371 0.000000
5.633234 13.368402 2.014279 36.500000
6.176414 13.403830 2.049212 99.000000
-6.369691 13.530132 2.076443 29.000000
-6.497237 13.551743 2.086758 27.750000
-6.297962 13.617500 2.083228 17.000000
5.410428 13.735172 2.049762 1.000000
5.334024 13.794764 2.053613 1.000000
5.364370 13.744720 2.048662 0.000000
-7.293710 15.298444 2.052455 4.000000
-6.941697 15.295794 2.034181 2.000000
5.657681 18.621695 2.012598 67.500000
5.771072 18.574368 2.011363 60.500000
5.907466 18.633730 2.021444 38.333332
5.590959 18.718695 2.020209 58.000000
5.537759 18.755247 2.022266 66.000000
5.508907 18.875675 2.033376 19.000000
5.081308 -31.688232 2.194638 16.000000
5.189848 -31.727251 2.198458 12.000000
6.167745 -31.466339 2.192727 6.000000
6.396779 -31.328899 2.186587 16.000000
-13.646614 -21.151066 2.161488 1.000000
-15.119730 -20.620707 2.195710 11.000000
-14.514886 -20.599051 2.163883 1.000000
-13.773563 -20.629175 2.130003 1.000000
-15.108702 -20.470499 2.184759 54.000000
-14.150248 -20.488987 2.138217 22.000000
-13.855996 -20.472918 2.122817 4.000000
-15.227649 -20.429371 2.188010 10.000000
-14.000139 -20.408459 2.125212 2.000000
-15.310546 -20.339930 2.186128 1.000000
-15.472339 -20.026091 2.173124 15.000000
-15.232617 -19.973969 2.157039 7.000000
-15.125427 -19.704721 2.133083 4.000000
-15.675611 -19.643528 2.158066 2.000000
-15.101678 -19.294533 2.103994 2.000000
-15.205276 -19.177408 2.101599 21.000000
-15.747961 -18.988729 2.118368 10.000000
-17.004662 -18.583347 2.163028 8.000000
-16.765692 -18.496468 2.143692 1.000000
-16.497643 -18.432180 2.124186 0.000000
-16.146997 -18.386213 2.101256 6.000000
-8.914495 -18.432304 2.117311 2.000000
-17.187548 -18.143581 2.146088 5.000000
-18.029367 -17.985363 2.186812 8.000000
-17.385462 -18.009462 2.149510 26.000000
-17.478771 -17.879925 2.147115 47.000000
-17.372532 -17.883289 2.140954 42.000000
-17.560011 -17.850494 2.150195 35.000000
-18.153965 -17.660124 2.174835 3.000000
-18.080416 -17.478357 2.159435 8.000000
-18.138109 -17.424232 2.159777 1.000000
-13.810268 -15.825431 2.172034 1.000000
-13.804743 -15.570610 2.151873 20.500000
-13.854135 -15.478689 2.148170 2.000000
5.778785 -12.494967 2.157760 5.333333
5.775908 -12.319051 2.132571 3.000000
5.944033 -12.273951 2.137527 4.000000
6.127926 -12.355453 2.161683 1.000000
6.615682 -12.164314 2.170354 2.000000
5.973928 -12.140626 2.120803 8.000000
6.097390 -12.008223 2.110893 23.000000
6.386096 -11.920007 2.119564 10.000000
6.494355 -11.852360 2.118325 14.000000
7.288592 -11.847673 2.180264 2.000000
5.366520 -11.215893 2.172259 4.500000
5.570955 -11.232458 2.190502 6.000000
5.572741 -11.147937 2.177422 7.000000
-8.332813 -10.922564 2.153321 7.500000
5.306671 -10.870657 2.113401 6.000000
5.815981 -10.938270 2.164343 3.000000
-6.445462 -10.786663 2.195321 19.000000
5.335577 -10.843325 2.111336 16.000000
5.469604 -10.813870 2.117187 21.500000
5.653912 -10.796575 2.129234 10.000000
5.791010 -10.728141 2.129922 18.000000
-6.725023 -10.637936 2.198763 58.000000
-6.570541 -10.613736 2.180864 10.000000
5.701454 -10.642083 2.109270 5.000000
-6.539233 -10.489385 2.159524 43.000000
-6.746514 -10.380788 2.162966 65.000000
-6.357640 -10.342284 2.120973 71.000000
-7.259936 -10.062449 2.167785 28.000000
-7.221610 -10.109385 2.170538 55.000000
-7.512141 -10.008932 2.186372 11.000000
-12.976938 -8.972266 2.190594 3.000000
-10.460615 -8.908977 2.153631 3.000000
-7.119227 -8.886267 2.194937 2.500000
-10.963767 -8.758526 2.199466 7.000000
-7.196608 -8.783151 2.188880 13.000000
-7.148442 -8.504051 2.141559 2.500000
-7.347284 -8.151400 2.115438 11.000000
-6.692914 -7.861367 2.179110 16.000000
-9.544166 -7.673709 2.139560 4.000000
-6.666718 -7.682569 2.146894 23.000000
-6.320305 -7.713661 2.104766 6.000000
-8.047904 -7.581309 2.131337 13.000000
-6.488396 -7.572815 2.104766 24.000000
-8.217742 -7.548664 2.151023 6.000000
-9.039129 -6.943492 2.197208 25.000000
-9.032012 -6.803640 2.179794 34.000000
-8.968439 -6.711689 2.159352 41.000000
-7.792747 -6.676836 2.165894 53.000000
-8.948962 -6.566454 2.139666 47.000000
-8.838183 -6.570998 2.123009 47.000000
-8.764004 -6.473191 2.100295 29.000000
-7.773182 -6.451131 2.132026 6.000000
-8.090325 -6.094285 2.137808 5.000000
-8.081231 -6.047732 2.130373 18.000000
-7.841171 -5.474154 2.196539 61.000000
-7.862457 -5.397714 2.190569 56.666668
-14.361464 -5.198777 2.120728 3.000000
-7.848400 -5.226317 2.165870 40.500000
-7.756690 -5.218177 2.147289 44.000000
-14.377724 -5.153637 2.120728 0.000000
-7.799376 -4.915464 2.117590 27.666668
-7.807915 -4.818542 2.107442 24.500000
-9.393256 -4.294619 2.179936 20.000000
-7.711777 -4.114270 2.170054 21.000000
-7.123810 -4.107961 2.197758 49.000000
-10.340978 -4.000624 2.137395 9.000000
-7.516490 -3.964670 2.109815 18.000000
-7.131973 -4.001558 2.185622 21.250000
-7.135687 -3.937487 2.178135 33.000000
-7.126238 -3.549592 2.127735 13.800000
-17.605896 -3.450953 2.172679 17.000000
-17.510345 -3.432175 2.160897 3.000000
-15.349077 -3.307374 2.180141 5.000000
-7.887786 -3.151649 2.108851 28.500000
-10.563024 -2.871892 2.110138 13.000000
-7.602084 -2.899949 2.174520 15.500000
-8.212704 -2.625746 2.140657 8.000000
-7.564382 -2.656409 2.142676 8.666667
-8.145173 -2.463826 2.112706 29.000000
-8.176865 -2.395092 2.115405 22.600000
-7.605004 -2.352688 2.127529 41.000000
-8.197032 -2.256300 2.110779 0.000000
-7.770067 -1.801005 2.131660 19.000000
-7.732236 -1.412158 2.100676 8.000000
-8.478465 -1.179501 2.125236 0.500000
-8.701104 0.974451 2.173749 2.000000
-8.695691 1.195799 2.179210 6.000000
-7.807276 1.223984 2.112037 5.000000
-8.657149 1.273743 2.172464 3.000000
-8.633006 1.362580 2.169894 7.000000
-7.910163 1.393315 2.146635 17.000000
-7.780713 1.509654 2.118234 29.500000
-7.778704 2.114887 2.154381 2.000000
-7.697039 2.216587 2.140697 10.750000
-7.088170 3.781799 2.147151 18.500000
-8.314314 3.954017 2.114695 41.599998
-6.823377 4.112738 2.129250 22.166666
-6.786356 4.212772 2.134758 2.666667
-6.695447 4.224488 2.115824 45.666668
-7.461191 4.354755 2.144834 20.333334
-7.494744 4.448286 2.163789 23.000000
-7.073165 4.855800 2.130055 0.000000
-6.994096 4.866360 2.115405 43.200001
-6.920981 4.902085 2.105639 39.333332
-6.325283 4.890497 2.136824 1.000000
-6.871740 4.959755 2.104032 59.250000
-6.951580 5.100841 2.140657 16.000000
-6.175028 5.075840 2.136307 23.000000
7.630538 5.133310 2.112367 16.000000
7.666076 5.122309 2.117739 0.000000
-6.032265 5.176692 2.124430 53.000000
7.688613 5.207540 2.132962 11.000000
7.841313 5.186134 2.159378 12.000000
7.978226 5.204927 2.188032 7.000000
7.698468 5.392528 2.158930 0.000000
7.857492 5.421543 2.192734 28.250000
8.344902 5.538044 2.113853 6.000000
7.581477 5.723440 2.181913 27.333334
8.267048 5.732937 2.123352 20.500000
8.460884 5.653382 2.147721 5.000000
-6.578822 6.767513 2.167885 11.000000
-6.398056 6.965151 2.172362 6.000000
-8.484571 7.132025 2.136637 7.000000
4.780719 7.058547 2.116562 6.000000
4.762856 7.176861 2.138489 8.000000
-8.304258 7.251928 2.125280 5.000000
9.598516 7.359913 2.113171 40.333332
9.640356 7.456291 2.129234 0.000000
9.857754 7.477019 2.161589 3.000000
-6.736661 7.569041 2.138634 25.000000
-6.719203 7.726866 2.161213 0.333333
-5.760848 7.647680 2.199225 39.000000
-6.581102 7.929791 2.174980 1.000000
-6.172977 7.906659 2.117157 20.500000
-6.107617 7.925162 2.111788 11.000000
-7.716661 8.038431 2.147995 1.000000
-6.302212 7.994317 2.148546 4.000000
-7.601621 8.120425 2.144209 50.000000
-7.683650 8.156543 2.160109 16.000000
-6.099433 8.176939 2.153090 9.500000
-9.454940 8.306367 2.198763 0.000000
-7.710163 8.314531 2.185851 38.000000
-4.514270 8.273083 2.164751 4.500000
-7.681614 8.388906 2.192666 19.000000
-6.173172 8.385344 2.197696 5.000000
-4.531785 8.398871 2.192062 10.000000
-4.489902 8.447835 2.197435 15.000000
12.435459 8.626761 2.101474 4.000000
-4.346660 8.979501 2.105592 0.000000
-4.321819 9.000168 2.107244 7.000000
10.511759 8.952536 2.164160 1.000000
-9.879053 9.071535 2.102221 9.000000
-4.594923 9.100462 2.151713 12.333333
-7.653410 9.337335 2.109270 8.000000
-7.614087 9.349110 2.106517 9.000000
-5.487894 9.516810 2.117709 13.000000
12.022056 9.542236 2.131180 20.000000
11.967254 9.560175 2.126779 1.000000
-4.748399 10.173725 2.164273 7.500000
4.631964 10.173340 2.154809 6.500000
4.854351 10.191088 2.176008 17.000000
-6.466803 10.292999 2.123727 1.000000
-6.428179 10.303235 2.121662 1.000000
-6.285879 10.436687 2.128546 5.000000
-8.424476 10.500546 2.110067 34.000000
-5.901027 10.532729 2.109270 22.000000
-8.578654 10.601324 2.137527 28.000000
-8.354910 10.560177 2.110583 16.500000
8.982162 10.554005 2.172212 69.000000
9.105247 10.630782 2.193891 89.000000
-6.375080 10.736860 2.181553 61.000000
-6.047931 10.874914 2.173980 9.000000
-5.118541 10.916992 2.106517 2.000000
-8.093124 11.025522 2.143720 31.000000
8.528194 11.034194 2.185839 6.000000
8.652422 11.015028 2.195440 10.500000
-8.273083 11.123486 2.172832 26.000000
-8.181738 11.073140 2.157966 19.000000
-5.150677 11.075935 2.134053 2.000000
7.943451 11.046343 2.132571 12.000000
8.126674 11.079329 2.153631 64.000000
8.264719 11.193624 2.180884 30.000000
-7.702901 11.292031 2.142482 7.000000
-5.164764 11.267940 2.165547 21.500000
8.067204 11.293118 2.175309 9.000000
-7.099905 11.433208 2.109447 18.000000
-5.026606 11.413139 2.178799 2.500000
-4.916610 11.405277 2.169850 12.000000
-7.223475 11.497372 2.128236 22.000000
7.986641 11.521330 2.197298 5.000000
8.066619 11.443691 2.194511 3.333333
-7.121009 11.575036 2.130094 4.000000
-4.933399 11.543860 2.193256 8.000000
7.875455 11.592754 2.196679 43.000000
7.746453 11.677028 2.196369 51.000000
-6.744094 11.775855 2.126997 8.000000
4.002026 11.756001 2.169621 53.666668
4.122319 11.744989 2.174669 56.333332
4.215904 11.774565 2.184995 50.000000
4.278332 11.831665 2.198074 56.000000
6.642573 11.750248 2.115641 4.666667
-6.202503 11.889657 2.101912 28.500000
3.949738 11.845733 2.181553 23.000000
6.252800 11.950340 2.113990 102.000000
6.394506 12.036451 2.136288 91.000000
-5.921890 12.130922 2.115848 15.000000
6.539123 12.402551 2.197608 67.000000
6.429183 12.477679 2.200085 63.000000
4.266582 12.707178 2.100982 41.666668
-8.239148 13.113984 2.150435 8.000000
3.384257 13.104822 2.121422 6.000000
4.470036 13.130644 2.174071 31.000000
-7.947581 13.195675 2.138882 4.000000
-7.588548 13.250353 2.120178 46.000000
3.342341 13.286787 2.147437 2.000000
-7.230586 13.395030 2.113576 5.000000
-7.037795 13.439206 2.106425 4.000000
-7.655611 13.531282 2.158686 35.000000
-7.555420 13.535320 2.152360 30.500000
-7.182337 13.456881 2.117977 10.000000
-6.993715 13.457733 2.105875 4.000000
3.615148 13.473104 2.186459 18.000000
-7.486711 13.562155 2.150985 18.000000
-6.187710 13.989866 2.124029 6.333333
-5.950613 14.169785 2.133931 1.000000
17.952454 18.135111 2.191262 25.000000
18.017778 18.087093 2.192288 13.000000
6.105850 23.815224 2.111181 52.500000
6.225072 23.813208 2.113577 51.000000
6.296793 23.781977 2.112550 7.000000
6.008138 23.901741 2.116314 44.000000
5.962760 24.040409 2.126923 28.000000
8.188416 24.191740 2.193144 8.000000
6.933195 24.616140 2.196053 10.000000
4.790949 -33.205811 2.294245 11.000000
5.215268 -33.190289 2.297520 5.000000
4.888250 -33.143215 2.290970 7.000000
5.066654 -32.918579 2.277598 4.000000
6.933157 -32.645966 2.282237 4.000000
5.835818 -32.466640 2.255766 13.000000
3.129841 -32.445263 2.229023 15.000000
3.690800 -32.394241 2.229568 16.500000
3.852881 -32.455780 2.235026 17.000000
8.486572 -32.371914 2.288514 8.000000
8.371831 -32.348190 2.284966 15.000000
5.614419 -32.201851 2.235299 11.666667
5.993666 -32.182167 2.238574 11.000000
8.563652 -32.252525 2.281965 2.000000
2.931052 -32.144558 2.207282 25.333334
5.867391 -32.063450 2.229023 22.000000
8.102083 -32.137020 2.266409 6.000000
8.207945 -32.130741 2.267774 19.000000
5.444619 -32.020557 2.221108 21.000000
6.908650 -32.034973 2.241030 16.000000
7.121918 -32.045471 2.244851 3.000000
5.302630 -31.789516 2.203916 33.000000
6.659049 -31.847281 2.224929 4.000000
6.967434 -31.822090 2.227658 21.000000
6.316484 -31.697287 2.210193 11.000000
-13.995512 -22.070358 2.244135 4.500000
-14.881133 -21.403175 2.238488 1.000000
-15.926739 -20.217487 2.210084 3.000000
-10.879316 -19.019444 2.265844 8.000000
-18.967003 -18.567379 2.279213 2.000000
-18.840439 -18.559752 2.271000 4.000000
-11.533722 -18.508087 2.255146 26.000000
-11.439927 -18.486715 2.248151 23.000000
-11.306967 -18.531059 2.244860 0.000000
-11.132884 -18.506271 2.233339 1.000000
-11.564314 -18.427954 2.249797 3.000000
-18.332016 -18.172737 2.216586 1.000000
6.565070 -17.521742 2.265972 8.000000
-8.129413 -17.082014 2.290979 7.000000
-14.236543 -17.056938 2.297525 7.000000
-7.917884 -17.049826 2.276552 4.000000
6.537085 -16.958889 2.201051 5.500000
-14.310039 -16.927652 2.292176 5.000000
-7.734704 -16.933084 2.254431 8.000000
-8.410916 -16.847589 2.280399 2.000000
-8.320932 -16.799204 2.270300 2.000000
-8.727509 -16.560204 2.266934 13.000000
-9.113768 -16.287134 2.260201 16.000000
-8.755963 -16.180340 2.227982 10.000000
-8.677767 -16.217934 2.227501 6.000000
6.602467 -12.512107 2.217428 2.000000
6.752009 -12.508442 2.227958 6.000000
5.434685 -11.591278 2.236625 12.000000
-6.311580 -11.485536 2.289632 16.500000
5.897514 -11.480283 2.254868 32.500000
5.921589 -11.394680 2.243509 23.000000
6.304898 -11.378963 2.272766 39.500000
-6.444537 -11.261910 2.266915 20.000000
-6.388698 -11.329056 2.272307 20.833332
5.963642 -11.301491 2.232495 22.000000
-6.729598 -11.103142 2.268292 50.000000
6.079833 -11.095846 2.210466 24.000000
-6.511550 -11.054420 2.241444 9.000000
-6.491962 -10.942411 2.222857 40.000000
-7.284736 -10.832664 2.280683 45.000000
-6.898065 -10.836138 2.244198 9.000000
-6.536527 -10.784674 2.203238 32.500000
-7.373232 -10.720042 2.273110 22.333334
-7.263884 -10.656444 2.253147 14.000000
-6.976924 -10.517035 2.204958 51.000000
-7.390035 -10.448906 2.235937 49.500000
-7.827164 -10.259758 2.254524 19.000000
-8.218145 -10.163062 2.283437 10.000000
-7.519093 -10.183839 2.211613 15.333333
-7.420988 -10.184179 2.201516 37.000000
-8.243660 -9.686268 2.222169 20.000000
-12.697876 -9.568540 2.207648 3.000000
-12.743735 -9.540468 2.210398 3.000000
-10.921391 -9.067118 2.224861 6.000000
-11.170256 -8.981119 2.246540 2.000000
-7.178334 -8.873999 2.200237 6.000000
-9.903806 -7.810330 2.203582 3.000000
-5.975722 -7.728893 2.243998 6.000000
-10.456955 -7.575135 2.255900 3.000000
-6.527087 -7.585847 2.298620 37.333332
-10.769278 -7.495999 2.292386 9.000000
-10.435925 -7.510026 2.246263 1.000000
-6.597125 -7.443601 2.284592 32.333332
-6.472237 -7.403744 2.258773 39.000000
-10.637201 -7.354570 2.259342 1.000000
-6.655822 -7.351088 2.277769 35.857143
-6.700748 -7.203364 2.259758 39.599998
-6.748057 -7.118427 2.252953 50.000000
-9.099836 -6.990097 2.211972 32.500000
-8.180233 -6.964384 2.267497 5.000000
-8.085923 -6.972197 2.253454 4.000000
-6.795783 -7.034852 2.246684 48.599998
-9.101357 -6.900798 2.201751 33.000000
-8.187130 -6.926014 2.263367 9.000000
-6.862986 -6.906296 2.236387 52.250000
-6.918242 -6.839003 2.234447 36.000000
-8.179903 -6.723835 2.234869 52.000000
-8.397223 -6.408556 2.229499 12.000000
-13.001406 -6.245981 2.260786 1.000000
-7.931464 -5.630350 2.234148 25.000000
-7.853533 -5.538007 2.207284 40.000000
-7.588450 -5.209549 2.285231 68.000000
-7.450687 -5.149490 2.248606 71.000000
-7.912680 -4.651615 2.278806 35.000000
-7.233003 -4.654254 2.298712 49.250000
-9.731589 -4.486326 2.261715 6.000000
-7.128056 -4.225543 2.214627 30.666666
-15.943503 -3.751258 2.274213 0.000000
-14.073373 -3.710456 2.281226 1.000000
-14.102195 -3.647075 2.283084 0.000000
-16.147535 -3.532541 2.295117 0.000000
-15.661696 -3.323279 2.223051 3.000000
-13.636456 -3.344385 2.200705 1.000000
-8.590714 -3.261591 2.281376 1.000000
-15.524686 -3.243275 2.202146 11.000000
-7.751668 -3.168133 2.238036 59.000000
-7.819471 -3.110126 2.249053 50.333332
-8.151980 -1.435947 2.212217 13.000000
-8.118372 -1.403747 2.201889 7.000000
-8.471350 -1.341820 2.292257 8.500000
-8.268542 -1.349579 2.239069 11.000000
-8.504932 -0.817433 2.283478 15.000000
-8.348307 -0.577912 2.236487 16.000000
-9.136923 0.560440 2.272702 3.000000
-11.431853 1.389478 2.219922 1.000000
-8.813883 1.695691 2.228366 2.000000
-7.963103 2.463470 2.227708 0.000000
-7.851193 2.510165 2.202922 41.000000
-8.102217 2.562396 2.271085 28.000000
-8.011580 2.547476 2.246815 11.500000
-7.974411 2.716262 2.251462 4.000000
-7.921638 2.781973 2.243889 36.000000
-8.031702 2.891648 2.281413 30.500000
-7.374294 3.742810 2.210151 3.000000
-7.267691 4.313525 2.258692 20.000000
-8.035522 4.401141 2.274629 30.000000
-7.134125 4.622168 2.271860 31.000000
-6.959228 4.610629 2.231065 27.000000
-7.973585 4.698673 2.297761 44.000000
-7.093913 4.826486 2.293118 13.666667
-6.991992 4.854103 2.274872 24.333334
-6.888366 4.889880 2.257659 1.000000
-8.321313 5.009845 2.231014 3.000000
-6.892488 4.974671 2.271774 40.166664
-6.894445 5.092314 2.290708 45.000000
8.102573 5.231766 2.215343 6.000000
8.187899 5.214257 2.229671 0.000000
-8.304387 5.436307 2.279816 2.000000
-8.150760 5.501901 2.258773 4.500000
-7.398375 5.536767 2.294227 2.333333
8.124872 5.748474 2.286084 15.000000
-6.702638 6.254666 2.276075 7.500000
-8.428845 6.623377 2.262541 4.500000
-6.684278 7.006927 2.224298 18.000000
-5.897357 7.090755 2.289729 8.000000
-5.747602 7.059824 2.260172 4.000000
9.375112 7.046620 2.260808 26.666666
9.487494 7.053746 2.278979 0.000000
-6.735169 7.194839 2.263698 6.000000
10.501083 7.227962 2.227217 8.500000
-9.368393 7.243328 2.282765 2.000000
-7.748511 7.345356 2.253454 76.000000
-5.457722 7.462513 2.295352 4.000000
-5.794266 7.641972 2.202807 9.000000
-5.343208 7.552064 2.296797 21.000000
-7.587543 7.707650 2.282779 4.500000
-5.857460 7.650169 2.213105 23.000000
4.915165 7.682680 2.264349 0.000000
-5.796362 7.796335 2.231462 23.000000
4.816849 7.832925 2.282982 8.666667
-9.878839 7.886173 2.208400 0.000000
-9.740891 8.185170 2.222857 1.000000
-5.618223 8.239097 2.290561 6.000000
-5.298227 8.262199 2.254445 10.333333
-9.991927 8.449816 2.286190 3.000000
-4.556911 8.509295 2.217134 19.000000
-5.889423 8.636809 2.206370 1.000000
-4.773351 8.586593 2.256534 0.000000
-6.157430 8.731950 2.255106 12.000000
11.619011 8.709769 2.276023 17.200001
-7.309345 8.807275 2.206294 0.000000
-5.958832 8.797849 2.242716 0.000000
-5.627842 8.837347 2.211326 2.000000
-4.605356 8.831903 2.287875 18.000000
11.533041 8.747710 2.268838 1.000000
-7.610183 8.995878 2.271408 6.000000
11.100898 9.069801 2.246849 11.000000
-5.549846 9.153069 2.259237 11.000000
-5.613924 9.324695 2.297235 4.000000
-5.531253 9.319398 2.287322 11.000000
-4.966449 9.524227 2.267084 0.000000
-6.556494 9.615066 2.243394 5.000000
-4.525070 9.616385 2.243129 5.500000
-8.819860 9.720126 2.293074 15.000000
-8.630054 9.723669 2.271389 1.000000
-4.245539 9.685378 2.231977 4.000000
-6.540914 9.755966 2.264215 46.500000
-8.487505 9.934011 2.282748 17.500000
-8.504209 10.049135 2.299958 12.000000
-7.074961 10.441818 2.203582 57.000000
-7.285100 10.536729 2.238002 12.000000
-7.253953 10.670179 2.254179 29.500000
-7.206798 10.818429 2.271045 30.000000
-7.109303 10.893257 2.272594 30.500000
9.126382 11.000591 2.240346 47.000000
9.206316 10.956098 2.243030 51.666668
9.533203 11.003759 2.281969 36.400002
-6.486625 11.082764 2.243509 33.000000
-6.352514 11.092115 2.233183 8.000000
9.111887 11.053602 2.245301 39.000000
-6.611461 11.215075 2.274487 10.000000
-6.359386 11.226490 2.254179 9.000000
6.216640 11.146262 2.229741 7.500000
-6.540864 11.256396 2.274487 47.000000
6.142658 11.303957 2.247639 3.000000
6.180659 11.247252 2.242132 8.000000
-4.842556 11.633496 2.201516 3.000000
-4.969354 11.729825 2.225610 1.000000
-4.793226 11.722050 2.212531 2.000000
-4.738620 11.693226 2.204270 2.000000
7.657617 11.782690 2.202563 51.000000
7.688104 11.748654 2.200705 58.000000
-4.888641 11.848988 2.239379 4.000000
4.337106 11.877388 2.209089 55.000000
7.600431 11.857172 2.207518 58.333332
4.404389 11.945038 2.224234 46.000000
7.563852 11.964833 2.218667 26.000000
6.695148 12.413341 2.210615 62.666668
6.845680 12.395725 2.219493 12.166666
2.791839 12.593494 2.253606 9.333333
6.398821 12.612985 2.216809 55.000000
2.518414 12.672480 2.257277 4.000000
2.695422 12.724638 2.272422 3.000000
6.370761 12.755462 2.234771 9.000000
5.782123 13.029522 2.234307 72.500000
5.656278 13.077187 2.233223 66.500000
5.921366 13.065701 2.248398 55.000000
5.591028 13.152462 2.240036 71.500000
5.578672 13.297115 2.260166 30.000000
4.202090 13.591555 2.229816 18.000000
4.261930 13.558393 2.227648 27.000000
3.802771 13.824751 2.247365 15.666667
4.026259 13.949302 2.275651 0.000000
-7.665293 16.680948 2.223173 9.000000
8.998147 16.690430 2.296268 1.000000
-7.624380 16.800062 2.234233 5.000000
-7.415864 16.901815 2.235195 6.000000
-7.626976 16.947050 2.250583 6.000000
6.367871 17.031628 2.202013 68.000000
6.291663 17.072649 2.203456 61.000000
6.472002 17.064575 2.210188 59.000000
8.505117 24.742733 2.246702 11.000000
7.188236 24.920551 2.227195 3.000000
8.344626 25.041086 2.266551 3.000000
8.662557 24.945545 2.267577 4.000000
6.635451 25.061035 2.226168 46.000000
8.797606 25.079916 2.282293 3.000000
6.380105 25.723045 2.275791 11.000000
6.317260 25.816513 2.282293 43.000000
6.252021 25.902090 2.288111 44.000000
0.689106 -34.936893 2.389577 15.666667
0.835330 -34.928417 2.389213 9.000000
3.807103 -34.874882 2.399037 16.000000
0.995702 -34.778450 2.379252 12.500000
2.787896 -34.574772 2.372020 14.000000
3.011643 -34.632111 2.377206 3.000000
2.560840 -34.460278 2.363015 15.000000
2.889172 -34.478355 2.366017 16.000000
2.122204 -34.402107 2.357011 11.000000
2.451432 -34.452229 2.361923 15.000000
2.330468 -34.272629 2.349097 20.000000
2.654602 -34.265060 2.350189 20.000000
1.463846 -34.212723 2.341729 23.000000
1.680741 -34.242710 2.344458 12.000000
2.002455 -34.209412 2.343366 7.000000
2.219169 -34.224030 2.345277 12.000000
1.568942 -34.156132 2.338181 19.000000
7.781593 -34.003502 2.385392 19.000000
4.457050 -33.900406 2.338181 12.000000
4.723094 -33.864319 2.338181 2.500000
7.847771 -33.803955 2.373112 8.000000
4.327684 -33.736118 2.325901 11.000000
7.481217 -33.662159 2.358103 8.000000
1.862091 -33.621834 2.302705 13.000000
3.562927 -33.616768 2.311710 2.000000
4.084722 -33.509117 2.308435 9.000000
4.175115 -33.377323 2.300249 17.000000
10.891343 -33.302433 2.396035 8.000000
7.824964 -33.231426 2.334634 13.000000
9.381554 -33.220089 2.360559 4.000000
9.490259 -33.205795 2.361650 11.000000
7.897813 -33.074711 2.325355 13.000000
7.999796 -33.041973 2.324809 16.000000
10.328879 -32.979671 2.363288 11.000000
8.075977 -32.904289 2.316895 17.000000
8.184127 -32.898117 2.318260 20.000000
9.560855 -32.674416 2.328084 3.000000
10.344498 -32.669327 2.343366 16.000000
10.059916 -32.478279 2.325082 2.000000
10.409368 -32.518845 2.334907 24.000000
-6.821710 -22.160797 2.397781 5.666667
-10.740662 -20.380102 2.382283 5.000000
-11.130571 -20.187973 2.383929 4.000000
-10.054179 -19.981815 2.313160 15.000000
-9.987799 -20.006184 2.312337 2.000000
-10.391663 -19.945309 2.325709 3.500000
-10.271201 -19.942766 2.319743 2.000000
-10.993012 -19.791168 2.341139 3.000000
-10.826422 -19.783064 2.332087 7.000000
-10.728133 -19.750547 2.324269 0.000000
-11.001870 -19.517214 2.316863 5.000000
-14.263819 -17.759644 2.355539 4.000000
-7.811856 -17.838182 2.358304 1.000000
-13.991858 -17.704124 2.333527 17.000000
-8.584095 -17.749144 2.387638 9.000000
-14.254510 -17.634293 2.344842 11.000000
-13.989560 -17.530693 2.319332 11.000000
-8.010220 -17.536194 2.334740 3.500000
-14.121515 -17.357946 2.313983 7.000000
-8.453614 -17.340162 2.336183 3.000000
-8.160464 -17.287020 2.315023 22.000000
-9.116591 -17.167496 2.353976 37.000000
-8.661924 -17.214828 2.333778 0.000000
-8.246592 -17.188860 2.308772 25.000000
-8.075805 -17.247837 2.306367 19.000000
-8.667467 -17.091908 2.320794 38.000000
-14.751005 -17.011023 2.328384 9.000000
-9.562682 -16.964109 2.358304 22.000000
-8.710279 -17.043379 2.317909 17.000000
-10.249260 -16.916880 2.395333 4.000000
-9.335274 -16.931768 2.341472 19.000000
-8.770177 -16.897812 2.305566 16.333334
-15.154228 -16.824572 2.341550 1.000000
-14.955673 -16.815397 2.327149 2.000000
-9.346000 -16.825985 2.330893 58.000000
-9.417887 -16.585220 2.309733 41.000000
-16.253271 -16.112053 2.366648 1.000000
-16.247120 -16.005066 2.358419 9.000000
-16.260359 -15.917763 2.353070 0.000000
-12.019547 -15.658523 2.390524 1.000000
-12.071110 -15.623827 2.391005 12.000000
-12.244282 -15.442903 2.386677 24.000000
-14.770403 -13.197073 2.398699 10.500000
-14.637340 -13.202670 2.387157 22.000000
-14.775252 -12.994093 2.382829 0.000000
-14.791367 -12.885208 2.375616 24.000000
5.508990 -12.350187 2.362603 0.000000
5.905419 -12.292507 2.382567 3.000000
5.797272 -12.165159 2.354342 7.000000
6.368649 -12.161418 2.398400 8.000000
5.925461 -12.090057 2.352277 8.000000
5.636350 -12.021059 2.319578 13.000000
5.816916 -12.011465 2.331625 8.000000
6.459203 -11.966004 2.375683 3.000000
6.557004 -12.056422 2.397712 2.000000
-6.789091 -11.608836 2.349523 24.000000
-6.517111 -11.641904 2.330936 7.000000
-6.695213 -11.531285 2.329560 15.000000
-7.295981 -11.111392 2.322331 7.500000
-7.381983 -11.052093 2.321987 17.000000
5.561327 -11.043061 2.383464 62.000000
-7.603871 -10.895798 2.321299 46.500000
5.449363 -10.905884 2.350150 46.000000
5.534017 -10.819074 2.342578 0.000000
5.899826 -10.852574 2.381192 70.000000
-6.380332 -10.673435 2.397092 56.000000
-6.734644 -10.430119 2.393306 29.000000
-6.542466 -10.417466 2.371350 40.000000
-6.484767 -10.397976 2.362264 16.000000
-6.694585 -10.296952 2.367564 35.000000
-10.556430 -8.708238 2.390828 1.000000
-10.449647 -8.565127 2.360538 5.000000
-10.389560 -8.625582 2.359161 11.000000
-10.417492 -8.429898 2.341263 6.000000
-5.532516 -7.898318 2.394144 1.000000
-6.587607 -7.762322 2.338468 16.000000
-9.979395 -7.226530 2.375135 2.000000
-10.188182 -7.136489 2.397849 2.000000
-6.663427 -6.984989 2.396714 13.000000
-6.546856 -6.993664 2.378401 7.666667
-6.802989 -6.867409 2.399927 4.000000
-6.721648 -6.936219 2.397999 23.500000
-8.599927 -6.823554 2.317060 1.000000
-8.209455 -6.265256 2.372047 16.000000
-7.972542 -6.164102 2.314739 15.000000
-8.093597 -5.997703 2.313843 3.500000
-7.834301 -5.524528 2.380008 54.333332
-7.967012 -5.359649 2.383927 48.400002
-7.861523 -5.415183 2.370048 46.500000
-14.276051 -5.167859 2.379709 1.000000
-7.740466 -5.172017 2.311255 40.000000
-7.266886 -4.899673 2.342347 37.000000
-7.254419 -4.790988 2.323462 35.857143
-8.005521 -4.751442 2.311255 9.000000
-9.188940 -4.609520 2.361302 6.500000
-8.071323 -4.654346 2.313182 6.000000
-10.087561 -4.535643 2.334407 0.000000
-9.987713 -4.528527 2.314582 26.000000
-7.767635 -4.191190 2.358871 2.000000
-7.644320 -4.171297 2.327372 8.500000
-8.117246 -3.169678 2.328921 0.000000
-8.721873 -1.592838 2.369544 3.000000
-8.647575 -1.327898 2.338216 14.000000
-11.916935 1.183164 2.308507 0.000000
-8.153006 3.029613 2.324532 17.000000
-8.100802 3.581329 2.367134 0.000000
-7.823514 4.001772 2.348544 6.000000
-9.138584 4.247807 2.314739 2.000000
-8.085137 4.527897 2.300653 9.000000
-8.421751 4.544133 2.375831 5.000000
-7.727104 5.233608 2.317038 1.000000
7.225350 5.272774 2.390543 13.333334
-8.491997 5.408024 2.312500 16.250000
-8.511960 5.496101 2.327275 21.000000
-6.928269 5.604398 2.381593 12.000000
-6.744297 5.597237 2.342347 8.000000
-6.726649 5.690501 2.354740 4.000000
7.665697 5.824930 2.390288 7.666667
-7.316025 6.071727 2.360410 4.000000
-7.221271 6.070110 2.342097 1.000000
-6.858766 6.300334 2.312218 0.000000
-8.015800 6.652485 2.392643 3.000000
-7.670302 6.655947 2.332648 24.000000
9.088412 6.701807 2.383350 11.750000
-7.496294 6.885955 2.338020 13.000000
-7.254328 7.415642 2.382793 6.000000
-7.143621 7.441496 2.369361 8.000000
4.630445 7.372983 2.326855 6.000000
-7.088676 7.477746 2.366675 7.000000
-6.862371 7.517889 2.338020 33.000000
-5.505620 7.602919 2.330531 1.000000
-5.306301 7.677330 2.317038 16.000000
9.599783 7.703231 2.372674 38.000000
-5.308995 7.811992 2.344988 4.500000
9.533689 7.761642 2.369835 12.000000
-7.613968 7.856963 2.309213 22.000000
-5.149105 7.919813 2.345310 16.666666
-5.008897 7.865423 2.315110 47.000000
4.794066 7.934733 2.301616 3.500000
-7.996431 8.021596 2.390578 22.000000
-7.648671 7.967606 2.331103 0.000000
-5.039900 8.024956 2.352699 13.000000
-4.986415 8.108473 2.363301 1.000000
-7.698099 8.301555 2.389545 17.750000
-5.772158 8.267855 2.316082 9.000000
-6.203470 8.343851 2.388165 5.000000
-5.892977 8.356924 2.348766 30.000000
-10.376430 8.831033 2.380502 5.000000
-10.216955 8.750809 2.350212 17.000000
3.489199 8.812636 2.353181 46.500000
-7.070343 8.853691 2.391404 0.000000
3.424637 8.852434 2.356555 29.750000
-4.529252 8.993685 2.312948 10.000000
-4.749510 9.073404 2.352347 23.000000
11.551468 9.168718 2.311576 3.000000
11.608141 9.154406 2.317151 12.000000
11.717720 9.181263 2.333255 0.000000
-4.734380 9.291812 2.395329 19.000000
-4.605964 9.290867 2.381897 3.500000
11.581268 9.251826 2.323344 2.000000
-9.808402 9.531590 2.389451 0.000000
-9.630363 9.476954 2.360538 3.000000
9.496535 9.470146 2.343098 3.666667
-5.731197 9.587515 2.357536 14.000000
13.614096 9.582332 2.311621 8.666667
-9.737729 9.643020 2.394270 17.000000
5.141360 9.692001 2.315614 15.000000
5.408199 9.728601 2.349276 7.000000
5.042186 9.743930 2.315614 12.750000
5.407556 9.836268 2.369101 4.000000
11.590921 9.767450 2.375786 18.666666
13.360076 9.806773 2.301169 2.000000
2.602513 9.941395 2.360406 7.000000
3.284797 9.897587 2.395329 50.500000
13.357881 9.869887 2.306120 7.000000
4.675295 10.017107 2.333168 1.500000
4.603820 10.069541 2.336885 18.000000
10.808140 10.121158 2.320867 1.000000
10.898711 10.120580 2.331190 5.666667
11.013621 10.120451 2.344404 18.000000
11.118195 10.120262 2.356482 9.000000
-4.717359 10.232742 2.378187 7.000000
4.396471 10.159637 2.336472 7.000000
-8.625331 10.323105 2.350212 15.000000
-6.356113 10.353981 2.342010 27.000000
-6.373956 10.512230 2.369835 19.000000
3.239738 10.531128 2.325527 10.000000
3.350540 10.536508 2.333581 11.000000
3.430189 10.613736 2.354232 22.000000
-6.059912 10.741461 2.377407 22.000000
-7.780001 10.811133 2.327035 11.166666
3.557292 10.775296 2.394984 48.666668
-7.750016 10.913404 2.338509 14.000000
13.000697 10.862562 2.352330 0.000000
13.065242 10.846973 2.357831 2.000000
-5.763241 11.010022 2.395578 40.000000
-5.603105 11.039544 2.386492 31.000000
12.965457 10.972185 2.358382 1.000000
-5.596658 11.113221 2.398607 17.000000
-5.491809 11.121601 2.391035 16.500000
10.081944 11.048881 2.344404 1.000000
10.110890 11.150759 2.359269 4.000000
10.133646 11.270396 2.375580 4.666667
-6.809205 11.386364 2.317857 1.000000
3.755936 11.437433 2.320621 49.500000
3.832792 11.369061 2.312798 51.000000
3.947997 11.472319 2.338793 56.000000
4.031843 11.538841 2.356207 56.000000
6.884052 11.520658 2.344705 99.000000
7.115022 11.533591 2.367594 82.000000
7.239940 11.452564 2.367146 53.799999
4.116343 11.604880 2.373621 53.000000
7.023701 11.588377 2.367422 89.000000
3.766088 11.653078 2.360750 8.000000
4.187221 11.688027 2.393306 1.000000
6.821068 11.790787 2.379813 71.500000
6.972230 11.836344 2.400006 75.000000
-5.705138 12.069317 2.332313 2.000000
4.997748 12.234399 2.308908 5.000000
6.244102 12.212557 2.396335 2.000000
4.962245 12.257343 2.310284 4.000000
6.106801 12.275169 2.395302 1.000000
7.862407 12.524037 2.317770 1.000000
7.877379 12.635866 2.333874 1.000000
4.120646 12.689621 2.330936 23.000000
4.711349 12.654912 2.359161 46.000000
4.774651 12.702751 2.370864 0.000000
-7.019611 13.404482 2.371657 4.000000
6.118424 13.388485 2.307240 107.000000
-7.239574 13.462200 2.395813 18.000000
-6.979550 13.499555 2.381980 20.333334
-6.213698 13.472240 2.325409 3.000000
-6.406681 13.664377 2.365463 9.000000
5.440921 13.686335 2.308479 28.000000
6.409973 13.796521 2.384458 62.333332
6.551667 13.760445 2.388794 61.666668
4.111406 14.414104 2.349359 12.000000
4.090759 14.514433 2.363605 4.000000
-7.044422 15.529346 2.367734 4.000000
-7.034612 15.638117 2.380937 1.000000
8.964402 16.753630 2.301077 2.000000
-9.325974 16.887009 2.336183 14.000000
-9.255793 16.948177 2.338587 8.500000
8.790523 17.133871 2.332095 62.000000
8.911976 17.126991 2.338106 31.666666
9.025586 17.125792 2.344358 7.000000
8.466574 17.229116 2.324801 50.666668
8.634537 17.160376 2.326405 70.666664
8.336469 17.306446 2.326324 40.000000
-8.481405 17.366369 2.340511 1.000000
8.217438 17.379501 2.328104 30.600000
-8.058834 17.610130 2.345320 3.000000
6.886862 17.819931 2.313581 61.000000
6.993253 17.844549 2.321034 60.000000
7.107290 17.887087 2.330893 1.000000
7.338695 18.136562 2.369364 1.000000
5.626989 18.520613 2.344117 67.500000
5.721833 18.518576 2.347243 58.000000
5.549321 18.579288 2.348205 59.000000
5.800114 18.564943 2.355418 40.000000
5.511166 18.665184 2.356861 64.000000
7.008321 21.789236 2.366923 58.000000
7.113546 21.802572 2.371586 60.000000
7.253986 21.921129 2.387769 39.000000
6.489854 22.236784 2.395450 27.000000
6.432093 22.299114 2.399976 27.000000
5.399112 -35.826843 2.477632 6.000000
6.730741 -35.519474 2.472174 9.000000
6.959918 -35.507812 2.474357 6.000000
3.305550 -35.431030 2.433422 2.000000
7.060517 -35.430981 2.470536 2.000000
3.517416 -35.302345 2.426054 6.000000
10.281948 -34.935261 2.490321 7.500000
10.447102 -34.888359 2.490458 9.000000
10.570538 -34.901199 2.493732 11.000000
9.670751 -34.660095 2.460712 6.000000
11.001043 -34.742790 2.492095 5.000000
9.546968 -34.636444 2.456892 12.000000
11.174896 -34.536293 2.482271 2.000000
9.118723 -34.343037 2.429875 12.000000
11.335309 -34.294891 2.469990 4.000000
12.411752 -34.268402 2.492368 2.000000
8.856763 -34.221935 2.417321 1.000000
11.439203 -34.247757 2.469172 18.000000
9.165433 -34.086845 2.413774 11.000000
13.277452 -33.655098 2.474084 3.000000
13.389025 -33.628052 2.475176 11.000000
14.105504 -33.572067 2.490185 8.000000
13.726521 -33.552078 2.478996 7.000000
13.874548 -33.463013 2.477222 4.000000
14.027137 -33.094025 2.457983 3.000000
14.174733 -32.865990 2.447613 5.000000
13.297164 -32.796211 2.420050 3.000000
-6.442718 -22.602362 2.430423 9.000000
-6.530264 -22.506775 2.423428 9.000000
-6.672998 -22.341658 2.411222 6.333333
-12.485912 -20.106339 2.447498 3.500000
-12.292085 -20.003962 2.427954 9.000000
-15.188302 -18.081482 2.441943 2.000000
-9.311062 -18.078543 2.462658 4.000000
-8.549192 -17.964083 2.409278 15.000000
-9.748043 -17.946196 2.473237 3.000000
-8.784762 -17.876617 2.412164 9.000000
-16.108532 -17.383492 2.450789 19.000000
-9.552735 -17.455664 2.409759 16.000000
-16.227003 -17.346619 2.456344 12.000000
-10.970531 -17.240196 2.474680 0.000000
-16.780569 -17.058159 2.474448 9.000000
-16.381407 -16.969368 2.439063 31.000000
-11.504409 -16.883816 2.474199 30.000000
-16.257204 -16.735172 2.412730 8.000000
-11.268801 -16.650209 2.434766 8.000000
-12.088288 -15.850925 2.414088 10.000000
-12.343145 -15.668455 2.415530 26.000000
-12.520103 -15.588455 2.421301 7.500000
-13.456167 -15.225484 2.460734 3.000000
-14.850330 -13.143083 2.401584 3.000000
5.667382 -12.598736 2.413545 7.000000
6.702558 -12.510699 2.479632 4.000000
6.132953 -12.365588 2.411480 4.000000
6.182342 -12.367407 2.415610 2.000000
-7.091510 -12.038997 2.441081 6.000000
-6.946249 -12.050676 2.430067 12.000000
5.423582 -11.502287 2.451417 8.000000
-6.104092 -11.398410 2.492491 23.000000
5.791533 -11.410799 2.466749 8.000000
-6.244945 -11.317369 2.491734 10.000000
-6.111910 -11.299031 2.476339 13.666667
5.935121 -11.338493 2.467052 34.200001
6.271253 -11.323002 2.495141 41.500000
-6.392670 -11.166751 2.480377 9.000000
5.536744 -11.257109 2.418292 0.000000
5.568594 -11.232620 2.416778 3.000000
5.985071 -11.092278 2.429649 33.000000
-6.722180 -11.008381 2.486434 35.000000
-6.373649 -10.992945 2.449524 25.750000
-6.517335 -10.941414 2.455013 43.000000
-8.487457 -10.840031 2.405284 12.000000
-7.139791 -10.758657 2.489084 43.000000
-6.871514 -10.790273 2.465991 21.000000
-6.620938 -10.766393 2.436463 20.000000
-6.839653 -10.666136 2.442520 48.000000
-6.370824 -10.733958 2.406178 15.000000
-7.445003 -10.604995 2.497791 48.000000
-7.091538 -10.637454 2.464477 18.333334
-6.911908 -10.558481 2.432678 62.000000
-6.720017 -10.625912 2.423592 15.000000
-6.557535 -10.588596 2.400878 20.000000
-7.389070 -10.408968 2.460691 71.000000
-7.431198 -10.347466 2.455770 42.250000
-7.478698 -10.225763 2.442142 23.000000
-7.459756 -10.066566 2.415263 17.500000
-8.177935 -9.791113 2.459177 8.000000
-8.477487 -9.585425 2.466749 11.000000
-8.183408 -9.430544 2.406935 19.000000
-7.387834 -9.251268 2.498790 5.000000
-7.380798 -9.065896 2.467401 8.000000
-9.233125 -8.947567 2.478484 13.000000
-9.312454 -8.827927 2.473563 43.000000
-9.215767 -8.626979 2.433435 14.000000
-9.179555 -8.539132 2.416778 7.000000
-9.972606 -8.223703 2.491734 23.000000
-10.144297 -8.048923 2.496277 1.000000
-5.655885 -7.914764 2.415187 9.833333
-10.166684 -7.809634 2.471292 0.000000
-9.077565 -7.581950 2.496312 7.000000
-6.403807 -7.650735 2.477033 29.000000
-10.324990 -7.378343 2.446306 2.000000
-6.274883 -7.393846 2.407637 13.000000
-9.291358 -7.324713 2.497138 18.000000
-9.234573 -7.327110 2.488052 26.000000
-6.539780 -7.278472 2.429323 11.000000
-6.371619 -7.319468 2.409324 1.000000
-9.146779 -7.026184 2.434359 18.000000
-7.846491 -7.027904 2.419506 10.000000
-9.284281 -6.902662 2.441793 2.000000
-12.371689 -6.678192 2.456226 4.000000
-8.174974 -6.676867 2.424431 13.000000
-8.284792 -6.461165 2.413238 43.666668
-14.575353 -6.446740 2.498013 1.000000
-7.245975 -6.399445 2.400141 42.888889
-7.318347 -6.337109 2.403461 35.666668
-7.876752 -5.641305 2.405388 28.666666
-14.696986 -5.477441 2.458372 1.000000
-7.422874 -5.482617 2.466281 88.000000
-14.658511 -5.410719 2.449081 9.000000
-7.321668 -5.372399 2.427035 55.000000
-7.700260 -5.286307 2.496231 51.000000
-10.344254 -5.128181 2.436837 23.000000
-10.593131 -5.045856 2.476487 0.000000
-7.978070 -4.871744 2.498297 1.000000
-7.760123 -4.907640 2.453887 18.000000
-7.990796 -4.785206 2.489260 34.000000
-7.987021 -4.706591 2.477641 32.000000
-13.808237 -3.432544 2.485827 7.000000
-8.422696 -3.258497 2.413609 10.000000
-15.546466 -3.247825 2.489342 0.000000
-11.395285 1.095233 2.416186 2.000000
-11.649121 1.230538 2.472357 2.000000
-9.031861 2.334117 2.493133 3.000000
-8.949748 2.403100 2.476609 36.000000
-8.022532 4.280069 2.430133 3.500000
7.375113 5.305414 2.428068 22.000000
7.264345 5.365528 2.413609 33.000000
-7.430422 5.524358 2.474543 15.000000
-7.176009 5.584361 2.430133 10.000000
7.437782 5.566196 2.482805 46.000000
-7.117188 5.665325 2.431166 2.500000
7.204795 5.716595 2.458019 5.000000
-7.150374 5.821317 2.464215 7.000000
7.252125 5.816299 2.484526 19.333334
7.898201 5.820925 2.435910 31.000000
-7.342011 6.371070 2.413420 10.000000
-7.327806 6.399213 2.415348 11.000000
8.372914 6.410882 2.422193 40.000000
-6.266565 6.486948 2.410511 5.000000
-7.149671 6.609086 2.417275 7.000000
-9.164930 6.813928 2.410403 1.000000
10.509188 7.021926 2.436463 16.500000
10.592464 6.981791 2.445549 6.000000
10.796933 6.995558 2.479999 4.000000
-9.296371 7.094763 2.468226 5.000000
-8.275908 7.045839 2.496515 8.000000
-6.059237 7.049560 2.484354 0.500000
9.060440 7.073730 2.426098 26.500000
9.248873 7.127731 2.464509 3.500000
-6.877352 7.254822 2.481852 2.000000
10.517154 7.268853 2.464477 7.000000
-5.173465 7.435332 2.420838 35.000000
10.468645 7.406729 2.472049 4.000000
10.571643 7.355696 2.482649 48.000000
-5.145688 7.445190 2.418773 3.000000
-5.019369 7.461169 2.403281 39.000000
10.430443 7.453704 2.471292 5.000000
-7.531244 7.602561 2.458011 11.000000
-4.921618 7.728369 2.448724 19.000000
-8.561985 7.815430 2.446749 1.000000
-4.892019 7.789726 2.458363 49.000000
-8.483132 7.866432 2.441793 16.000000
-8.434971 7.920912 2.442206 25.500000
-8.368237 7.982899 2.440967 3.000000
-8.269888 8.115484 2.445510 15.000000
-5.832770 8.135159 2.485225 12.500000
-5.390242 8.122193 2.420167 0.000000
-8.204873 8.153469 2.441380 18.500000
-5.759699 8.222644 2.492454 8.000000
-9.552172 8.288949 2.437978 2.000000
-7.835879 8.291935 2.407925 13.500000
-5.259133 8.432738 2.467394 7.000000
4.928895 8.394390 2.416794 3.000000
12.977472 8.411551 2.423996 10.250000
10.904753 8.516603 2.417331 9.500000
10.965009 8.480838 2.421806 12.000000
-7.502263 8.563759 2.402969 14.000000
-6.226365 8.626677 2.443683 5.000000
4.579963 8.552344 2.408601 21.000000
12.928967 8.554282 2.429880 1.500000
-5.745070 8.756047 2.405478 8.666667
4.638562 8.929612 2.498237 41.000000
10.904102 8.894740 2.458463 24.750000
-5.674417 9.003952 2.444579 11.000000
-5.690725 9.221206 2.488904 16.500000
3.121131 9.306566 2.437034 49.000000
3.175358 9.290257 2.437516 45.333332
10.762202 9.283131 2.483074 12.000000
3.110738 9.422550 2.463539 42.000000
-8.623658 9.507231 2.474320 32.000000
-8.510442 9.471842 2.454634 18.500000
-8.717032 9.549715 2.492491 1.000000
-8.499723 9.549946 2.464477 18.000000
3.124517 9.565125 2.498237 37.000000
-6.146042 9.718318 2.426924 3.000000
-9.749293 9.776552 2.412168 6.000000
-4.670724 9.805581 2.494724 9.000000
4.543592 9.774926 2.475919 9.000000
9.673516 9.768529 2.401842 108.000000
3.355102 9.900736 2.401150 47.000000
