# This PCD file was generated using the MATLAB® pcwrite function
# from Computer Vision Toolbox®.
# .PCD v.7 - Point Cloud Data file format
VERSION .7
FIELDS x y z intensity
SIZE 4 4 4 4
TYPE F F F F
COUNT 1 1 1 1
WIDTH 1246
HEIGHT 1
VIEWPOINT 0 0 0 1 0 0 0
POINTS 1246
DATA ascii
-6.307138 -0.092474 0.321417 0.000000
-6.295513 -0.062638 0.320806 10.000000
5.837810 -0.080498 0.399248 8.000000
-11.365534 -0.023792 0.381603 2.000000
5.774058 -0.025055 0.380530 10.000000
-6.917188 0.159389 0.352561 13.000000
-6.367269 0.076683 0.324470 13.500000
-7.764569 0.337654 0.396020 6.500000
-7.129389 0.276376 0.363553 36.000000
-6.854063 0.352008 0.349711 5.000000
-6.875126 0.425062 0.351000 13.666667
-6.736084 0.452132 0.344011 2.000000
-6.544672 0.522595 0.334553 36.000000
-6.483243 0.605981 0.331798 28.000000
-6.303122 0.642471 0.322841 39.000000
-6.448071 0.677719 0.330373 14.000000
-6.213655 0.791579 0.319177 4.000000
-6.267777 0.868763 0.322434 7.166667
-7.716376 1.230439 0.398158 13.000000
-7.540777 1.202508 0.389099 20.000000
-9.443718 3.344196 0.336369 2.000000
-8.981599 3.340227 0.321739 1.000000
-9.877794 3.410829 0.350866 0.000000
-9.389433 3.383162 0.335094 23.250000
-9.288406 3.421151 0.332342 0.000000
-8.943019 3.395389 0.321179 25.000000
-8.801880 3.484893 0.317846 28.000000
-6.150821 3.831526 0.369253 2.000000
-10.041700 3.915096 0.361872 9.000000
-6.598553 3.874437 0.345532 14.333333
-9.562151 4.185513 0.350463 4.000000
-6.319895 4.377730 0.391746 3.000000
-7.851820 4.505784 0.303954 4.000000
3.948081 4.468787 0.303853 2.142857
-7.827141 4.653443 0.305739 35.400002
-7.856935 4.691110 0.307242 38.000000
-8.022218 4.858428 0.314893 97.000000
-8.575588 4.903340 0.331671 21.000000
-8.030807 4.898177 0.315833 72.000000
-9.190135 5.140401 0.353550 18.000000
-8.734973 5.122678 0.339993 7.500000
-9.480175 5.185942 0.362812 7.000000
-9.304103 5.165843 0.357308 10.000000
-8.504303 5.253156 0.335618 47.000000
-7.514146 5.257493 0.307913 85.666664
-9.466502 5.334100 0.364825 17.000000
-8.405926 5.346920 0.334490 34.000000
-9.533140 5.411175 0.368046 47.000000
-8.476691 5.363997 0.336805 28.750000
-10.255114 5.651791 0.393147 4.000000
-9.849258 5.631598 0.380932 2.000000
-8.157885 5.594210 0.332119 28.333334
-6.905679 5.688555 0.300397 24.000000
-10.063158 5.816968 0.390261 25.000000
-7.797582 5.867372 0.327645 14.000000
-7.789680 6.055374 0.331269 1.000000
-8.018085 6.112566 0.338517 1.000000
-7.235733 6.153737 0.318920 66.000000
-8.668167 6.228711 0.358382 13.000000
-8.097161 6.213172 0.342678 10.000000
-7.873972 6.200655 0.336503 14.000000
-7.450491 6.196493 0.325363 46.500000
-7.344194 6.186461 0.322410 54.000000
-6.968570 6.234998 0.313954 27.000000
-7.319627 6.264824 0.323484 60.000000
-7.104641 6.316671 0.319188 67.000000
-6.880913 6.274255 0.312656 35.333332
-6.731077 6.334177 0.310329 36.000000
-8.974030 6.405839 0.370194 0.000000
-6.809341 6.367612 0.313014 55.000000
-6.759121 6.431003 0.313249 21.750000
-9.954161 6.508857 0.399321 1.000000
-7.506682 6.507078 0.333550 36.000000
-7.471138 6.517491 0.332879 39.000000
-7.172408 6.540130 0.325900 20.000000
-6.985933 6.471250 0.319725 21.000000
-7.567191 6.580515 0.336705 31.000000
-7.570854 6.688706 0.339188 39.000000
-7.355855 6.665205 0.333282 2.000000
-6.786844 6.674069 0.319591 53.000000
-9.606407 6.902905 0.397173 1.000000
-7.007376 6.934380 0.331000 32.000000
-6.940235 6.911224 0.328853 25.000000
-7.205205 7.041094 0.338248 56.000000
-7.017325 7.032034 0.333550 34.000000
-6.924821 6.983081 0.330195 32.000000
-5.988997 7.038343 0.310296 38.500000
5.982793 7.034706 0.310061 13.000000
-7.336276 7.124255 0.343349 39.000000
-6.986544 7.160195 0.335890 34.571430
-5.878379 7.075514 0.308853 31.000000
-8.766325 7.221262 0.381335 1.000000
-6.798855 7.232488 0.333282 56.000000
-5.874574 7.208074 0.312209 2.000000
-7.568619 7.303826 0.353147 95.000000
-7.066355 7.353299 0.342409 45.000000
6.293005 7.305970 0.323752 1.000000
-8.068095 7.450238 0.368718 12.000000
-7.983149 7.418402 0.365899 1.000000
-7.808266 7.440908 0.362140 12.000000
-5.902882 7.431585 0.318651 9.000000
-5.833176 7.415329 0.316772 21.500000
6.805856 7.487326 0.339725 1.500000
6.922116 7.543585 0.343752 1.000000
-8.383564 7.644517 0.380932 17.000000
-7.914692 7.589920 0.368181 16.000000
-6.928212 7.630039 0.346033 18.000000
-6.746954 7.572618 0.340530 47.000000
-5.913657 7.590959 0.323081 16.000000
6.989176 7.568795 0.345899 1.000000
7.082038 7.597140 0.348718 1.000000
-7.132959 7.757038 0.353819 37.000000
-7.043836 7.708579 0.350597 70.000000
7.235316 7.664387 0.353886 2.000000
7.385750 7.750383 0.359456 2.000000
-7.271335 7.857827 0.359456 36.000000
-6.987117 7.768076 0.350798 39.000000
-6.882798 7.790557 0.349031 27.333334
7.520623 7.817710 0.364221 2.000000
-7.559521 7.916115 0.367510 26.000000
-7.463064 7.864432 0.364020 42.000000
-7.377716 7.922715 0.363483 46.000000
-6.711060 7.874321 0.347376 26.000000
-6.121729 7.960720 0.337175 11.000000
7.699313 7.903458 0.370462 2.000000
-7.803844 7.969027 0.374489 9.000000
-6.994709 8.052166 0.358114 18.000000
-5.205662 7.997671 0.320396 0.000000
7.882186 8.015372 0.377442 2.000000
8.115847 8.098866 0.384959 2.000000
8.206538 8.138074 0.388046 2.000000
8.122676 8.182375 0.387106 10.500000
8.291862 8.171179 0.390865 2.000000
8.388898 8.215016 0.394220 2.000000
8.503482 8.275052 0.398381 2.000000
-7.253697 8.457058 0.374087 12.000000
-7.406753 8.472595 0.377845 82.000000
-7.183968 8.537281 0.374623 25.000000
-7.095565 8.486204 0.371402 5.000000
-7.254672 8.566534 0.376905 16.000000
-7.204990 8.727927 0.379992 1.000000
-5.968575 8.742970 0.355429 23.000000
-5.623976 8.760239 0.349523 2.000000
-6.166196 8.822700 0.361402 53.000000
-5.872558 8.778949 0.354624 10.000000
-5.502838 8.813249 0.348852 24.250000
-7.845273 8.917519 0.398784 4.000000
-6.191702 8.948625 0.365362 24.000000
-5.864066 8.947589 0.359188 38.000000
-6.583199 8.991313 0.374154 34.000000
-6.440821 9.003080 0.371670 34.000000
-6.716920 9.084025 0.379321 37.000000
-6.557086 9.129152 0.377389 30.600000
-6.427931 9.105425 0.374221 36.000000
-7.444439 9.193121 0.397173 44.000000
-6.891181 9.228453 0.386704 28.500000
-5.553618 9.213608 0.361201 12.000000
-7.038238 9.302959 0.391670 53.000000
-5.503450 9.429272 0.366570 41.000000
-5.324347 9.426105 0.363483 23.000000
-5.270105 9.433632 0.362812 24.500000
-6.352331 9.626503 0.387241 33.000000
-5.493608 9.585010 0.370932 36.000000
-6.136249 10.131932 0.397710 10.333333
-5.963798 10.072203 0.393012 16.500000
-5.151708 10.656723 0.397419 28.666668
-5.111593 10.716674 0.398650 27.000000
-3.907585 11.052982 0.393616 5.500000
8.869089 17.451693 0.317778 14.666667
9.028484 17.402842 0.318255 13.000000
8.995734 17.473789 0.319034 23.000000
-4.515327 18.259493 0.305335 1.500000
-5.133175 18.610512 0.313385 5.000000
-5.091508 18.688286 0.314424 8.000000
-5.068508 19.075445 0.320397 8.000000
-4.938489 19.068275 0.319748 8.000000
-4.261092 19.157244 0.318579 2.000000
-4.924130 19.261936 0.322734 0.000000
-5.489977 22.051895 0.368895 7.000000
-5.418768 22.061264 0.368765 2.000000
-4.691535 22.071926 0.366298 2.000000
-5.314440 22.238804 0.371167 10.000000
-4.656572 22.250975 0.369025 2.000000
-5.247304 22.267067 0.371362 6.000000
-4.492034 22.521362 0.372790 1.000000
-5.281408 22.731451 0.378828 1.000000
-4.474393 22.806162 0.377270 0.000000
4.046349 -28.974937 0.474915 19.500000
6.256105 -28.984613 0.481342 11.000000
4.174306 -28.896202 0.473941 18.000000
8.656716 -28.890976 0.489587 6.000000
10.164661 -28.896311 0.497248 21.000000
8.435681 -28.810457 0.487315 9.000000
8.710319 -28.741156 0.487510 9.000000
4.240520 -28.716772 0.471214 9.000000
10.197817 -28.702185 0.494457 11.000000
10.790564 -28.647099 0.496924 32.000000
6.350393 -28.550423 0.474785 13.000000
6.437415 -28.518627 0.474590 1.000000
10.813697 -28.437357 0.493872 43.000000
10.911582 -28.425648 0.494262 41.000000
11.103083 -28.390049 0.494846 39.000000
6.482327 -28.303337 0.471344 3.000000
7.700868 -28.265888 0.475564 28.000000
7.583971 -28.185665 0.473811 38.000000
10.206258 -28.163761 0.486276 42.000000
4.414646 -28.063143 0.461151 3.000000
6.531388 -28.111422 0.468487 3.000000
7.474844 -28.132046 0.472512 18.000000
11.382282 -28.059271 0.491535 11.000000
10.235586 -27.970055 0.483485 10.000000
10.012368 -27.902058 0.481212 27.000000
11.623148 -27.895374 0.490561 20.000000
11.713828 -27.866095 0.490691 33.000000
11.821613 -27.877024 0.491535 37.000000
2.768276 -27.734514 0.452451 18.000000
6.518763 -27.662550 0.461346 35.000000
4.433057 -27.614754 0.454009 46.000000
10.700271 -27.615530 0.480758 44.000000
11.789588 -27.560286 0.486601 9.000000
5.042095 -27.526335 0.454269 18.000000
5.121218 -27.471041 0.453620 39.000000
5.211223 -27.474463 0.453944 32.000000
7.678261 -27.500448 0.463488 11.000000
10.211353 -27.501545 0.476213 4.500000
6.534058 -27.342409 0.456347 5.000000
7.542910 -27.347082 0.460502 31.000000
7.730903 -27.356880 0.461476 19.000000
4.461614 -27.245470 0.448166 41.000000
7.814611 -27.324764 0.461346 5.000000
8.464485 -27.310589 0.464137 8.000000
8.556223 -27.302944 0.464462 0.000000
11.254548 -27.251574 0.478615 6.000000
4.532695 -27.144533 0.446738 44.000000
10.728196 -27.179461 0.474330 12.000000
4.652752 -27.077511 0.445991 48.500000
4.782759 -27.069099 0.446219 41.000000
4.874144 -27.089369 0.446803 18.000000
6.598845 -27.049007 0.451964 14.000000
2.093338 -26.959288 0.438947 10.000000
2.433022 -26.942804 0.439142 1.000000
2.864366 -26.980806 0.440440 4.000000
4.070564 -26.979052 0.442907 4.000000
5.557402 -26.977909 0.447127 19.000000
6.887444 -26.941914 0.451412 7.000000
11.651102 -27.001659 0.477382 26.000000
11.950404 -26.993050 0.479200 7.000000
2.300748 -26.892170 0.438136 9.000000
2.771803 -26.914082 0.439207 3.000000
3.965921 -26.857185 0.440700 13.000000
5.635575 -26.929001 0.446608 14.000000
6.970040 -26.912399 0.451283 14.000000
8.697367 -26.863419 0.458359 5.000000
8.853823 -26.913290 0.459917 24.000000
8.986920 -26.890261 0.460242 18.000000
11.705550 -26.895247 0.476148 28.000000
1.994668 -26.778276 0.435896 10.000000
2.925641 -26.756983 0.436934 15.000000
9.034245 -26.752007 0.458359 15.000000
9.530995 -26.825386 0.462125 10.000000
9.651855 -26.765095 0.461865 3.000000
3.858660 -26.711176 0.438103 3.000000
9.156887 -26.699673 0.458197 12.000000
1.893173 -26.541059 0.431935 0.000000
3.157380 -26.557446 0.434143 2.000000
10.729804 -26.450802 0.463358 8.000000
10.765883 -26.302217 0.461346 14.000000
10.982912 -26.242649 0.461800 5.000000
12.029955 -26.275822 0.469115 20.666666
3.034864 -26.229532 0.428624 25.000000
10.439068 -26.205595 0.457905 7.000000
10.540738 -26.220909 0.458749 12.000000
12.206043 -26.116581 0.467968 16.000000
5.295565 -25.982313 0.430442 22.666666
5.438138 -25.985565 0.430962 23.000000
5.570206 -26.004581 0.431708 16.000000
11.601419 -25.983942 0.461930 11.000000
11.686272 -25.954664 0.462060 3.000000
4.566341 -25.844236 0.426027 1.000000
4.657421 -25.884872 0.426936 14.000000
11.343080 -25.840256 0.458099 7.000000
5.000319 -25.700603 0.425021 16.000000
5.104587 -25.592455 0.423625 21.000000
-16.154043 -24.875048 0.481472 2.000000
-16.199278 -24.773964 0.480498 14.000000
-19.484388 -19.321838 0.445439 42.000000
-19.145298 -19.225660 0.440440 5.000000
-19.608299 -19.081558 0.444141 11.000000
-19.396860 -19.114552 0.442063 13.000000
-19.428240 -19.025537 0.441414 7.000000
-19.418022 -18.777977 0.438493 15.000000
-19.610825 -18.727419 0.440181 17.000000
-19.422123 -18.664232 0.437259 16.000000
-19.815639 -18.569107 0.440830 11.000000
-19.640551 -18.638186 0.439531 33.000000
-19.355656 -18.252605 0.431870 12.000000
-19.421661 -18.199913 0.432065 8.000000
-19.411417 -18.076124 0.430572 5.000000
-19.826532 -18.002842 0.434727 38.000000
-19.572062 -17.884277 0.430377 10.000000
-19.477509 -17.910486 0.429533 26.000000
-19.722645 -17.795786 0.431221 8.000000
-19.602024 -17.520023 0.426774 12.500000
-19.725504 -17.353697 0.426482 9.000000
-7.071586 -12.145344 0.471870 10.000000
-7.133827 -12.120508 0.472205 9.000000
-3.997092 -11.265074 0.401334 102.800003
-3.860792 -11.295620 0.400797 255.000000
-10.347019 -7.751829 0.434085 9.000000
-9.737126 -7.536568 0.413415 8.000000
-9.608638 -7.388967 0.406972 18.000000
-10.382469 -7.280687 0.425763 31.000000
5.952971 -7.296434 0.479841 10.500000
-9.833110 -7.128449 0.407777 30.000000
-10.318484 -6.762517 0.414220 20.000000
-10.664762 -6.658910 0.422139 4.000000
-10.318892 -6.488097 0.409254 26.000000
-10.179091 -6.474702 0.405048 36.000000
-10.488290 -6.412131 0.412744 4.000000
-10.681050 -6.077545 0.412609 7.000000
6.202609 -2.555264 0.458740 1.000000
5.546608 -2.528324 0.469916 8.000000
6.283249 -2.439622 0.460923 6.000000
5.474729 -2.397542 0.478261 19.333334
5.558969 -2.406751 0.414258 18.333334
6.167715 -2.428284 0.453282 12.000000
4.969798 -2.251264 0.468505 11.000000
6.197428 -2.306034 0.452190 5.000000
6.476598 -2.249055 0.468837 2.000000
5.266838 -2.218377 0.490749 0.500000
5.957505 -2.195477 0.434179 19.000000
6.459687 -2.175180 0.466108 26.000000
6.601304 -2.153813 0.474841 0.000000
5.034379 -2.092518 0.468163 1.000000
5.159570 -2.106637 0.478566 2.600000
5.334558 -2.096369 0.492187 4.600000
5.955388 -2.131165 0.432542 2.000000
5.756477 -1.968602 0.416031 8.500000
6.728447 -1.986672 0.479753 4.000000
5.376130 -1.866908 0.488696 9.000000
4.815719 -1.806502 0.497256 13.769231
4.987743 -1.802555 0.455415 27.500000
5.583669 -1.750889 0.468370 19.333334
5.730746 -1.810289 0.463771 26.500000
6.437115 -1.791299 0.456921 24.666666
6.637470 -1.779716 0.469929 8.666667
4.849777 -1.664069 0.485308 9.000000
6.440152 -1.651219 0.454646 1.000000
5.193729 -1.604748 0.466794 70.000000
6.988842 -1.571159 0.489850 33.000000
4.878588 -1.490603 0.438047 13.000000
4.958910 -1.481179 0.474614 3.333333
6.372315 -1.474680 0.447278 15.000000
6.664831 -1.520330 0.467473 22.000000
4.833728 -1.377751 0.497647 23.000000
4.922621 -1.353143 0.438389 7.000000
5.407235 -1.383410 0.479285 31.500000
5.334832 -1.252256 0.470558 20.000000
5.387854 -1.217008 0.474323 5.666667
5.893583 -1.224833 0.446349 39.666668
5.088151 -1.076880 0.446603 65.000000
5.360293 -1.099335 0.469874 63.000000
5.541979 -1.064208 0.484589 77.000000
6.135632 -1.088513 0.426129 12.000000
6.335075 -1.045473 0.476271 6.333333
6.849550 -1.115520 0.474568 16.000000
-12.053894 -0.974067 0.406032 8.000000
-6.485806 -0.970474 0.448461 4.666667
5.256799 -0.943720 0.458629 55.571430
5.336480 -1.024727 0.466623 58.000000
7.116593 -0.976118 0.491215 20.000000
5.101353 -0.880197 0.470555 44.857143
6.775843 -0.842775 0.466927 8.000000
6.981187 -0.935210 0.481663 4.000000
4.792094 -0.784327 0.459638 35.500000
4.961532 -0.772862 0.475142 40.200001
5.722342 -0.752962 0.495626 30.000000
6.456023 -0.761836 0.444549 17.000000
6.918282 -0.794355 0.476205 9.000000
4.665869 -0.662380 0.404680 8.500000
5.479266 -0.698994 0.474323 18.000000
5.675589 -0.669741 0.490749 38.000000
6.231719 -0.646215 0.483386 9.000000
6.351829 -0.688908 0.436908 13.000000
6.615358 -0.738524 0.455192 24.000000
-6.733500 -0.553519 0.462015 37.000000
5.830088 -0.613796 0.400886 21.000000
6.089423 -0.544538 0.418078 11.000000
6.409551 -0.593468 0.440183 11.000000
6.609731 -0.549227 0.453555 10.000000
-8.053117 -0.447419 0.410982 26.000000
4.655853 -0.512349 0.463629 17.500000
5.688285 -0.508667 0.490407 37.000000
6.441560 -0.480928 0.441729 7.333333
-8.245971 -0.432154 0.420752 26.000000
6.156931 -0.424066 0.422035 7.500000
-7.921895 -0.281599 0.450403 37.333332
-7.892665 -0.181846 0.465771 45.692307
5.746027 -0.097288 0.493487 2.000000
-7.943264 -0.004796 0.481663 26.000000
5.752459 -0.015911 0.494001 18.000000
-7.898133 0.142573 0.476448 42.615383
5.726295 0.082921 0.491776 1.000000
-7.902345 0.231776 0.402839 24.000000
-8.170650 0.278176 0.416580 14.500000
-6.923585 0.411343 0.474295 10.500000
-7.944127 0.923407 0.407521 10.000000
-6.231560 0.934657 0.430904 13.333333
-6.140331 0.917591 0.496838 27.166666
-7.979804 0.978393 0.409659 18.000000
-6.163126 1.030263 0.463469 18.400000
-6.136693 1.138473 0.426811 7.000000
-7.842422 1.200058 0.404264 2.000000
-9.233942 3.286219 0.499427 22.500000
-9.107668 3.330119 0.494135 23.750000
-9.034924 3.360058 0.491183 38.000000
-7.988669 3.437158 0.443144 2.000000
-8.762261 3.543744 0.481616 35.000000
-8.965102 3.569719 0.491707 28.857143
-8.212177 3.584453 0.456578 23.666666
-7.879546 3.561752 0.440620 22.400000
-7.769732 3.651156 0.437444 33.500000
-8.943850 3.732187 0.493829 14.000000
-8.371832 3.727380 0.466960 53.000000
-8.168295 3.760453 0.458207 55.000000
-7.738976 3.711211 0.437342 33.500000
-7.683179 3.684463 0.434187 48.000000
-8.818846 3.761557 0.488537 14.000000
-8.613734 3.802704 0.479784 15.000000
-8.145572 3.781049 0.457596 42.000000
-6.137907 3.811616 0.494080 5.500000
-7.912648 3.902115 0.449556 36.750000
-7.662590 3.884169 0.437749 27.500000
-7.777553 3.988372 0.445383 76.500000
-7.637362 4.042795 0.440331 38.363636
-7.656866 4.157340 0.443958 30.000000
-7.343809 4.148165 0.429777 35.000000
-7.766434 4.248474 0.451082 48.000000
-7.516860 4.204473 0.438869 64.000000
-7.970097 4.425173 0.464517 12.000000
-6.986147 4.454097 0.422177 18.333334
-6.565784 4.457098 0.404366 6.000000
4.021522 4.447885 0.452064 0.400000
-7.160113 4.522937 0.431541 72.000000
-6.881589 4.468957 0.418106 52.000000
-6.739275 4.467398 0.411999 54.000000
3.946329 4.471808 0.464027 1.538462
-8.337324 4.594861 0.485076 56.000000
-8.010381 4.613617 0.471031 0.000000
-7.981627 4.647305 0.470624 11.500000
-7.111590 4.650148 0.432966 51.000000
-7.445014 4.670249 0.447826 11.000000
-7.375669 4.756937 0.447215 74.000000
-7.060572 4.680345 0.431643 18.500000
-8.497801 4.823499 0.497901 2.000000
-7.948178 4.779616 0.472592 78.666664
-8.503411 4.862071 0.499122 75.000000
-8.303934 4.887486 0.490980 60.000000
-7.951536 4.911764 0.476242 68.199997
-7.229201 5.246564 0.455154 21.000000
-7.931359 5.293558 0.485891 41.000000
-6.350682 5.264955 0.420345 14.000000
-7.970935 5.368418 0.489690 62.000000
-7.273893 5.390424 0.461328 42.666668
-7.170968 5.448921 0.458919 32.500000
-6.778368 5.442164 0.442940 29.000000
-7.412813 5.469191 0.469403 94.000000
-7.258980 5.534183 0.465128 30.500000
-7.178467 5.508233 0.461057 38.000000
-6.885997 5.493084 0.448843 80.000000
-6.788023 5.508629 0.445451 36.333332
-8.043918 5.572014 0.498613 24.500000
-7.059755 5.595495 0.459021 116.000000
-6.924624 5.667740 0.455968 77.000000
-7.437035 5.781242 0.479988 56.000000
-6.819488 5.762916 0.454950 8.000000
-7.649536 6.011008 0.495729 41.000000
-7.255208 5.976479 0.478970 33.000000
-7.060015 6.004295 0.472252 79.000000
-7.308695 6.137070 0.486298 29.000000
-7.500878 6.218511 0.496476 16.000000
-7.401555 6.175502 0.491183 36.000000
-7.002473 6.186552 0.476120 37.000000
-6.980109 6.245317 0.477260 33.599998
-7.294977 6.296855 0.491047 48.000000
-6.889724 6.282198 0.475102 52.000000
-6.712143 6.296598 0.468962 26.333334
-7.356288 6.376711 0.496069 64.000000
-6.657539 6.384353 0.470013 35.000000
-6.821424 6.582773 0.483041 15.000000
-6.714572 6.623630 0.480598 43.500000
-6.602996 6.616833 0.476324 34.799999
-6.464864 6.601727 0.470827 36.000000
-6.952603 6.751670 0.493829 104.000000
-6.153816 6.734690 0.464856 16.000000
-6.548722 6.793200 0.480802 11.000000
-6.470089 6.796611 0.478156 33.500000
-6.458158 6.862909 0.480191 25.666666
5.979255 7.030578 0.470285 19.666666
-6.117926 7.132789 0.478834 34.333332
-6.280519 7.206994 0.487112 36.500000
-6.008975 7.186667 0.477341 35.333332
-6.473642 7.335177 0.498511 37.500000
-6.211520 7.334749 0.489758 60.000000
-6.004334 7.320190 0.482430 33.000000
-6.039952 7.539010 0.492235 33.833336
-5.843730 7.476950 0.483550 36.500000
-5.621836 7.553274 0.479784 43.000000
-5.312749 7.525724 0.469403 38.000000
-5.293669 7.548919 0.469810 37.000000
-6.149291 7.593746 0.497901 77.000000
-5.956046 7.596079 0.491862 30.333334
-5.607582 7.583745 0.480598 26.000000
-5.531169 7.629789 0.480191 4.000000
-5.382029 7.583262 0.473840 28.000000
-5.720479 7.813120 0.493422 4.000000
-5.355042 7.812549 0.482634 23.000000
8.627146 8.342785 0.402945 2.000000
8.742670 8.401512 0.407106 3.000000
8.911281 8.456491 0.412475 8.000000
8.875996 8.476161 0.412072 25.000000
-7.700592 9.448588 0.409254 29.000000
-7.694741 9.381078 0.407375 2.000000
-7.302923 9.558739 0.403885 75.000000
-9.279602 9.717336 0.451132 1.000000
-7.482739 9.667574 0.410462 9.000000
-7.780453 9.811350 0.420428 10.250000
-6.608202 9.946137 0.400932 39.000000
-6.858826 10.013332 0.407509 6.500000
-6.686091 9.995110 0.403750 17.000000
-8.396571 10.204000 0.443682 14.500000
-6.576424 10.243828 0.408717 27.000000
-8.262583 10.269238 0.442542 9.000000
-6.686451 10.272668 0.411535 30.000000
-6.595862 10.297787 0.410596 37.666668
-6.586407 10.438852 0.414421 13.500000
-9.160238 10.545078 0.468984 0.000000
-9.011501 10.641051 0.468179 8.000000
-5.662416 10.660669 0.405294 29.250000
-9.816065 10.742429 0.488581 0.000000
-7.235559 10.743331 0.434891 10.000000
-9.283796 10.823942 0.478782 10.000000
-5.850624 10.802455 0.412475 27.333334
-9.262714 10.868266 0.479454 4.000000
-5.636381 10.920283 0.412609 0.000000
-5.498880 10.947663 0.411334 20.500000
-8.534923 11.026978 0.468179 6.000000
-5.766122 11.001505 0.417039 2.000000
-5.678674 11.044495 0.416972 5.000000
-5.513928 11.107732 0.416368 10.000000
-9.167553 11.357470 0.490057 7.500000
-5.576148 11.322253 0.423750 66.000000
-8.228267 11.425581 0.472742 4.000000
-7.202686 11.375928 0.452072 18.000000
-6.327567 11.452919 0.439320 200.000000
-5.361909 11.378866 0.422341 24.500000
-5.256842 11.387406 0.421110 31.000000
-5.117707 11.414139 0.419992 26.500000
-6.326158 11.535835 0.441736 38.000000
-5.206186 11.466336 0.422810 27.000000
-5.031161 11.461299 0.420260 43.000000
-6.661744 11.622654 0.449790 12.000000
-7.950181 11.804401 0.477843 1.000000
-7.637295 11.814501 0.472340 1.000000
-5.237070 11.829268 0.434354 30.000000
-5.138710 11.806956 0.432340 24.000000
-7.233853 11.916334 0.468044 18.000000
-5.847678 11.968301 0.447239 2.000000
-5.146258 12.016985 0.438917 30.000000
-5.026425 12.063345 0.438783 19.000000
-4.956528 12.109467 0.439320 11.666667
-7.310764 12.215392 0.477977 2.000000
-6.159608 12.215139 0.459320 3.000000
-6.272215 12.341846 0.464823 14.000000
-4.853333 12.324293 0.444723 10.750000
-4.603124 12.337858 0.442139 12.000000
-4.754058 12.384700 0.445405 15.333333
-4.626855 12.401472 0.444421 9.000000
-7.150789 12.475883 0.482809 2.000000
-6.446817 12.490474 0.471937 39.000000
-6.565346 12.622668 0.477709 38.000000
-6.681056 12.747157 0.483212 27.000000
-6.496839 12.685019 0.478514 20.000000
-5.370984 13.360735 0.483480 12.000000
-5.482085 13.393321 0.485896 1.000000
-4.613420 13.383175 0.475293 10.000000
-4.565052 13.448292 0.476836 8.000000
-3.834421 13.487624 0.470796 0.500000
-3.748524 13.507601 0.470662 1.000000
-5.297995 13.673202 0.492339 0.000000
-4.950013 13.794497 0.492071 7.000000
-4.505834 13.769345 0.486433 5.000000
-5.055355 13.881799 0.496030 13.000000
5.720502 24.218250 0.403953 68.500000
5.837372 24.202723 0.404148 68.000000
5.927628 24.242538 0.405122 73.000000
6.046148 24.231770 0.405414 79.000000
6.171626 24.247612 0.406161 65.000000
5.580252 24.306351 0.404830 71.000000
6.259756 24.274576 0.406940 64.000000
-6.353642 26.961836 0.449659 0.000000
-6.265279 26.966084 0.449400 3.000000
-6.203752 27.086994 0.451088 2.000000
-5.678167 27.132566 0.449984 3.000000
-5.519507 27.226501 0.450958 5.000000
-5.436285 27.255476 0.451153 1.000000
6.376668 28.810881 0.479005 63.000000
6.468025 28.794607 0.479070 45.000000
6.294644 28.869848 0.479654 61.000000
6.232468 29.022432 0.481861 10.000000
-2.116694 -36.710182 0.596906 2.000000
2.905428 -35.954044 0.585544 10.000000
3.019037 -35.952713 0.585674 4.000000
-1.262967 -35.456837 0.575935 6.000000
8.374582 -35.537773 0.592686 1.000000
8.082374 -35.289505 0.587687 6.000000
8.144322 -35.053570 0.584181 14.000000
-1.356219 -34.985111 0.568339 2.000000
10.709764 -34.942776 0.593270 14.000000
-1.572772 -34.903980 0.567171 2.000000
10.076200 -34.818550 0.588401 8.000000
-2.543958 -34.642139 0.563860 6.000000
-2.381975 -34.671654 0.564152 12.000000
-2.218125 -34.676552 0.564054 6.000000
-2.109173 -34.683350 0.564054 5.000000
-1.126775 -34.697136 0.563535 15.000000
10.517573 -34.704494 0.588660 9.000000
-2.651863 -34.622017 0.563665 4.000000
-1.775025 -34.561890 0.561782 11.000000
1.485587 -34.579544 0.561847 7.000000
9.186931 -34.575592 0.580740 6.000000
9.762603 -34.546333 0.582752 4.000000
10.237971 -34.562817 0.585155 10.000000
7.779497 -34.464233 0.573533 2.000000
8.920367 -34.442917 0.577559 3.000000
10.094497 -34.475822 0.583142 9.000000
10.348800 -34.538143 0.585284 19.000000
9.031576 -34.426331 0.577753 20.000000
-1.651413 -34.255699 0.556718 6.000000
1.366920 -34.332272 0.557757 13.000000
2.554982 -34.300446 0.558341 2.000000
9.581963 -34.318741 0.578403 7.000000
2.762717 -34.188034 0.556783 2.000000
9.306223 -34.158314 0.574702 4.000000
9.783110 -34.207867 0.577559 11.000000
1.251001 -34.116573 0.554186 24.000000
0.605953 -34.034122 0.552563 9.000000
2.200204 -33.840084 0.550485 5.000000
0.176264 -33.663105 0.546460 9.000000
0.070288 -33.559505 0.544772 8.000000
-0.140124 -33.451298 0.543019 7.000000
-0.035115 -33.531563 0.544318 15.000000
0.806678 -33.485870 0.543733 44.000000
0.910676 -33.439194 0.543019 35.000000
-0.244533 -33.358707 0.541526 9.000000
1.068252 -33.434490 0.543019 37.000000
1.380307 -33.351009 0.541851 13.500000
1.959172 -33.370136 0.542630 18.000000
-1.187369 -33.334465 0.541461 7.000000
1.703405 -33.167877 0.539124 13.666667
1.846338 -33.232365 0.540293 19.000000
2.049676 -33.132286 0.538864 11.000000
1.522372 -33.016567 0.536527 48.000000
-0.550678 -32.863056 0.533540 16.000000
2.242852 -32.899292 0.535293 3.000000
-0.755027 -32.766983 0.532047 31.000000
-0.652726 -32.801186 0.532567 25.000000
0.480323 -32.760162 0.531852 44.000000
16.401247 -32.781101 0.595023 3.000000
-2.296604 -32.679085 0.531788 2.000000
-0.959253 -32.705624 0.531138 17.000000
-0.856918 -32.724468 0.531398 31.000000
13.383875 -32.698254 0.573533 4.000000
-2.190185 -32.630272 0.530879 4.000000
-1.879331 -32.593559 0.529970 12.000000
-1.466912 -32.554676 0.528996 5.000000
-1.313953 -32.573174 0.529191 14.500000
16.415915 -32.554432 0.591842 2.000000
-1.616155 -32.463474 0.527632 6.000000
15.225653 -32.444313 0.581779 8.000000
-1.972251 -32.431805 0.527438 16.000000
-1.767782 -32.431580 0.527243 12.000000
0.577047 -32.410595 0.526204 18.000000
2.004731 -32.405773 0.527048 11.000000
-2.067492 -32.321678 0.525750 6.000000
0.677359 -32.336643 0.525036 45.000000
15.889253 -32.262791 0.583791 9.000000
16.042103 -32.316605 0.585674 11.000000
-0.033758 -32.235733 0.523283 10.000000
0.168620 -32.203316 0.522763 13.000000
0.269984 -32.226620 0.523153 5.000000
13.890053 -32.190472 0.569118 5.000000
13.987926 -32.139343 0.568989 2.000000
15.738655 -32.211933 0.581973 20.000000
-0.336349 -32.118008 0.521400 10.000000
0.067188 -32.079700 0.520751 12.000000
14.082395 -32.080593 0.568729 7.000000
-2.959071 -32.019325 0.521984 7.000000
0.368509 -31.989662 0.519322 9.000000
13.223942 -32.020229 0.562366 4.000000
13.559490 -31.975182 0.563795 5.000000
13.678754 -31.976549 0.564574 6.000000
-0.734942 -31.895330 0.517894 4.000000
-0.434583 -31.920835 0.518219 2.000000
14.215203 -31.838089 0.566002 3.000000
14.694622 -31.831245 0.569118 10.000000
16.793121 -31.797165 0.583726 17.000000
17.036047 -31.772091 0.585220 1.000000
15.217057 -31.646971 0.570027 18.000000
17.111067 -31.672668 0.584376 7.000000
15.333850 -31.634996 0.570677 3.000000
16.188036 -31.606985 0.576455 6.000000
17.177973 -31.559042 0.583272 11.000000
17.313574 -31.571548 0.584505 4.000000
14.247961 -31.380339 0.559445 20.000000
14.353136 -31.349970 0.559705 5.000000
14.037647 -31.176958 0.555030 10.000000
14.723690 -30.993950 0.557010 4.000000
17.742489 -30.955070 0.579182 3.000000
17.907642 -31.016943 0.581389 4.000000
18.002989 -30.957073 0.581324 6.000000
18.124405 -30.941776 0.582103 4.000000
15.166532 -30.795324 0.557238 14.000000
15.264983 -30.751110 0.557302 13.000000
15.341831 -30.663656 0.556588 6.000000
9.467013 -29.879992 0.508805 3.000000
9.566939 -29.869148 0.509129 10.000000
10.279016 -29.517319 0.507376 28.000000
9.404684 -29.362566 0.500494 7.000000
11.452929 -28.750729 0.502377 10.000000
11.555131 -28.744291 0.502897 13.000000
8.535484 -7.906718 0.592860 22.000000
8.580725 -7.799725 0.590875 24.500000
8.632923 -7.675486 0.588619 25.000000
-8.688946 -7.595890 0.588076 0.000000
8.661010 -7.603529 0.587262 24.000000
8.648788 -7.485214 0.582835 11.500000
-9.087006 -7.358482 0.595811 37.500000
8.629375 -7.432920 0.580341 2.000000
8.755565 -7.375537 0.583344 25.000000
-8.978376 -7.270545 0.588687 25.000000
8.789469 -7.286797 0.581766 25.000000
-8.759550 -7.184940 0.577288 19.000000
8.827000 -7.201746 0.580494 25.000000
-8.874108 -7.094254 0.578916 18.000000
8.864134 -7.093909 0.578509 15.000000
-9.208683 -6.989770 0.589094 52.000000
-9.132713 -6.977440 0.585634 30.000000
-9.293378 -6.916984 0.590315 46.000000
-16.165489 -6.765440 0.588378 10.000000
-9.485563 -6.741038 0.592962 18.000000
-8.804377 -6.814617 0.567314 45.000000
-8.657360 -6.773687 0.560121 41.666668
-8.586099 -6.776031 0.557339 18.000000
-8.857417 -6.679393 0.565278 14.000000
-8.782393 -6.472558 0.555914 12.500000
-16.742632 -6.246493 0.599988 3.000000
-9.218315 -6.293026 0.568738 50.000000
-9.149117 -6.288013 0.565685 13.000000
-8.821035 -6.310587 0.552657 22.000000
-16.337585 -6.153919 0.586163 8.000000
-9.811637 -6.212248 0.591740 73.000000
-9.408799 -6.166329 0.573217 28.000000
-9.168967 -6.175347 0.563293 60.250000
-9.218665 -6.055511 0.562021 28.666666
-9.160245 -6.086051 0.560393 16.000000
-16.387352 -5.996916 0.585894 45.000000
-10.045145 -6.026253 0.596897 41.333332
-9.873189 -6.014696 0.589094 19.000000
-16.827225 -5.919202 0.598914 14.000000
-16.284325 -5.862639 0.581107 22.000000
-10.089355 -5.909925 0.595811 19.000000
-9.234541 -5.928469 0.559171 0.000000
-16.127443 -5.787170 0.575291 15.000000
-16.809374 -5.676581 0.595693 17.000000
-9.630338 -5.681760 0.569756 13.000000
-16.923557 -5.567289 0.598176 27.500000
-9.829502 -5.593012 0.576270 24.000000
-9.721768 -5.572217 0.570978 21.000000
-9.558851 -5.538862 0.562937 18.500000
-16.827932 -5.506719 0.594485 16.000000
-16.877428 -5.405753 0.595022 19.000000
5.715210 -2.556537 0.537634 6.500000
5.476453 -2.532796 0.518127 13.000000
5.819750 -2.526877 0.544821 0.000000
6.277983 -2.523192 0.581011 4.250000
6.364676 -2.368267 0.583150 0.000000
4.911374 -2.299611 0.560804 17.000000
6.152459 -2.158177 0.559879 14.000000
6.410220 -2.180969 0.581439 4.000000
5.048145 -2.129443 0.582765 3.666667
5.337823 -2.130639 0.594337 15.000000
5.733528 -2.051771 0.522919 24.000000
5.850194 -2.104033 0.533870 9.500000
5.849234 -1.979807 0.530276 20.500000
5.971102 -1.948197 0.539345 9.000000
6.608962 -2.019301 0.593417 6.000000
5.821786 -1.865844 0.524972 30.333334
-10.949425 -1.757733 0.565074 11.000000
4.983211 -1.836586 0.580044 13.500000
6.477018 -1.801779 0.577332 15.000000
-10.931681 -1.707949 0.563785 9.333333
4.727630 -1.691805 0.519247 16.000000
5.504515 -1.700774 0.595777 25.000000
5.006009 -1.624465 0.521314 34.500000
6.659542 -1.607422 0.588283 9.000000
-11.649722 -1.459311 0.598254 8.000000
5.090927 -1.515304 0.502561 22.600000
5.408570 -1.505013 0.580553 9.000000
6.104759 -1.493825 0.539688 8.000000
6.679214 -1.523611 0.588283 49.000000
-11.647429 -1.378477 0.597643 25.333334
5.366363 -1.393849 0.573353 2.500000
6.036485 -1.436980 0.532843 28.000000
-11.702976 -1.279619 0.599883 10.000000
6.238561 -1.299895 0.547216 6.000000
7.251615 -1.274741 0.503495 1.000000
-11.545799 -1.189227 0.591435 14.000000
-11.416725 -1.175776 0.584819 8.000000
5.770003 -1.164485 0.505465 19.000000
6.727145 -1.139019 0.585888 3.000000
-11.384841 -1.064093 0.582648 9.666667
-9.943757 -1.087263 0.509707 9.000000
4.899349 -1.117602 0.519659 1.000000
4.946868 -1.087485 0.501416 23.500000
5.371729 -1.136898 0.567798 132.000000
6.730690 -1.117880 0.585888 20.000000
5.279139 -1.031123 0.598418 49.666668
5.523787 -1.024770 0.580964 67.000000
6.881421 -1.032119 0.597523 1.000000
-10.814671 -0.873926 0.552861 5.000000
-6.470751 -0.892135 0.560905 0.000000
4.919142 -0.880662 0.516779 54.000000
-8.135546 -0.759026 0.558757 2.500000
5.747304 -0.776072 0.599754 61.000000
5.811012 -0.784650 0.503526 25.000000
6.454280 -0.751525 0.557997 8.500000
6.698160 -0.811753 0.579386 1.000000
6.707088 -0.770105 0.579728 18.000000
-7.333653 -0.681395 0.503665 17.375000
-7.409330 -0.562306 0.508134 58.500000
6.500172 -0.601858 0.560563 60.000000
6.807401 -0.565652 0.586572 1.000000
-7.589582 -0.475007 0.520025 47.714287
-7.489255 -0.473730 0.513183 45.000000
-6.885190 -0.489913 0.592732 101.000000
4.664945 -0.506148 0.584906 2.600000
5.883158 -0.447065 0.506663 13.500000
5.960462 -0.457586 0.513336 26.000000
-7.357937 -0.361150 0.503768 18.000000
5.489128 -0.438752 0.569444 13.000000
5.949832 -0.381630 0.511967 0.000000
-7.743819 -0.306963 0.529966 52.000000
-7.478832 -0.319959 0.511900 38.799999
-7.769480 -0.161529 0.531421 45.000000
5.020741 -0.211318 0.519659 3.000000
-7.677574 -0.087101 0.525054 53.000000
-7.797541 -0.022969 0.533241 56.000000
5.832493 0.020344 0.500845 3.000000
-7.707316 0.203168 0.527237 27.000000
-7.674728 0.226441 0.525054 25.000000
-8.146785 0.317240 0.557528 0.000000
-8.152751 0.445819 0.558347 13.000000
-7.948747 0.698230 0.545658 1.000000
-8.049658 1.104097 0.555618 8.000000
-8.125759 1.192661 0.561622 9.000000
-7.893387 1.260077 0.546613 2.000000
-10.530764 1.951761 0.545736 4.000000
-10.039276 3.169251 0.536441 17.333334
-9.991943 3.240772 0.535253 5.000000
-9.379389 3.288293 0.506450 22.000000
-7.435588 3.814883 0.571492 25.166668
-11.058730 3.955242 0.598458 2.000000
-7.842269 3.884409 0.598463 6.000000
-9.565907 3.974071 0.527823 3.000000
-9.472320 3.970129 0.523345 60.000000
-7.617855 3.999413 0.588366 45.500000
-9.608578 4.169956 0.533727 5.000000
-9.490823 4.189912 0.528638 3.000000
-9.459228 4.318796 0.529859 1.000000
-6.271842 4.331501 0.521233 0.000000
-7.037623 4.416405 0.568172 53.000000
-6.605134 4.380137 0.541973 47.000000
-6.473359 4.531011 0.540336 10.000000
-7.103303 4.646591 0.580452 38.666668
-6.861946 4.659869 0.567216 8.500000
-7.118187 4.768825 0.585910 8.000000
-9.749637 5.019239 0.558764 2.000000
-8.535956 5.060225 0.505636 58.000000
-9.234416 5.127151 0.538205 18.000000
-8.481928 5.173326 0.506246 52.000000
-9.183898 5.289510 0.540037 32.000000
-8.686977 5.449332 0.522531 4.000000
-8.274764 5.447919 0.504821 2.000000
-8.170610 5.602916 0.504821 71.000000
-14.998343 5.739309 0.539184 28.000000
-14.894464 5.753273 0.536097 40.000000
-8.988447 5.757197 0.543904 24.000000
-8.179633 5.723186 0.508689 60.000000
-14.857865 5.819737 0.535761 21.500000
-10.069102 5.841548 0.593165 4.000000
-8.557961 5.829097 0.527620 23.000000
-8.302047 5.847776 0.517442 37.000000
-8.082096 5.788350 0.506552 31.500000
-8.361845 5.929285 0.522327 57.000000
-8.385073 6.085349 0.527925 7.000000
-7.870504 6.359774 0.515610 13.000000
-8.381586 6.557841 0.542276 32.000000
-7.520218 6.602023 0.509910 44.000000
-8.479312 6.984835 0.559782 4.000000
-7.847665 7.021551 0.536576 2.000000
-7.958254 7.256699 0.548790 40.000000
-6.732540 7.229879 0.503397 31.000000
-7.799298 7.293355 0.544108 7.333333
-6.726074 7.268586 0.504618 53.000000
-7.974134 7.363472 0.553065 4.000000
-7.857769 7.441122 0.551436 8.000000
-7.796759 7.429943 0.548790 4.000000
-6.683079 7.453645 0.510114 36.000000
-6.595848 7.403020 0.505229 47.000000
6.931148 7.506001 0.520597 1.000000
7.099649 7.592161 0.529655 0.000000
7.209425 7.637002 0.535151 2.000000
-7.412713 7.713720 0.545126 15.000000
-7.054841 7.720622 0.532912 3.000000
7.327974 7.689755 0.541258 6.000000
7.407395 7.724361 0.545329 7.000000
-8.143741 7.858827 0.576677 14.000000
7.489881 7.761419 0.549604 8.000000
7.561539 7.786570 0.553065 8.000000
7.650180 7.828490 0.557746 8.000000
-6.079197 7.931196 0.509198 35.000000
-5.940979 7.878222 0.502786 2.000000
7.747562 7.878474 0.563039 8.000000
7.845334 7.927924 0.568331 7.000000
-8.016743 8.033547 0.578306 0.000000
7.946310 7.979665 0.573827 7.000000
8.044861 8.028028 0.579120 4.000000
-6.125105 8.069531 0.516221 37.000000
8.189178 8.120857 0.587669 11.000000
8.237412 8.117522 0.589298 10.000000
8.359916 8.186635 0.596219 1.000000
-6.963194 8.435022 0.557339 3.000000
-6.872201 8.432158 0.554286 11.000000
-7.873268 8.725759 0.598865 17.000000
-6.601849 8.783270 0.559884 30.000000
-5.564612 8.881085 0.534032 17.500000
-6.551142 9.007069 0.567517 36.500000
-6.492344 9.015120 0.566092 9.000000
-5.511558 9.002687 0.537879 29.799999
-5.340575 8.987408 0.532709 36.000000
-5.248210 8.991893 0.530521 33.000000
-5.129343 9.047657 0.529961 46.000000
-6.320257 9.073372 0.563446 3.000000
-6.134559 9.108571 0.559578 34.000000
-5.455896 9.083694 0.539935 41.000000
-5.224573 9.115242 0.535355 42.000000
-6.246099 9.211589 0.567110 12.000000
-6.149585 9.213913 0.564464 26.000000
-5.099161 9.161572 0.534269 49.333332
-6.372098 9.789715 0.595201 64.000000
-5.484030 10.000203 0.581155 18.000000
-5.377721 10.029355 0.579883 17.000000
-9.200933 11.810613 0.502675 1.000000
-7.313792 13.043631 0.502093 7.666667
-7.180114 13.142027 0.502809 15.000000
-7.313167 13.742496 0.522674 1.000000
-7.431874 13.860380 0.528043 1.000000
-7.165658 13.990883 0.527775 6.000000
-5.211437 14.103476 0.504822 4.000000
-7.115492 14.334059 0.537305 7.000000
-4.482642 14.383150 0.505829 0.500000
-4.689132 14.483253 0.511131 11.000000
-4.413385 14.899334 0.521735 2.000000
-4.357564 14.882433 0.520661 1.000000
-3.952421 14.875193 0.516768 0.000000
-5.337626 15.022966 0.535291 0.000000
-5.429351 15.130297 0.539721 0.000000
-4.855793 15.160369 0.534486 0.000000
-4.540490 15.153462 0.531130 0.000000
-3.780095 15.183716 0.525359 0.000000
-4.626341 15.265378 0.535560 1.000000
-4.977691 16.240732 0.570324 1.000000
-5.089043 16.419760 0.577170 1.000000
-4.497677 16.508642 0.574485 0.000000
6.921885 32.232807 0.535164 52.000000
6.826380 32.281784 0.535618 76.000000
6.739603 32.373550 0.536787 73.000000
-15.693869 -38.113949 0.669101 255.000000
5.376240 -38.061104 0.623979 3.000000
-15.937676 -38.025654 0.669295 2.000000
5.695330 -37.747738 0.619694 13.000000
5.816936 -37.749424 0.620018 4.000000
5.906913 -37.549221 0.617032 16.000000
-2.015720 -36.980228 0.601191 3.000000
7.214770 -36.774006 0.608332 5.000000
-14.804959 -13.190737 0.665759 16.000000
-14.828368 -13.128260 0.664953 13.000000
-15.057021 -12.914551 0.666027 3.000000
-14.986114 -12.935665 0.664685 2.000000
-14.854113 -12.659729 0.655289 7.000000
-14.350572 -12.585036 0.640860 1.500000
-16.505329 -12.446696 0.694080 1.000000
-15.177103 -12.488821 0.659920 24.000000
-15.039693 -12.495069 0.656497 9.000000
-14.890540 -12.530112 0.653410 37.000000
-16.252079 -12.416672 0.686698 1.000000
-14.665002 -12.419236 0.645222 7.000000
-14.392964 -12.423673 0.638377 6.000000
-14.755013 -12.337104 0.645759 24.000000
-15.260732 -12.121550 0.654349 0.000000
-15.125777 -12.092045 0.650189 6.000000
-15.016072 -12.081867 0.647101 20.000000
-14.785419 -11.972996 0.638779 5.000000
-16.216694 -11.873271 0.674819 6.000000
-16.072231 -11.884151 0.671128 1.000000
-16.287100 -11.807227 0.675423 0.000000
-15.435115 -11.488227 0.646028 5.000000
-4.011739 -11.442693 0.617864 16.666666
-15.142995 -11.344900 0.635289 3.000000
-15.036386 -11.413236 0.633813 1.000000
-4.103475 -11.435613 0.619085 18.000000
-3.912014 -11.387136 0.613521 22.000000
-3.691228 -11.380826 0.609653 55.500000
-3.580590 -11.404542 0.609094 19.250000
-3.441899 -11.374393 0.605542 83.599998
-16.084316 -11.279098 0.659584 5.000000
-15.478115 -11.295116 0.643343 1.000000
-3.824399 -11.305145 0.608127 255.000000
-3.748242 -11.313790 0.607312 255.000000
-16.129511 -11.235371 0.659987 15.000000
-16.087769 -11.056815 0.655423 15.000000
-18.465725 -9.530869 0.697704 0.000000
-17.990679 -8.825212 0.672805 4.000000
-18.050446 -8.679337 0.672470 1.000000
-18.077625 -8.622581 0.672470 1.000000
-10.409772 -7.798842 0.662782 10.000000
-16.721796 -7.719475 0.618377 0.000000
-16.880238 -7.632379 0.622001 77.000000
-16.673271 -7.633616 0.615692 12.000000
-9.546998 -7.583149 0.621256 5.000000
-16.955454 -7.506592 0.622583 55.000000
-17.076887 -7.368516 0.624462 61.666668
-17.187893 -7.288750 0.626833 71.000000
-10.957340 -7.329765 0.671738 0.000000
-10.518917 -7.278215 0.651790 6.000000
-10.019679 -7.311836 0.632045 29.000000
-9.803299 -7.248768 0.621256 38.000000
5.958490 -7.301970 0.644492 8.666666
-17.381989 -7.226466 0.632034 20.000000
-9.364089 -7.200911 0.601918 18.000000
-9.656972 -6.954584 0.606396 2.000000
-9.538047 -6.914545 0.600290 5.000000
-11.045522 -6.800568 0.660950 3.000000
-16.791378 -6.566947 0.605357 3.000000
-16.824842 -6.458448 0.605089 4.000000
-10.494459 -6.506839 0.629195 5.000000
-10.148918 -6.515488 0.614539 49.000000
-10.064653 -6.506137 0.610671 20.000000
-16.945919 -6.261764 0.606565 16.000000
-10.664420 -6.023814 0.624106 11.000000
-16.910988 -5.799821 0.600257 10.000000
-17.057262 -5.641147 0.603210 19.000000
-17.203926 -5.421041 0.605626 1.000000
-17.225555 -5.279481 0.604910 11.333333
5.901830 -2.584582 0.666271 3.666667
5.450999 -2.526150 0.621286 8.000000
4.951776 -2.356574 0.664114 0.000000
5.062497 -2.428802 0.679984 88.000000
6.053080 -2.339331 0.671072 1.000000
5.782522 -2.255674 0.641859 4.000000
5.930347 -2.270512 0.656671 1.000000
6.086259 -2.308307 0.673129 1.000000
6.234024 -2.252994 0.685472 5.000000
6.320355 -2.306670 0.695758 28.000000
5.395957 -2.183395 0.601948 12.000000
6.296706 -2.149597 0.648855 20.000000
5.849098 -2.082853 0.642064 23.500000
5.774988 -1.975048 0.631161 30.500000
6.942382 -1.943866 0.619084 9.000000
4.733957 -1.872402 0.616506 26.000000
4.838871 -1.846766 0.627246 8.000000
5.097790 -1.933508 0.660267 10.333333
5.825021 -1.900706 0.633630 4.750000
6.915278 -1.877544 0.615319 15.000000
5.236572 -1.745021 0.668443 3.000000
5.475845 -1.805663 0.698258 50.000000
6.181790 -1.825263 0.666546 10.000000
6.263883 -1.828128 0.674775 5.000000
4.801434 -1.709723 0.617227 4.500000
5.151333 -1.654177 0.655218 5.500000
5.250601 -1.667737 0.618671 58.000000
5.480599 -1.693454 0.626847 22.000000
6.330613 -1.654888 0.638556 25.333334
6.484773 -1.716984 0.693701 0.000000
4.997073 -1.595731 0.635261 43.000000
5.008096 -1.547392 0.634780 44.000000
6.864648 -1.588616 0.605052 16.000000
7.072797 -1.590033 0.622506 13.000000
7.198379 -1.594524 0.633115 14.000000
5.135574 -1.481336 0.647283 9.000000
5.290009 -1.512077 0.617430 7.000000
6.073658 -1.526724 0.647619 14.000000
6.210022 -1.533447 0.661471 33.000000
6.322307 -1.463107 0.671072 62.000000
5.311742 -1.368683 0.631856 21.000000
5.953570 -1.397493 0.632395 3.000000
5.166741 -1.255714 0.643917 9.000000
5.799915 -1.246571 0.613469 24.000000
5.916276 -1.310524 0.626635 22.000000
4.863916 -1.174353 0.650193 21.500000
5.234317 -1.194012 0.650169 6.000000
5.460801 -1.218588 0.677580 64.500000
5.903046 -1.210800 0.623179 39.799999
5.078512 -1.108223 0.629490 4.000000
5.876720 -1.128487 0.618818 47.000000
4.803986 -1.017158 0.638200 25.000000
4.991116 -1.032071 0.617227 3.000000
5.681046 -0.961897 0.697777 47.000000
7.126801 -0.977518 0.617715 4.000000
-8.085981 -0.902675 0.698670 11.333333
4.701845 -0.880286 0.621635 46.500000
5.101263 -0.896699 0.627246 34.333332
5.277006 -0.927403 0.601560 89.000000
5.417799 -0.894060 0.600456 28.000000
5.553719 -0.904480 0.681427 48.000000
6.293998 -0.890323 0.657357 33.000000
4.917332 -0.766319 0.637987 32.400002
5.292278 -0.768240 0.615999 16.333334
5.590280 -0.741657 0.642749 30.400000
6.951079 -0.776003 0.600603 2.000000
-7.244887 -0.683738 0.624901 23.166668
5.109861 -0.733460 0.625162 15.666667
5.444666 -0.689901 0.603065 22.600000
5.730299 -0.667105 0.664288 19.500000
-7.446202 -0.576877 0.641328 65.000000
-7.310519 -0.589457 0.629807 44.666668
4.671469 -0.559517 0.653272 3.000000
5.862089 -0.635540 0.609766 5.500000
6.638950 -0.614711 0.639277 16.142857
-7.860077 -0.484875 0.676235 3.000000
-7.612173 -0.439620 0.654760 44.750000
-7.379738 -0.501807 0.635168 70.000000
5.631308 -0.467926 0.684312 5.000000
6.344083 -0.446646 0.657699 5.250000
-6.633213 -0.388275 0.687118 82.000000
-6.568420 -0.405195 0.680535 0.000000
6.478524 -0.367889 0.633118 19.666666
6.584106 -0.339297 0.681769 1.000000
-8.009613 -0.279721 0.688213 9.000000
-7.437798 -0.318237 0.639275 41.000000
-7.334619 -0.323022 0.630445 30.600000
-7.742970 -0.197400 0.665113 54.500000
-7.540798 -0.227758 0.647830 60.000000
-7.901848 -0.126910 0.678631 63.000000
5.734326 -0.075249 0.662306 4.983334
5.807458 -0.134832 0.600714 1.000000
-7.880883 0.034456 0.676748 16.000000
-7.791253 0.033998 0.669048 39.000000
-7.653698 -0.038645 0.657242 39.000000
-7.520228 -0.038065 0.645777 55.000000
5.852782 0.002112 0.605240 2.500000
-7.920691 0.134186 0.680256 36.750000
-7.803061 0.148520 0.670189 46.666668
5.674996 0.085791 0.627023 4.600000
-7.664782 0.214116 0.658439 30.500000
-6.078430 1.088206 0.638567 2.000000
-9.360637 3.201191 0.676512 13.000000
-9.036409 3.233722 0.656317 5.000000
-9.413311 3.268852 0.681424 21.000000
-9.092077 3.285856 0.661120 17.200001
-8.875376 3.302486 0.647584 40.000000
-8.221998 3.305404 0.605987 41.142857
-7.372568 3.311815 0.694031 0.000000
-8.989773 3.398874 0.657227 71.333336
-8.757099 3.400200 0.642399 13.500000
-8.191429 3.374589 0.605831 42.000000
-7.398738 3.379599 0.698480 55.000000
-7.377224 3.397827 0.697453 29.000000
-9.164150 3.475645 0.670235 80.000000
-8.836788 3.712053 0.655444 46.799999
-8.655779 3.806787 0.646629 38.000000
-9.200408 3.960416 0.684971 35.000000
-9.122938 3.938400 0.679513 28.000000
-8.620113 3.872238 0.646220 43.000000
-8.481778 3.906566 0.638579 37.000000
-8.029418 3.883301 0.609925 31.000000
-7.907082 3.870196 0.602011 32.000000
-8.860632 4.047364 0.666142 33.000000
-8.563291 4.108358 0.649495 35.000000
-8.188452 4.120153 0.626844 21.000000
-8.777948 4.177466 0.664777 79.000000
-7.854424 4.234480 0.610198 53.000000
-7.714840 4.190560 0.600373 35.000000
-9.239823 4.314487 0.697343 50.666668
-8.669086 4.327918 0.662594 43.000000
-7.897679 4.322060 0.615656 22.000000
-6.845897 4.281077 0.693346 11.000000
-6.563072 4.352243 0.676235 67.000000
-8.825682 4.371510 0.673510 40.000000
-8.300295 4.407773 0.642672 7.000000
-6.463031 4.418740 0.672299 6.000000
4.016190 4.430794 0.618406 0.000000
-8.663792 4.496642 0.667506 4.000000
-8.490489 4.543025 0.658500 55.000000
-8.257995 4.553020 0.644856 48.000000
3.947257 4.466399 0.616408 1.571429
-7.742467 4.641041 0.617293 50.000000
-7.551920 4.624264 0.605558 47.000000
-8.047950 4.704727 0.637487 42.000000
-7.950598 4.681390 0.630938 31.000000
-8.527011 4.818587 0.669780 76.000000
-8.376414 4.774077 0.659319 49.500000
-8.259426 4.793599 0.653042 27.000000
-7.764291 4.804688 0.624388 89.000000
-7.593271 4.809609 0.614655 24.000000
-7.534228 4.928382 0.615656 9.000000
-8.481612 5.030009 0.674328 54.000000
-7.689439 4.972684 0.626208 57.333332
-7.457441 5.219816 0.622478 17.000000
-7.322691 5.220120 0.614973 24.750000
-7.131585 5.237652 0.605081 22.750000
-7.618154 5.261300 0.633121 88.000000
-7.119597 5.359161 0.609379 37.000000
-7.093991 5.293499 0.605285 33.666668
-7.046536 5.408970 0.607469 38.799999
-7.058485 5.560552 0.614473 35.333332
-8.458655 5.686125 0.696979 35.000000
-8.245847 5.681924 0.684789 50.000000
-8.039678 5.702949 0.674056 35.000000
-7.103319 5.705097 0.623024 38.000000
-7.009242 5.665739 0.616338 37.500000
-8.070438 5.762963 0.678149 17.000000
-6.943131 5.798219 0.618589 34.583336
-8.167019 5.929308 0.690156 22.000000
-7.321177 5.956125 0.645401 36.000000
-7.411232 5.990797 0.651678 42.000000
-7.015182 5.968277 0.629846 49.000000
-6.946563 6.023669 0.628755 34.000000
-6.993497 6.077087 0.633576 31.000000
-6.845798 6.107930 0.627390 24.500000
-6.785815 6.150842 0.626299 31.000000
-7.106480 6.240997 0.646766 46.000000
-6.846065 6.244743 0.633667 39.000000
-7.329847 6.275787 0.659865 97.000000
-6.428501 7.217633 0.660957 7.000000
