# This PCD file was generated using the MATLAB® pcwrite function
# from Computer Vision Toolbox®.
# .PCD v.7 - Point Cloud Data file format
VERSION .7
FIELDS x y z intensity
SIZE 4 4 4 4
TYPE F F F F
COUNT 1 1 1 1
WIDTH 1238
HEIGHT 1
VIEWPOINT 0 0 0 1 0 0 0
POINTS 1238
DATA ascii
6.537389 13.415517 0.501064 1.000000
-7.304682 13.470211 0.514486 48.500000
6.637681 13.459829 0.503883 1.000000
6.770490 13.514353 0.507507 1.000000
-8.558537 13.517359 0.537171 3.000000
-7.961112 13.591123 0.528849 6.000000
6.916919 13.592684 0.512070 1.000000
-7.828692 13.658613 0.528580 1.000000
-7.258703 13.640151 0.518782 34.000000
7.067337 13.675038 0.516835 1.000000
-7.963516 13.793208 0.534755 5.000000
-7.262492 13.751261 0.522137 1.000000
-5.793146 13.781404 0.501936 2.500000
7.213503 13.745405 0.521198 1.000000
7.409811 13.854055 0.527506 1.000000
7.544481 13.929860 0.531891 1.000000
7.730663 14.097012 0.539810 9.666667
7.878438 14.085258 0.541868 2.000000
7.959937 14.126612 0.544419 2.000000
8.041774 14.167594 0.546969 2.000000
8.125930 14.211670 0.549654 2.000000
8.214433 14.262286 0.552607 2.000000
8.303332 14.312483 0.555559 2.000000
8.431369 14.376619 0.559586 10.500000
-7.304409 14.485398 0.544687 1.000000
-6.589544 14.513105 0.535157 25.000000
-6.480650 14.433587 0.531220 18.000000
-6.764916 14.775852 0.545627 5.000000
-6.498248 14.803416 0.542808 1.000000
-6.071621 14.767531 0.536097 9.500000
-5.995998 14.781164 0.535560 16.000000
-6.002789 15.138077 0.546768 16.000000
-6.147852 15.293257 0.553412 3.000000
-5.965589 15.253716 0.549922 5.000000
-5.991299 15.462499 0.556768 5.000000
-5.939755 15.546558 0.558781 13.500000
-7.884941 15.759602 0.591666 15.000000
-7.382678 15.992239 0.591398 17.000000
-7.003706 16.092064 0.589250 8.000000
-6.915107 16.025890 0.586029 11.000000
-7.415613 16.197096 0.598109 7.000000
-7.240621 16.354803 0.600525 14.000000
-5.689349 16.420496 0.583478 5.000000
-6.233922 16.708921 0.598780 6.000000
1.474803 -20.675789 0.695959 15.000000
3.134571 -20.556644 0.698174 3.500000
4.045155 -20.280867 0.694349 3.000000
5.351571 -19.888996 0.691530 4.000000
3.887522 -19.814873 0.677973 5.000000
4.938076 -19.835039 0.686295 3.000000
5.759367 -19.785145 0.691866 14.500000
3.487619 -19.738966 0.673007 3.000000
5.887121 -19.648020 0.688666 14.333333
4.462571 -19.344734 0.666564 9.500000
2.591160 -19.215153 0.650994 1.000000
5.360315 -19.198496 0.669249 4.000000
3.569459 -19.147154 0.653947 0.000000
3.682879 -19.089020 0.652739 4.000000
4.260123 -19.152882 0.658779 2.000000
4.328196 -19.174498 0.659987 29.000000
0.817287 -19.023724 0.639316 0.000000
3.850706 -18.994692 0.650725 5.000000
5.403199 -19.043816 0.664640 25.000000
0.933560 -18.952932 0.637124 17.333334
8.748629 -18.873135 0.698443 10.500000
9.360538 -18.660030 0.700926 30.333334
1.406781 -18.494099 0.622739 9.000000
1.490889 -18.449430 0.621464 14.000000
3.337403 -18.437807 0.629115 23.333334
3.503691 -18.472061 0.631263 6.000000
3.495062 -18.115530 0.619451 14.000000
3.618217 -18.140194 0.621062 18.333334
3.779609 -18.060257 0.619518 18.000000
3.896781 -18.053835 0.620122 15.000000
4.473240 -17.730110 0.613948 4.000000
4.728329 -17.572731 0.610995 15.000000
4.748834 -17.430504 0.606565 17.000000
5.899549 -17.379623 0.616229 1.500000
6.026139 -17.217587 0.612471 3.500000
6.095170 -17.155113 0.611263 2.000000
6.202999 -16.950491 0.606028 5.000000
6.563866 -16.822559 0.606297 19.500000
6.661124 -16.671017 0.602762 17.333334
6.736858 -16.607508 0.601733 7.000000
-18.857845 -8.633792 0.696362 11.000000
-18.659185 -8.472037 0.688040 3.000000
-18.252018 -8.080563 0.670188 10.000000
-18.159542 -7.700790 0.662269 5.000000
-18.088146 -7.771246 0.660994 2.000000
-18.236179 -7.632084 0.663745 9.000000
-18.318897 -7.531794 0.665020 11.000000
-16.486042 -7.485341 0.607907 1.000000
-16.378843 -7.498817 0.604820 15.000000
-18.430147 -7.476216 0.667772 1.000000
-18.230171 -7.030792 0.656027 19.500000
-18.358414 -6.981041 0.659450 15.000000
-18.282982 -6.886697 0.655960 12.000000
-18.209644 -6.728729 0.651799 5.000000
-18.147205 -6.608668 0.648444 8.500000
-19.350855 -6.534848 0.685758 19.000000
-7.038014 -6.489980 0.654680 8.750000
-19.552166 -6.398188 0.690725 33.000000
-19.442959 -6.452749 0.687816 29.666666
-18.118145 -6.453279 0.645759 28.750000
-7.112470 -6.455981 0.656863 3.000000
-19.530331 -6.323189 0.689248 33.000000
-18.524330 -6.320634 0.657168 69.000000
-18.379660 -6.335801 0.652739 85.000000
-18.212425 -6.342233 0.647504 33.000000
-19.729740 -6.251065 0.694886 24.000000
-19.707319 -6.175895 0.693409 39.000000
-19.699865 -6.037899 0.691798 34.000000
-19.493692 -6.041762 0.685221 30.000000
-19.684305 -5.965539 0.690590 48.000000
-19.759672 -5.853050 0.691933 43.666668
-19.889585 -5.722043 0.694886 31.500000
-3.669501 -5.667810 0.698227 13.500000
-3.570391 -5.664546 0.648471 8.875000
-3.457109 -5.638101 0.651739 7.805555
-19.855865 -5.577505 0.692470 39.500000
-3.860713 -5.552581 0.620216 231.222229
-3.729397 -5.566553 0.634228 231.750000
-19.890530 -5.452591 0.692469 40.500000
-12.508688 -4.801632 0.682730 0.000000
-13.050961 -4.316190 0.700440 27.000000
-13.085423 -4.236569 0.700847 0.000000
-9.901451 -2.331481 0.695614 2.000000
-9.615446 -2.168697 0.674056 5.000000
-9.270145 -2.121442 0.650313 34.000000
-9.336271 -1.998104 0.652906 17.000000
-9.019569 -1.989667 0.631620 29.000000
-9.407363 -1.936185 0.656795 49.750000
-9.403696 -1.858560 0.655499 25.000000
-9.838092 -1.704640 0.682788 59.000000
-9.448668 -1.729042 0.656863 4.000000
-9.316069 -1.765343 0.648403 45.000000
-9.192921 -1.771941 0.640216 33.000000
-9.582896 -1.650029 0.664959 33.000000
-9.050204 -1.656018 0.629164 15.000000
-9.622316 -1.542967 0.666414 12.000000
-8.987287 -1.470116 0.622751 40.000000
5.836738 -1.440190 0.621698 9.931818
-9.360640 -1.380592 0.647039 46.000000
-9.102066 -1.327868 0.629027 22.000000
-10.061847 -1.226526 0.693158 16.000000
-8.930337 -1.202668 0.616201 4.000000
-8.760476 -1.207824 0.604740 20.000000
-9.847693 -1.169037 0.678149 21.000000
-9.716530 -1.122524 0.668871 15.000000
-8.882301 -1.139424 0.612381 144.000000
-10.082413 -1.004583 0.692885 7.000000
-9.436981 -1.000192 0.648949 10.000000
-8.759383 -0.956215 0.602557 10.000000
-10.090265 -0.877460 0.692613 56.000000
-9.874250 -0.827430 0.677603 71.000000
-8.859317 -0.798465 0.608287 12.000000
-9.583999 -0.752643 0.657409 31.666666
-9.003928 -0.697558 0.617566 33.000000
-9.286731 -0.602199 0.636396 13.333333
-9.004153 -0.640687 0.617293 34.000000
-9.544666 -0.498546 0.653588 51.000000
-9.222637 -0.539848 0.631756 15.000000
-9.426439 -0.462352 0.645401 50.000000
-9.179484 -0.450557 0.628482 20.000000
-9.925685 -0.315461 0.679104 5.000000
-9.751792 -0.325203 0.667233 4.000000
-9.350801 -0.370663 0.639943 33.000000
-9.611475 -0.199655 0.657409 20.000000
-9.327542 -0.223073 0.638033 6.000000
-10.107742 -0.114671 0.691248 0.000000
-10.023536 -0.145214 0.685517 29.000000
-9.484372 -0.167205 0.648676 3.000000
-10.008478 -0.009017 0.684426 14.000000
-9.842257 -0.039449 0.673055 7.000000
-9.661164 0.072508 0.660684 1.000000
-9.644323 0.148138 0.659592 10.000000
5.282335 3.296915 0.643916 8.666667
5.679125 3.301350 0.679300 9.000000
4.791186 3.611729 0.620463 13.000000
5.246551 3.556190 0.655437 50.000000
6.251634 3.562256 0.617886 17.000000
5.691079 3.677498 0.700696 9.000000
4.859344 3.719156 0.632807 47.666668
5.265004 3.752680 0.668603 16.000000
5.581025 3.726310 0.628350 28.111111
6.340418 3.739265 0.632088 31.000000
-11.198578 3.827576 0.603038 8.500000
5.497205 3.892260 0.637366 2.000000
5.548122 3.863429 0.659480 14.000000
5.808527 3.910530 0.601288 22.000000
6.496328 3.886411 0.650055 15.000000
-11.344042 3.957078 0.612198 58.000000
4.581392 3.978334 0.627458 26.000000
4.872989 3.957373 0.649162 8.250000
5.445147 4.011579 0.640108 17.500000
5.906301 3.989683 0.612068 41.500000
4.648925 4.088496 0.640213 20.000000
5.291994 4.094459 0.662518 12.000000
6.646409 4.042737 0.668022 10.000000
4.523446 4.144881 0.634453 6.500000
4.792699 4.206126 0.659414 45.000000
6.047367 4.182713 0.631404 39.000000
6.390350 4.157875 0.654675 21.000000
6.473675 4.183201 0.661862 4.000000
6.750769 4.154725 0.680684 38.000000
-11.936565 4.258682 0.645785 17.250000
4.682506 4.218264 0.651734 13.000000
-11.657198 4.377007 0.634487 17.000000
5.107716 4.379333 0.695758 8.333333
5.900821 4.390339 0.631575 11.000000
-11.648192 4.465818 0.635668 28.000000
5.597744 4.473422 0.615319 36.000000
6.775650 4.484882 0.626429 11.500000
-11.609313 4.568347 0.635709 27.000000
-11.576339 4.597427 0.634691 8.000000
5.655089 4.548434 0.623190 53.000000
-11.115541 4.699964 0.614946 23.000000
4.658502 4.676423 0.682592 17.000000
5.703075 4.631471 0.630890 28.500000
6.476714 4.693529 0.686844 3.000000
-11.046520 4.759732 0.612910 34.666668
-8.373621 4.807281 0.660274 11.500000
4.712517 4.745497 0.632810 17.000000
5.568786 4.744438 0.628226 21.428572
-8.411293 4.881739 0.665050 20.000000
5.224453 4.863364 0.612924 36.000000
-11.856058 4.969223 0.655047 7.000000
-10.721269 4.997110 0.602732 11.000000
4.494448 4.974030 0.634179 14.000000
5.050346 4.936159 0.606421 1.750000
5.447456 4.944651 0.631746 14.000000
6.357944 4.983473 0.693688 15.000000
-8.330809 5.083190 0.667370 1.500000
-7.908414 5.102335 0.643600 56.000000
-7.738669 5.096902 0.633667 42.000000
-7.598995 5.099583 0.625821 53.000000
5.083265 5.039097 0.614635 19.000000
5.561310 5.079920 0.646804 16.666666
-8.278802 5.141101 0.666414 11.500000
5.028790 5.160439 0.618741 2.000000
5.606995 5.154090 0.653990 5.000000
-8.334613 5.242555 0.673328 37.333332
-7.730078 5.302809 0.641035 33.000000
6.058846 5.294786 0.690951 0.000000
-7.945014 5.377156 0.656044 56.000000
-7.762137 5.396836 0.646493 37.000000
-7.644527 5.374672 0.639034 42.666668
-8.018764 5.537971 0.666414 13.000000
-7.876932 5.587504 0.660411 14.000000
4.754280 5.588235 0.630035 0.000000
-7.873530 5.647232 0.662594 44.333332
5.547543 5.764853 0.687015 11.000000
-8.059932 5.832273 0.680332 35.000000
-7.937955 5.897398 0.676239 28.000000
5.456576 5.869884 0.688213 10.000000
-8.073012 5.919292 0.684562 18.000000
-7.948153 5.943814 0.678695 3.000000
-6.432296 6.780598 0.639125 7.000000
-9.763468 8.828186 0.670721 22.333334
-9.522423 8.848784 0.662375 17.000000
-9.445420 8.851258 0.659593 28.000000
-9.826791 8.960517 0.677641 22.000000
-9.716843 8.944489 0.672960 12.500000
-8.638244 9.045724 0.637337 1.000000
-8.943210 9.190084 0.653418 31.000000
-9.659054 9.262704 0.681916 65.000000
-9.568413 9.253142 0.678252 38.000000
-9.055886 9.247570 0.659525 27.000000
-8.780272 9.252480 0.649958 2.000000
-9.397232 9.387412 0.676827 43.500000
-9.239116 9.375568 0.670721 36.000000
-9.626481 9.478456 0.688389 42.799999
-7.830414 9.485549 0.626752 32.000000
-8.326818 9.525059 0.644665 28.000000
-8.251755 9.529452 0.642324 40.000000
-7.846176 9.565701 0.630416 31.000000
-9.569503 9.650012 0.692501 4.000000
-8.912369 9.692132 0.670924 39.000000
-8.572491 9.713342 0.660136 50.500000
-9.064871 9.796025 0.680084 31.000000
-8.098825 9.717031 0.644563 65.500000
-8.065940 9.896870 0.650568 10.000000
-9.234443 9.916599 0.690466 19.000000
-9.078594 9.935362 0.685784 80.000000
-8.369579 9.946238 0.662375 67.000000
-8.974040 10.040596 0.686191 38.500000
-6.943048 10.068260 0.623190 2.000000
-6.688090 10.100740 0.617287 2.500000
-7.416054 10.129042 0.639678 12.000000
-6.874430 10.276658 0.630009 10.000000
-8.802688 10.350692 0.692365 48.666668
-8.368390 10.378481 0.679338 21.666666
-8.146739 10.378660 0.672315 32.500000
-7.912744 10.323277 0.662782 28.500000
-7.463511 10.363659 0.650772 41.000000
-7.298291 10.407565 0.647719 22.000000
-8.011834 10.418619 0.669703 28.000000
-7.836795 10.426224 0.664614 22.000000
-7.552309 10.417784 0.655657 24.000000
-8.093052 10.592933 0.679270 31.000000
-7.641235 10.752256 0.672145 9.000000
-7.800488 10.903646 0.683137 30.000000
-7.570561 11.052402 0.682629 28.500000
-7.521108 11.129534 0.684461 31.000000
-7.812374 11.290918 0.699626 38.000000
-7.538551 11.269460 0.690873 24.000000
-7.524983 11.364845 0.694537 29.000000
-7.412657 11.466997 0.695758 45.000000
-7.371415 11.521997 0.696979 27.000000
-7.311522 16.375782 0.602136 6.000000
-8.621752 16.833893 0.635021 2.000000
-6.068019 16.910112 0.603210 16.000000
-8.078727 16.937397 0.630055 6.000000
-6.028246 17.051567 0.607236 9.000000
-5.950438 17.174099 0.610256 1.500000
-6.982875 17.370440 0.628578 5.000000
-6.310438 17.413406 0.621867 7.000000
-5.916555 17.340075 0.615156 5.000000
-8.287061 17.515589 0.650591 2.000000
-5.886357 17.430542 0.617706 8.000000
-5.875915 17.581656 0.622404 5.000000
-6.448923 17.622503 0.630055 4.000000
-5.854237 17.795197 0.628981 6.500000
-5.687454 17.853395 0.629115 5.000000
-5.548321 18.001732 0.632471 2.500000
-5.483200 18.092724 0.634753 3.000000
-7.892332 18.133814 0.664014 1.000000
-7.044253 18.179991 0.654618 4.000000
-5.377733 18.154865 0.635737 2.333333
-5.224620 18.160738 0.634484 1.000000
-7.809682 18.256556 0.666698 1.000000
-7.136283 18.247124 0.657839 2.000000
-7.637276 18.329348 0.666698 2.000000
-8.108348 18.471325 0.677302 1.000000
-7.623912 18.460405 0.670591 1.000000
-7.874032 18.568077 0.677168 2.000000
-6.017801 18.587095 0.655960 3.000000
-7.859041 18.695911 0.680926 2.000000
-5.838198 18.836903 0.662135 1.000000
-7.204065 19.034863 0.683342 2.000000
-5.975059 19.066429 0.670859 2.000000
-5.255000 19.169538 0.667369 1.000000
-5.211037 19.612072 0.681329 1.000000
-4.539810 19.679749 0.678107 0.500000
-4.477832 19.837437 0.682805 0.000000
-5.056661 20.176243 0.698375 0.000000
-4.489272 20.183109 0.694214 0.000000
1.384043 -23.574100 0.792870 17.000000
3.703895 -23.545019 0.800253 10.000000
3.761372 -23.430639 0.796763 3.000000
2.207354 -22.840658 0.770455 5.000000
0.889522 -22.341700 0.750723 10.000000
0.814646 -22.216543 0.746428 8.000000
4.693221 -22.251606 0.763542 14.500000
7.437082 -22.252907 0.787770 7.000000
0.532900 -22.121113 0.742938 0.000000
0.673095 -22.157288 0.744281 1.000000
7.228732 -22.090223 0.780387 3.000000
7.320690 -22.135727 0.782803 0.000000
7.607390 -22.068443 0.783743 4.000000
7.836457 -22.056036 0.785891 25.000000
7.973518 -22.002605 0.785756 6.000000
2.419369 -21.809828 0.736764 15.500000
2.521682 -21.794239 0.736630 1.000000
3.855579 -21.821516 0.744012 10.000000
6.792035 -21.793238 0.766428 17.500000
7.834147 -21.831881 0.778777 21.000000
6.926299 -21.781708 0.767412 5.000000
8.043713 -21.768326 0.779179 7.000000
6.006329 -21.643353 0.754146 21.000000
9.885262 -21.591286 0.797300 17.000000
2.279446 -21.471176 0.724952 28.000000
8.837082 -21.397961 0.777300 20.000000
9.257624 -21.454725 0.784548 7.000000
6.329974 -21.369638 0.748307 11.000000
6.893322 -21.291294 0.751395 0.000000
8.873511 -21.296288 0.774616 16.000000
1.848314 -21.211628 0.714885 22.000000
1.920697 -21.269421 0.717033 25.000000
2.789598 -21.189117 0.717570 24.000000
2.902419 -21.270771 0.720791 4.000000
3.406525 -21.220200 0.721596 7.000000
4.858755 -21.214445 0.730724 18.000000
5.284794 -21.227718 0.734482 8.000000
8.301150 -21.225641 0.765220 10.000000
8.701671 -21.259123 0.771260 21.000000
8.999342 -21.221710 0.773944 2.000000
1.771301 -21.093832 0.710724 6.000000
3.556484 -21.094208 0.718241 4.000000
4.980006 -21.132847 0.728979 29.000000
9.738568 -21.095526 0.780119 1.000000
5.136373 -21.054287 0.727637 7.000000
8.841224 -21.032440 0.766025 0.000000
11.034880 -21.054054 0.798105 13.000000
2.657230 -20.946201 0.708912 25.500000
3.834142 -20.931751 0.714482 29.000000
4.654193 -20.924562 0.719717 36.000000
8.044411 -20.956409 0.753676 15.000000
11.155681 -20.963127 0.797300 5.000000
3.946215 -20.805124 0.710993 1.000000
4.328996 -20.849297 0.714952 7.500000
4.564472 -20.829737 0.715959 40.000000
11.028157 -20.881416 0.792870 42.000000
11.269369 -20.859743 0.796047 15.666667
2.536973 -20.781925 0.702939 22.000000
3.264050 -20.748999 0.705221 3.000000
3.588875 -20.691231 0.705087 3.000000
3.865448 -20.734890 0.708174 13.000000
4.481298 -20.761909 0.713140 16.000000
6.072957 -20.741024 0.725623 1.000000
6.226108 -20.779047 0.728308 2.000000
8.848989 -20.686106 0.755421 0.000000
9.005906 -20.692413 0.757703 7.000000
11.372088 -20.737164 0.794078 12.000000
6.265848 -20.675215 0.725355 42.000000
6.327257 -20.643961 0.724952 7.000000
7.532003 -20.682796 0.739046 3.500000
7.701217 -20.641754 0.739717 4.000000
7.795554 -20.597736 0.739448 14.500000
9.956598 -20.541285 0.766428 4.000000
11.664777 -20.500387 0.791931 11.000000
9.019449 -20.459499 0.750723 12.000000
10.427485 -20.202881 0.763341 1.000000
10.516729 -20.219677 0.765220 1.000000
12.281162 -20.230770 0.794615 18.000000
10.260374 -20.111115 0.758039 13.000000
10.557926 -20.144049 0.763609 8.000000
12.334445 -20.128002 0.792602 31.666666
11.960827 -19.985083 0.781998 8.000000
8.771876 -19.646555 0.722402 8.000000
8.886606 -19.654144 0.724214 4.500000
11.234116 -19.600004 0.758509 42.000000
11.443465 -19.677631 0.764280 6.000000
8.564457 -19.345020 0.710322 14.000000
12.943185 -19.348911 0.781595 17.000000
11.131728 -19.280716 0.747502 12.000000
10.584612 -19.158182 0.734885 4.000000
14.029913 -19.099409 0.795689 11.000000
8.941912 -19.054302 0.706697 23.000000
9.015964 -19.004602 0.706250 15.000000
9.102041 -18.929548 0.705221 28.000000
9.194613 -18.893620 0.705489 15.000000
9.326748 -18.788612 0.704281 19.000000
9.228817 -18.738918 0.701328 28.000000
11.028548 -18.692909 0.728710 2.000000
11.095388 -18.671913 0.729247 8.000000
10.834389 -18.496346 0.719717 8.000000
-18.839869 -13.930601 0.786696 7.000000
-19.434740 -13.811547 0.800521 9.000000
-19.259985 -13.870309 0.796897 10.000000
-19.197117 -13.492001 0.787814 55.000000
-19.194622 -13.192097 0.781998 53.000000
-19.028570 -13.195678 0.777479 32.666668
-19.285496 -13.165544 0.784011 13.000000
-19.375490 -12.960973 0.782669 7.000000
-19.035589 -12.907447 0.772200 2.000000
-19.831841 -12.819981 0.792870 10.000000
-19.697084 -12.645301 0.785891 47.000000
-19.585022 -12.486651 0.779850 9.000000
-19.059147 -12.533794 0.765891 15.000000
-19.151522 -12.465675 0.767233 12.000000
-18.736835 -12.448721 0.755287 3.000000
-19.404608 -12.286048 0.771126 28.000000
-19.427160 -12.130015 0.768978 22.000000
-19.375252 -11.887194 0.763206 11.000000
-19.960699 -11.861224 0.779582 25.000000
-19.488609 -11.747010 0.764012 2.000000
-19.924513 -10.442864 0.755287 30.000000
-19.801165 -10.299055 0.749381 31.000000
-19.815662 -10.227623 0.748710 45.000000
-19.900465 -10.035015 0.748307 22.000000
-19.734877 -10.081501 0.744057 36.666668
-19.885414 -9.949197 0.746562 22.000000
-19.969053 -9.834653 0.747368 21.000000
-19.773342 -9.815569 0.741193 48.000000
-19.777149 -9.663063 0.739046 27.000000
-19.415291 -9.410813 0.724415 22.000000
-19.361895 -9.309931 0.721328 19.000000
-19.405481 -9.255937 0.721865 7.000000
-19.437487 -9.047333 0.719852 2.000000
-19.892752 -6.371545 0.701328 106.000000
-4.048973 -5.714734 0.746669 30.000000
-3.681331 -5.666456 0.758352 17.000000
-3.450549 -5.635211 0.800207 5.000000
-13.332408 -4.642833 0.719371 6.000000
-13.442740 -4.492662 0.722220 26.000000
-13.390712 -4.522087 0.720185 29.000000
-10.022358 -2.426515 0.705166 0.000000
-8.931210 -1.896756 0.784036 0.000000
8.460750 -1.924407 0.745090 25.799999
-15.058279 -1.790260 0.772703 10.000000
8.484354 -1.851435 0.745706 50.666668
8.513131 -1.773830 0.746733 35.333332
-15.106252 -1.651737 0.774331 2.000000
-10.642898 -1.655159 0.736549 22.000000
-10.512469 -1.584232 0.726998 8.000000
-9.152322 -1.615448 0.798067 96.000000
-8.819920 -1.628386 0.770176 10.500000
8.544867 -1.668671 0.747623 25.600000
-15.016510 -1.570320 0.769344 4.000000
-10.328677 -1.490224 0.713626 31.000000
-9.001930 -1.501494 0.783693 27.666666
8.473997 -1.503349 0.739033 18.500000
8.549379 -1.516647 0.745621 18.000000
-9.069376 -1.395993 0.787971 39.500000
5.844246 -1.444149 0.787214 8.593138
8.640583 -1.407196 0.751752 24.000000
-10.331171 -1.292310 0.711988 15.000000
-8.965824 -1.293592 0.777876 18.000000
-8.693263 -1.338020 0.755289 14.000000
8.675783 -1.329127 0.753692 25.666666
-14.692980 -1.187330 0.751126 10.000000
-10.933361 -1.193537 0.752104 0.000000
-9.194861 -1.267713 0.797040 96.000000
8.719640 -1.223855 0.756110 25.200001
-14.728500 -1.143641 0.752754 9.000000
-10.646883 -1.094615 0.731910 5.000000
-10.227623 -1.149018 0.703801 10.000000
-8.960422 -1.092278 0.775138 10.000000
-8.499510 -1.131042 0.736295 10.000000
8.758723 -1.131348 0.758369 15.500000
-14.998384 -1.069835 0.766189 11.000000
-10.407271 -1.003939 0.714990 18.000000
-10.390506 -0.969387 0.713626 16.000000
-10.242468 -0.923124 0.703256 17.000000
-9.153389 -0.892640 0.789739 46.666668
-8.791679 -0.917824 0.759053 8.000000
-15.319075 -0.802841 0.781659 3.000000
-15.107567 -0.791740 0.770871 2.500000
-10.932253 -0.812405 0.749648 2.000000
-8.875232 -0.799899 0.765213 68.000000
-9.222324 -0.714478 0.794302 34.000000
-9.104834 -0.734156 0.784378 18.000000
-8.667273 -0.753715 0.747075 12.000000
-9.083521 -0.646334 0.781982 11.000000
-8.906573 -0.661871 0.766924 41.000000
-15.371412 -0.515292 0.783695 21.000000
-9.114677 -0.461586 0.783693 11.250000
-15.551307 -0.374634 0.792651 4.000000
-15.484509 -0.324357 0.789191 10.000000
-9.132290 -0.333271 0.784720 18.000000
-15.366410 -0.225300 0.783084 16.000000
5.282424 3.251040 0.751156 14.000000
5.723032 3.302862 0.800207 4.000000
6.095166 3.303894 0.716948 6.000000
4.705590 3.501055 0.710280 29.000000
5.570946 3.501426 0.796841 12.000000
6.247967 3.476145 0.739372 13.000000
6.162436 3.592443 0.737644 27.799999
6.295057 3.560895 0.747909 15.000000
6.128867 3.666598 0.738549 16.000000
5.041019 3.775282 0.762698 53.000000
6.514499 3.732399 0.776402 8.000000
4.844652 3.888065 0.752278 2.333333
4.941341 3.898356 0.762217 16.250000
5.224307 3.861552 0.786742 39.000000
5.571211 3.896459 0.783086 35.333332
5.765275 3.842072 0.777850 44.250000
4.559751 3.946588 0.756974 6.000000
4.616931 3.942662 0.799857 5.800000
5.144414 4.006259 0.789628 1.000000
5.531583 3.995392 0.705633 6.000000
4.607762 4.026693 0.741058 27.000000
4.841441 4.046637 0.764140 0.000000
5.445160 4.024815 0.760069 24.000000
4.658944 4.202300 0.759812 1.000000
5.000762 4.153187 0.787223 96.000000
4.847457 4.331124 0.787223 11.500000
4.945154 4.376642 0.799727 27.000000
5.228848 4.342659 0.762918 69.000000
5.882700 4.319760 0.754733 7.666667
5.684241 4.527929 0.751510 40.500000
6.020754 4.538611 0.779694 12.000000
5.564589 4.621451 0.748012 55.000000
5.705249 4.685403 0.763442 34.000000
5.804682 4.698862 0.772288 8.000000
4.821511 4.779618 0.762199 28.500000
5.095228 4.778001 0.784187 31.166666
5.657234 4.758773 0.764470 12.000000
5.869021 4.720501 0.778871 2.000000
6.794392 4.762788 0.712511 3.000000
4.988681 4.883533 0.742426 17.000000
5.216489 4.825451 0.734846 3.000000
5.560759 4.828784 0.761590 3.000000
6.779288 4.880389 0.717302 13.000000
6.966308 4.850731 0.728938 4.000000
-7.488545 4.982938 0.772400 44.500000
4.412024 4.918909 0.800207 2.000000
4.695110 4.977074 0.707553 27.000000
4.835642 4.954515 0.777439 26.250000
5.147436 4.924009 0.736629 17.666666
5.251844 4.950819 0.746367 43.000000
5.492392 4.954058 0.764882 2.000000
-7.635108 5.028695 0.785062 64.000000
-7.486830 5.090008 0.777419 40.000000
4.524287 5.054810 0.701519 1.000000
4.693778 5.036627 0.785100 5.800000
5.036544 5.024252 0.735669 43.000000
5.403848 5.062140 0.765705 28.000000
6.411092 5.057727 0.701217 4.000000
-7.619432 5.209371 0.792591 63.500000
-7.461583 5.211137 0.781526 39.666668
4.958110 5.201073 0.743075 55.000000
5.626348 5.155665 0.789157 13.000000
4.410149 5.283846 0.772597 9.000000
-7.563570 5.392023 0.797639 33.500000
-6.838450 5.352400 0.745706 9.000000
-8.604821 7.090744 0.762474 34.000000
-9.051021 7.187882 0.790378 14.500000
-9.060388 7.276934 0.794676 8.000000
-8.842622 7.507072 0.793221 15.666667
-7.923658 7.506142 0.746373 1.000000
-8.753278 7.590356 0.792288 20.750000
-10.055389 9.582311 0.707768 8.000000
-9.478618 10.114904 0.706343 10.000000
-9.543235 10.119955 0.708786 4.000000
-9.302338 10.309563 0.707564 102.000000
3.571258 10.284144 0.744463 1.000000
3.622020 10.222600 0.741643 2.000000
-9.131545 10.714361 0.717335 36.000000
-9.858350 10.856998 0.747258 29.000000
-8.905169 10.856778 0.715503 4.000000
-8.710670 10.896054 0.710821 25.000000
-8.969446 11.005467 0.723442 17.000000
-8.957158 11.276845 0.733823 15.000000
-9.314441 11.502382 0.754179 27.000000
-9.009374 11.490085 0.744001 6.000000
-8.576351 11.497727 0.730906 37.666668
-8.590692 11.618131 0.736266 44.000000
-8.548810 11.792374 0.742169 5.000000
-8.188021 11.754737 0.729956 30.000000
-7.732002 11.797750 0.718760 43.000000
-7.657850 11.765067 0.715299 55.000000
-7.415075 11.752201 0.708073 34.500000
-9.041323 11.834117 0.758861 2.000000
-8.663330 11.832482 0.747258 24.000000
-7.326409 11.816263 0.708446 20.000000
-7.225424 11.860389 0.707666 14.000000
-9.738390 12.181614 0.794687 8.000000
-8.693035 12.151261 0.761303 6.000000
-8.696476 12.237123 0.764967 37.000000
-8.828472 12.505888 0.780031 11.000000
5.593483 12.866510 0.714892 11.400000
5.726804 12.917072 0.719981 11.500000
5.859577 12.995548 0.726393 7.000000
-7.258381 13.040732 0.760489 28.000000
-6.926011 13.064446 0.753466 40.500000
5.959707 13.053226 0.731177 4.000000
6.061403 13.111994 0.736062 6.500000
-7.371602 13.146791 0.768021 40.000000
-7.048876 13.146092 0.760082 62.000000
-5.745525 13.201205 0.733620 2.000000
6.193809 13.180298 0.742067 1.000000
-7.779615 13.281273 0.784305 33.000000
-6.277792 13.290407 0.748968 23.200001
-6.991422 13.339322 0.767410 35.000000
-6.858110 13.390399 0.766596 34.000000
-6.432887 13.378502 0.756418 34.000000
-6.040530 13.415729 0.749701 14.000000
-5.904366 13.336528 0.743187 0.000000
-8.073303 13.441460 0.798961 19.000000
-7.966251 13.454137 0.796722 17.000000
-7.820193 13.447232 0.792651 91.000000
-7.295209 13.503471 0.782066 15.000000
-6.978111 13.467865 0.772906 42.000000
-6.825610 13.483135 0.770056 33.000000
-6.751269 13.493736 0.768835 39.000000
-6.244810 13.471702 0.756622 22.500000
-6.109068 13.454885 0.752958 4.000000
-7.744478 13.610611 0.797944 38.000000
-7.682031 13.600094 0.795908 39.000000
-5.762780 13.589446 0.752143 6.000000
-5.691733 13.599851 0.751227 8.000000
-7.417806 13.627853 0.790616 27.000000
-6.738100 13.659922 0.776122 25.600000
-6.247764 13.646295 0.764764 30.000000
-6.781550 13.990910 0.792244 11.000000
-6.377827 14.284566 0.797129 20.000000
-6.280698 14.246786 0.793364 6.500000
-6.164160 14.244653 0.790887 14.666667
-5.820415 14.348321 0.788987 13.000000
-5.756798 14.584614 0.798961 4.000000
-7.413239 20.062109 0.718107 4.000000
-5.635537 20.184219 0.703610 1.000000
-7.846350 20.830706 0.747368 3.000000
-7.810219 20.933907 0.750187 0.000000
-5.930482 20.985846 0.732200 0.000000
-7.575468 21.321463 0.759717 1.000000
0.473608 -26.600794 0.893271 35.000000
3.151298 -26.506289 0.896224 2.000000
3.918073 -26.533161 0.900519 4.000000
-0.443273 -26.453379 0.888305 6.000000
0.553324 -26.415318 0.887097 5.000000
1.967972 -26.419880 0.889513 2.000000
3.822700 -26.462250 0.897700 8.000000
-0.524707 -26.367920 0.885486 8.000000
1.464103 -26.352488 0.886157 8.000000
1.795683 -26.339987 0.886425 7.000000
-0.605235 -26.266224 0.882130 3.000000
0.713404 -26.195522 0.879848 21.000000
1.043634 -26.212452 0.880788 22.000000
3.287471 -26.243994 0.888036 4.000000
0.351241 -25.796377 0.866202 23.333334
-0.825253 -25.412277 0.853674 13.000000
-0.941858 -25.322182 0.850789 2.500000
-0.655100 -25.017323 0.840252 3.000000
-1.246882 -24.278305 0.816225 2.000000
-1.166367 -24.194252 0.813272 6.000000
3.342001 -24.208637 0.820521 9.000000
7.428464 -24.236874 0.851124 2.000000
-1.088012 -24.145882 0.811528 7.000000
0.886134 -24.166134 0.811930 16.000000
7.535445 -24.178669 0.850319 1.500000
9.689240 -24.102739 0.872198 8.000000
9.296046 -23.991472 0.863876 1.000000
1.512626 -23.842575 0.802132 5.500000
10.729267 -23.829201 0.877432 1.000000
3.351501 -23.726963 0.804548 5.000000
10.611981 -23.767878 0.873942 5.000000
10.793134 -22.999067 0.853003 2.000000
10.043077 -22.976822 0.841930 13.000000
12.596007 -22.883625 0.877030 18.500000
9.366605 -22.680138 0.823876 5.000000
9.501179 -22.602411 0.823205 1.000000
10.266932 -22.612343 0.833809 21.000000
11.120285 -22.401670 0.839715 10.000000
11.314821 -22.438444 0.843742 8.000000
11.501139 -22.455864 0.847097 4.000000
11.589355 -22.367662 0.845822 38.500000
11.841172 -22.251266 0.846292 13.000000
12.487051 -22.106789 0.852466 8.000000
10.754670 -22.011330 0.822534 10.000000
11.827897 -22.058933 0.840386 11.000000
11.892603 -21.930897 0.837634 13.500000
13.560688 -21.948086 0.866224 33.000000
12.187748 -21.816357 0.839044 4.500000
13.652350 -21.865305 0.865486 21.000000
13.712461 -21.808771 0.864949 8.000000
13.016072 -21.748272 0.850990 2.000000
13.757382 -21.728428 0.863473 47.000000
13.047187 -21.645643 0.848574 2.000000
14.788413 -21.662754 0.880654 1.000000
10.279980 -21.552423 0.801729 1.000000
12.640794 -21.580219 0.839715 11.000000
14.612590 -21.550283 0.874211 7.000000
10.881738 -21.412018 0.806427 13.000000
12.386033 -21.298428 0.827232 4.000000
13.597767 -21.327785 0.849245 5.000000
12.249100 -21.216059 0.822534 8.000000
13.658224 -21.274870 0.848842 6.000000
13.722825 -21.228497 0.848708 25.000000
13.825450 -21.192005 0.849558 29.000000
14.292463 -21.221394 0.859043 4.000000
14.006161 -21.152962 0.851795 20.000000
15.134218 -21.015022 0.869513 8.000000
14.412583 -20.970434 0.854346 4.000000
14.986711 -20.948666 0.864815 12.000000
15.912766 -20.896004 0.881862 4.500000
16.113405 -20.953930 0.887499 4.000000
14.518921 -20.843384 0.852869 30.000000
15.729869 -20.859085 0.877164 2.000000
14.563675 -20.768208 0.851661 16.000000
16.110199 -20.746698 0.881929 9.000000
16.983278 -20.771679 0.900855 8.000000
14.865549 -20.641954 0.854077 7.000000
16.186840 -20.643837 0.880788 3.000000
17.134415 -20.623846 0.900251 8.000000
15.896011 -20.012690 0.858104 5.000000
15.896398 -19.884584 0.854748 7.000000
15.017037 -19.784212 0.833943 5.000000
13.673150 -19.761274 0.806830 6.000000
13.730594 -19.711660 0.806561 6.000000
13.932567 -19.736040 0.811125 27.000000
14.043132 -19.760603 0.813944 4.000000
14.368888 -19.755310 0.820185 7.500000
15.955612 -19.703533 0.851258 0.000000
13.783273 -19.655334 0.806024 20.000000
14.079553 -19.680626 0.812467 5.000000
14.712824 -19.681337 0.825040 13.000000
14.839272 -19.678082 0.827500 7.000000
14.940772 -19.555866 0.826292 5.000000
-15.833134 -19.385721 0.840386 7.333333
15.078033 -19.480572 0.827098 5.000000
2.026244 -17.512297 0.898297 15.000000
2.304190 -17.502073 0.899519 9.000000
1.962283 -17.439180 0.894226 8.000000
2.072286 -17.430473 0.894430 18.000000
2.116871 -17.340605 0.890155 27.000000
2.152966 -17.187206 0.882623 32.000000
2.206952 -17.180357 0.882623 28.000000
4.256971 -17.099203 0.897890 28.000000
5.532904 -16.729959 0.897890 18.000000
5.398356 -16.614294 0.890155 25.666666
5.307967 -16.572117 0.886695 20.000000
-19.112322 -14.507040 0.805622 5.000000
-19.185205 -14.420448 0.805823 1.000000
-19.637089 -14.235781 0.814346 10.000000
-19.961390 -14.091653 0.820386 7.000000
-19.285480 -14.073531 0.801595 12.000000
-19.430265 -13.900454 0.802132 20.000000
-19.875162 -13.385787 0.804548 39.000000
-14.540118 -7.914366 0.843540 2.000000
-15.552008 -7.842260 0.887509 11.000000
-15.125968 -7.807092 0.867357 7.000000
-14.582482 -7.878145 0.844558 6.000000
-15.285126 -7.768004 0.873667 19.000000
-14.870999 -7.734759 0.854125 15.000000
-14.417966 -7.384399 0.825424 5.000000
-14.744961 -7.348388 0.839469 35.500000
-14.761539 -7.269979 0.838452 40.000000
-16.130951 -7.141520 0.898908 11.000000
-15.662810 -7.111560 0.876517 1.000000
-14.512153 -7.034205 0.821760 54.000000
-14.411016 -7.041185 0.817282 33.000000
-14.543326 -6.964857 0.821658 15.000000
-16.127121 -6.838917 0.892598 2.000000
-15.152996 -6.794147 0.846187 18.500000
-14.939372 -6.839776 0.837230 24.000000
-14.552038 -6.773362 0.817892 23.000000
-16.183477 -6.683573 0.892191 48.000000
-15.911649 -6.629898 0.878349 26.000000
-14.471688 -6.680732 0.812193 0.000000
-7.035176 -6.487365 0.821766 9.500000
-15.986292 -6.426445 0.877942 35.000000
-15.841098 -6.455040 0.871631 24.000000
-14.694452 -6.432018 0.817349 26.666666
-7.105891 -6.450010 0.824076 2.000000
-16.250771 -6.355522 0.889137 24.000000
-14.841180 -6.238655 0.820335 8.000000
-14.643755 -6.264223 0.811582 17.000000
-14.554311 -6.280129 0.807714 15.000000
-16.134953 -6.077593 0.878552 1.000000
-15.555464 -6.027323 0.850054 4.000000
-15.234881 -6.013472 0.834584 144.000000
-16.578112 -5.948888 0.897483 4.000000
-15.000666 -5.975556 0.822778 47.000000
-16.056463 -5.875828 0.871224 7.000000
-15.712317 -5.862093 0.854533 26.000000
-15.466073 -5.881188 0.843133 14.000000
-15.826960 -5.735529 0.857789 8.000000
-15.971849 -5.674757 0.863693 20.000000
-3.632241 -5.591024 0.807421 133.000000
-3.567377 -5.664612 0.810707 13.500000
-3.440426 -5.678583 0.804055 0.000000
-16.140196 -5.507151 0.868985 14.000000
-16.014597 -5.577060 0.864100 9.500000
-3.970387 -5.523344 0.823771 0.000000
-3.868225 -5.563395 0.820597 255.000000
-3.714836 -5.563636 0.810169 255.000000
-16.191673 -5.186109 0.866339 5.000000
-16.788452 -4.915649 0.891376 4.000000
-16.801798 -4.833759 0.890867 4.500000
-16.770327 -4.710718 0.887611 13.500000
-11.938126 -4.623306 0.875453 12.000000
-11.638198 -4.633755 0.856624 1.000000
-12.057886 -4.550189 0.881321 19.500000
-11.541330 -4.553236 0.848437 0.000000
-12.329572 -4.465677 0.896739 41.000000
-12.348521 -4.341336 0.895102 30.000000
-12.218244 -4.338709 0.886642 19.000000
-12.460653 -4.249237 0.900287 27.000000
-12.279184 -4.273659 0.889098 10.000000
-16.848829 -2.976966 0.871835 0.000000
-16.812000 -2.861713 0.868985 6.333333
-17.371555 -2.732741 0.896058 15.000000
-17.218699 -2.542640 0.886898 41.000000
-17.115824 -2.582415 0.882013 31.000000
-17.212395 -2.403763 0.885575 8.000000
-17.036821 -2.461113 0.877127 25.000000
-10.151975 -2.390471 0.895601 7.000000
-9.804002 -2.438961 0.867538 8.000000
-9.379183 -2.395956 0.831263 15.000000
-16.944450 -2.284957 0.871224 6.000000
-16.745590 -2.204602 0.860639 8.000000
-10.023407 -2.219427 0.881570 13.750000
-9.937584 -2.274183 0.875409 10.000000
-16.765661 -2.100177 0.860978 31.000000
-9.406307 -2.183726 0.829209 11.000000
-9.515061 -1.927214 0.833658 46.000000
-9.299033 -1.929174 0.815520 56.000000
8.463136 -1.924953 0.897532 46.000000
-9.460428 -1.854463 0.827840 26.000000
8.488550 -1.852347 0.898465 44.666668
-9.912083 -1.781682 0.864801 43.000000
-9.254934 -1.783769 0.809360 66.500000
8.513420 -1.773886 0.899288 49.666668
-9.551257 -1.624048 0.831947 37.000000
8.548786 -1.669426 0.900742 45.599998
8.483138 -1.518729 0.891196 24.000000
-9.877482 -1.393465 0.856587 4.000000
-10.251677 -1.347807 0.887901 23.500000
-16.277727 -1.212497 0.831734 1.000000
-8.498258 -1.253400 0.888316 102.000000
-8.376138 -1.208512 0.875150 7.000000
-16.440460 -1.120801 0.839673 1.000000
-10.334820 -0.898727 0.890810 18.000000
-17.195398 -0.792869 0.877127 0.000000
-10.202563 -0.854942 0.879174 57.000000
-9.309166 -0.868503 0.802858 57.000000
-8.512834 -0.821200 0.884407 11.500000
-8.643453 -0.724293 0.896956 26.000000
-16.653183 -0.663038 0.849240 3.000000
-16.471546 -0.603987 0.839876 4.000000
-9.950408 -0.645207 0.856245 3.000000
-9.864875 -0.608547 0.848716 10.000000
-9.626263 -0.654567 0.828525 13.000000
-9.437057 -0.552399 0.811756 13.000000
-16.612282 -0.452413 0.846797 15.000000
-10.082945 -0.399685 0.866512 3.000000
-10.478326 -0.291792 0.900135 13.500000
-10.248566 -0.341769 0.880543 14.000000
-16.896261 -0.247731 0.861046 4.000000
-16.903212 -0.168128 0.861352 14.000000
-16.542311 -0.086619 0.842930 17.000000
-10.003576 -0.176342 0.859154 15.000000
-9.702779 -0.171055 0.833316 18.000000
-10.046847 -0.050764 0.862747 14.000000
-9.704163 -0.049119 0.833316 12.000000
-9.923429 0.027712 0.852138 16.500000
5.276088 3.211689 0.857643 5.000000
5.365509 3.300882 0.874697 0.000000
5.943872 3.380707 0.828099 34.000000
6.041419 3.466236 0.818879 10.600000
6.289074 3.421798 0.867052 9.000000
5.572325 3.592706 0.802933 8.666667
5.741348 3.558400 0.818001 20.000000
5.811030 3.551245 0.824733 14.000000
6.324456 3.570923 0.879555 1.000000
5.995295 3.638034 0.849259 18.000000
6.191038 3.651168 0.870418 0.000000
5.626632 3.736910 0.818001 42.500000
5.887635 3.883655 0.812127 50.666668
5.984856 3.827475 0.860319 14.000000
4.974473 3.922966 0.879648 1.000000
5.039705 4.000153 0.893401 86.000000
5.278158 4.013587 0.803013 21.000000
6.738586 3.917228 0.806026 20.000000
6.025164 4.083945 0.881479 51.000000
6.243586 4.034521 0.900233 12.000000
6.529699 4.190383 0.802323 24.000000
-12.054058 4.228360 0.873543 0.000000
4.826142 4.315036 0.898903 9.000000
6.596664 4.233298 0.810552 17.500000
6.861617 4.222985 0.833182 16.333334
7.041014 4.257460 0.850874 9.500000
6.939167 4.391847 0.849229 16.000000
5.119901 4.502695 0.825695 77.000000
5.627697 4.584932 0.879074 41.000000
-12.086522 4.671076 0.886096 16.000000
-11.983624 4.645634 0.878910 18.333334
4.683487 4.681825 0.801971 11.333333
4.790764 4.631238 0.806940 29.000000
5.136755 4.662627 0.840122 40.000000
5.695220 4.632405 0.889053 35.500000
-11.990098 4.720605 0.881184 9.000000
-11.852813 4.731177 0.872725 8.500000
-11.361839 4.792367 0.843252 30.333334
4.673800 4.721353 0.804536 10.000000
4.963795 4.798761 0.836114 40.000000
5.608905 4.718131 0.887610 38.250000
6.610890 4.743458 0.841411 10.000000
-11.674203 4.852333 0.864538 1.000000
-11.404058 4.866595 0.847891 33.000000
-11.212799 4.896375 0.836702 13.000000
-11.113451 4.908481 0.830808 23.000000
-8.599489 4.847542 0.847689 2.000000
-8.540195 4.867266 0.844096 13.000000
4.574312 4.828752 0.805497 16.000000
5.178805 4.851328 0.859357 29.000000
6.958492 4.856083 0.877481 10.000000
7.051846 4.877469 0.886670 6.000000
-7.985914 4.953425 0.806965 30.666666
4.480360 4.942881 0.807902 6.000000
5.119115 5.011258 0.867533 17.000000
6.278728 4.953305 0.827010 2.000000
6.500625 4.916467 0.842851 1.500000
-8.072177 5.101046 0.819969 27.000000
-7.888675 5.089692 0.806166 58.666668
4.868297 5.058233 0.841908 20.183332
-8.407278 5.166128 0.847347 26.000000
-8.260322 5.183700 0.837423 3.000000
-7.844311 5.131217 0.804911 65.000000
4.896630 5.201632 0.865128 57.000000
6.579223 5.156915 0.864452 2.000000
6.766328 5.201375 0.882556 15.000000
4.460722 5.276684 0.836755 4.000000
-8.375530 5.329640 0.852480 11.000000
-16.470911 5.514222 0.885066 2.500000
-15.788600 5.424126 0.850665 0.000000
-7.945766 5.598895 0.834685 34.000000
-7.631349 5.558759 0.810729 12.000000
-15.500569 5.709246 0.841708 24.000000
-15.495913 5.652303 0.840487 25.000000
-7.636638 5.703278 0.818463 35.400002
5.470215 5.702295 0.817136 5.000000
-15.512511 5.769051 0.843337 11.000000
-7.817524 5.769895 0.834343 86.000000
-7.626870 5.778626 0.821680 10.000000
-8.033934 5.852097 0.853507 30.000000
5.400267 5.920269 0.828656 8.000000
-15.694258 6.328134 0.862268 12.333333
-9.741010 8.645428 0.890645 34.000000
-9.605719 8.762003 0.889098 47.000000
-9.498765 8.719276 0.881730 6.000000
-9.465464 8.743657 0.881184 24.000000
-9.482936 9.039948 0.895921 30.000000
-8.757089 9.077780 0.862536 37.333332
-9.454660 9.127070 0.898650 31.000000
-8.937911 9.187845 0.876545 47.000000
-8.726267 9.169945 0.865629 26.500000
-7.841733 9.204232 0.826878 29.000000
-9.086770 9.282347 0.888280 52.000000
-7.864345 9.289741 0.832336 34.000000
-8.161599 9.339354 0.848164 2.000000
-8.723204 9.489739 0.881457 38.000000
-7.966136 9.470149 0.846254 35.000000
-8.986847 9.533275 0.895921 42.000000
-8.757944 9.587811 0.888007 42.000000
-8.679502 9.562087 0.883095 51.000000
-8.349394 9.615040 0.870814 27.000000
-8.256573 9.568712 0.864265 36.000000
-8.708220 9.654504 0.889098 45.000000
-8.214984 9.891483 0.879274 34.000000
-6.712706 9.903448 0.818145 13.000000
-8.315118 9.948301 0.886642 67.000000
-7.824610 9.950432 0.865629 48.500000
-7.341012 9.997238 0.848164 33.000000
-7.233564 9.981767 0.842979 9.000000
-7.101063 9.929638 0.834792 6.000000
-6.867445 9.995936 0.829334 1.000000
-7.883068 10.122602 0.877364 20.000000
-8.164233 10.282255 0.897831 19.000000
-7.908427 10.355023 0.891009 48.000000
-7.047455 10.327312 0.854986 14.000000
-7.782753 10.529312 0.895375 22.000000
-9.512725 13.475159 0.840487 0.000000
-8.492612 13.601583 0.817078 21.000000
-8.445632 13.621404 0.816671 7.000000
-7.868253 13.677847 0.804050 29.000000
-7.717980 14.073842 0.817892 3.000000
-6.563244 14.455181 0.808936 19.000000
-6.195089 14.482149 0.802625 8.000000
-8.784975 14.626371 0.869392 6.000000
-5.906434 14.692709 0.806900 6.000000
-5.873547 14.744595 0.808732 2.000000
-6.139370 14.999138 0.825831 8.000000
-5.372682 14.972534 0.810564 6.333333
-5.286523 15.028640 0.811786 5.000000
-8.401595 15.206918 0.885270 17.000000
-8.263864 15.182215 0.880791 4.000000
-6.268801 15.179163 0.836823 7.000000
-7.462842 15.396471 0.871835 25.000000
-7.614649 15.584717 0.883845 32.000000
-6.155776 15.886986 0.868171 7.000000
-6.660625 15.985401 0.882420 3.000000
-6.384545 16.174986 0.886084 2.000000
-6.345342 16.224726 0.887712 6.000000
-6.081323 16.457607 0.894023 3.000000
-6.063914 16.570417 0.899112 2.000000
-5.832673 16.581247 0.895651 1.000000
-5.717958 16.587353 0.894023 3.000000
2.110234 -29.584122 0.995819 4.000000
2.434683 -29.551132 0.995551 4.500000
0.061583 -29.403368 0.987229 14.000000
-0.030712 -29.327459 0.984679 7.000000
2.724546 -29.148447 0.982934 3.000000
0.334227 -29.013727 0.974209 6.000000
-0.121191 -28.931444 0.971390 8.000000
0.242740 -28.974657 0.972867 8.000000
-0.392817 -28.853067 0.968840 17.000000
-0.241275 -28.798729 0.966961 10.666667
2.957362 -28.715851 0.969243 11.000000
-0.569248 -28.606215 0.960652 6.000000
0.912704 -28.565285 0.959578 4.000000
1.940610 -28.465853 0.957968 14.000000
4.365386 -28.329483 0.962397 7.000000
4.641230 -28.342318 0.964276 8.000000
0.765753 -28.117725 0.944411 2.000000
0.058787 -28.068123 0.942397 6.000000
0.176301 -28.068932 0.942442 11.666667
1.375798 -27.930378 0.938908 7.000000
1.507138 -27.919561 0.938773 5.000000
1.676794 -27.813766 0.935552 2.500000
-0.723331 -27.622963 0.927767 0.000000
2.149380 -27.681034 0.932196 11.000000
3.111648 -27.653807 0.934344 4.000000
1.224418 -27.493208 0.924009 25.500000
3.355664 -27.488331 0.929780 1.000000
0.660757 -27.428583 0.921190 16.000000
1.778286 -27.350807 0.920250 28.000000
2.362275 -27.109941 0.913673 1.000000
2.445276 -27.078497 0.912868 3.000000
2.784532 -27.037678 0.912599 5.000000
2.960879 -27.079258 0.914613 1.000000
2.683700 -26.887173 0.907230 1.000000
-0.787606 -26.853313 0.901996 2.000000
4.027058 -26.690701 0.906291 2.000000
15.659528 -24.905455 0.987766 15.000000
13.648608 -24.521706 0.942263 4.000000
16.753889 -24.541874 0.997698 13.000000
16.912306 -24.442699 0.997967 4.000000
13.647370 -24.339228 0.936894 14.000000
14.675159 -24.174404 0.949511 2.000000
17.093067 -24.052279 0.990719 5.000000
14.085827 -23.874861 0.930720 1.000000
17.279100 -23.835091 0.988437 5.000000
16.649277 -22.815125 0.948303 0.000000
17.339214 -22.547977 0.955015 3.000000
17.581278 -22.567886 0.960518 1.000000
17.686626 -22.556585 0.962397 5.000000
16.860983 -20.955847 0.903069 4.000000
16.929253 -20.905878 0.903204 7.000000
17.092442 -20.705322 0.901459 6.000000
17.224766 -20.600582 0.901593 1.000000
2.667599 -19.323431 0.993969 10.000000
3.596859 -19.294132 1.000076 9.000000
5.008580 -18.929848 0.997769 25.666666
4.783230 -18.875418 0.992205 25.000000
4.262118 -18.609392 0.972799 4.000000
2.762565 -18.506649 0.953461 6.000000
3.579529 -18.553337 0.962825 1.000000
4.302480 -18.518087 0.968728 10.000000
1.970200 -18.284275 0.937075 11.500000
4.148222 -18.377192 0.959975 3.000000
1.302048 -18.253880 0.932495 0.000000
1.357905 -18.229780 0.931477 4.000000
1.475638 -18.260706 0.933513 4.000000
6.402685 -18.201687 0.983181 14.000000
1.555405 -18.179890 0.929747 15.500000
1.669248 -18.165779 0.929543 13.500000
1.814601 -18.179232 0.930934 11.666667
3.910312 -17.844801 0.930866 10.500000
2.533797 -17.736664 0.912953 12.500000
3.470127 -17.687365 0.918449 15.666667
3.622964 -17.728088 0.922012 23.000000
3.719945 -17.775364 0.925370 2.000000
5.577961 -17.701870 0.945726 6.000000
2.377315 -17.629353 0.906440 19.000000
2.440883 -17.681156 0.909493 27.000000
2.868928 -17.588385 0.908068 23.799999
3.023683 -17.596924 0.909798 21.500000
3.284980 -17.621164 0.913361 18.000000
3.352978 -17.677477 0.916821 22.000000
2.735561 -17.569220 0.906032 17.000000
3.163113 -17.579800 0.910171 20.000000
4.181980 -17.499907 0.916821 0.000000
5.430643 -17.521923 0.934734 0.000000
4.228467 -17.451740 0.914989 23.000000
6.497459 -17.415295 0.947151 4.000000
7.593214 -17.446543 0.969542 7.000000
7.468727 -17.308922 0.960586 23.000000
6.488769 -17.226568 0.937991 5.000000
5.092195 -17.125078 0.910375 14.333333
6.298182 -17.126980 0.929849 18.000000
4.956818 -17.028187 0.903692 17.500000
7.662597 -17.018270 0.951019 38.000000
6.124792 -16.901119 0.916007 21.000000
6.427845 -16.903648 0.921503 27.000000
6.858060 -16.906290 0.929645 16.000000
7.756073 -16.940731 0.949390 1.000000
5.768336 -16.819244 0.906032 8.500000
5.851496 -16.803209 0.906643 8.000000
5.966321 -16.792461 0.908068 9.000000
6.452286 -16.808781 0.917432 29.000000
6.976818 -16.818686 0.927813 10.500000
6.514038 -16.733490 0.914989 32.000000
6.614214 -16.705610 0.915532 26.666666
6.740841 -16.768370 0.920892 3.000000
7.064490 -16.732193 0.925472 10.000000
5.978570 -16.660831 0.901961 12.000000
7.376200 -16.520630 0.921910 67.000000
7.203825 -16.481026 0.916516 19.500000
7.240167 -16.353773 0.911325 30.000000
7.350242 -16.256359 0.909086 6.000000
-16.058331 -7.597599 0.905218 19.000000
-16.129133 -7.569179 0.907865 11.000000
-18.016840 -7.308558 0.990712 2.000000
-18.006737 -7.173033 0.987659 7.000000
-18.079229 -7.037951 0.988575 20.000000
-18.253109 -6.908245 0.994478 37.000000
-18.095453 -6.946190 0.987659 38.000000
-18.298010 -6.794166 0.994580 19.000000
-18.261902 -6.617962 0.989762 21.333334
-18.448748 -6.554792 0.997633 4.000000
-7.038984 -6.490844 0.990149 9.500000
-18.413395 -6.444760 0.994071 31.000000
-16.596252 -6.132557 0.901554 9.000000
-3.564246 -5.621956 0.924300 99.500000
-3.992831 -5.557799 0.950221 182.142853
-3.872199 -5.567025 0.941592 255.000000
-3.727793 -5.561970 0.929710 255.000000
-13.432005 -4.627633 0.971513 6.000000
-12.397238 -4.501167 0.901924 21.250000
-18.457304 -4.472111 0.967710 17.000000
-18.313951 -4.315734 0.958754 21.000000
-13.054873 -4.360502 0.941222 32.000000
-18.416916 -4.278975 0.963436 14.000000
-13.456552 -4.260918 0.965237 29.000000
-13.367086 -4.278836 0.959779 17.000000
-13.190905 -4.283365 0.948408 23.333334
-12.935892 -4.275630 0.931670 43.000000
-12.636531 -4.264941 0.912022 21.000000
-18.152475 -4.127541 0.948576 6.000000
-18.103456 -3.610857 0.940637 16.000000
-19.050650 -3.551465 0.987455 1.000000
-17.749229 -3.424387 0.921096 1.000000
-18.035379 -3.274325 0.934022 1.000000
-9.447498 -1.831238 0.995155 63.666668
-9.099605 -1.813327 0.959497 52.000000
-10.576001 -1.729994 0.920241 23.000000
-10.921227 -1.610761 0.947961 13.000000
-9.124333 -1.640085 0.958674 8.000000
-8.998411 -1.675901 0.946536 19.000000
-8.985465 -1.556850 0.943039 10.000000
5.847326 -1.490516 0.945814 5.666667
8.590904 -1.510102 0.902031 38.333332
-14.514567 -1.400149 0.997166 2.000000
-9.197497 -1.445225 0.962788 11.000000
5.849449 -1.412903 0.943212 7.800000
8.635303 -1.420273 0.904980 42.500000
-8.961075 -1.379159 0.937587 41.500000
8.666941 -1.341699 0.906934 42.000000
-10.895172 -1.258690 0.941801 16.000000
-10.712934 -1.203540 0.925716 11.000000
-9.145089 -1.202354 0.953839 25.000000
-8.972174 -1.256133 0.936867 19.333334
8.707669 -1.222190 0.909300 40.799999
-10.633464 -1.160799 0.918530 7.000000
-9.384595 -1.094019 0.977052 12.333333
-9.214667 -1.152649 0.960319 8.000000
-9.315411 -1.046536 0.969371 28.000000
8.762330 -1.075834 0.912934 40.666668
-8.952815 -0.920446 0.930695 114.000000
8.795703 -0.967941 0.915060 40.500000
8.828146 -0.887360 0.917529 44.500000
-8.792085 -0.848129 0.913414 56.000000
-10.947928 -0.778996 0.942485 6.000000
-8.955027 -0.722076 0.929049 37.000000
