# This PCD file was generated using the MATLAB® pcwrite function
# from Computer Vision Toolbox®.
# .PCD v.7 - Point Cloud Data file format
VERSION .7
FIELDS x y z intensity
SIZE 4 4 4 4
TYPE F F F F
COUNT 1 1 1 1
WIDTH 1250
HEIGHT 1
VIEWPOINT 0 0 0 1 0 0 0
POINTS 1250
DATA ascii
12.076198 -14.535521 0.306763 1.000000
11.776641 -14.357543 0.301439 20.000000
11.783497 -14.274210 0.300465 37.000000
-16.750620 -12.576754 0.340025 32.000000
-16.797615 -12.461400 0.339517 15.000000
-16.822344 -12.357239 0.338835 16.000000
-17.302008 -11.811484 0.340069 15.000000
-16.550179 -11.840033 0.330330 21.000000
-16.470711 -11.861580 0.329486 45.000000
-16.214937 -11.832809 0.325851 51.000000
-16.541656 -11.755541 0.329421 35.000000
-16.161367 -11.716079 0.324033 48.000000
-2.091046 -11.691791 0.398784 5.000000
-16.572950 -11.544258 0.327863 49.000000
-16.470896 -11.588869 0.326922 32.500000
-2.437413 -11.526470 0.395563 11.000000
-17.531200 -11.450230 0.339906 13.500000
-16.717670 -11.489736 0.329291 37.000000
-16.563086 -11.460279 0.326954 44.000000
-3.253244 -11.420944 0.398717 8.000000
-3.073039 -11.468737 0.398650 11.000000
-16.788723 -11.307093 0.328577 6.000000
-3.218851 -11.299864 0.394489 2.000000
-2.680664 -11.349125 0.391536 22.000000
-2.560380 -11.315391 0.389522 28.000000
-2.482314 -11.384933 0.391234 22.750000
2.656503 -11.352753 0.391469 5.000000
2.711361 -11.345956 0.391670 17.000000
3.398771 -11.343078 0.397576 9.000000
-16.640572 -11.283460 0.326370 47.000000
-16.499336 -11.263529 0.324292 7.000000
-3.669723 -11.254133 0.397442 42.000000
-3.586035 -11.236284 0.396010 32.000000
-3.450841 -11.259054 0.395384 43.666668
1.992130 -11.274909 0.384422 29.000000
-16.693701 -11.129133 0.325688 41.500000
-3.494652 -11.192509 0.393683 38.000000
2.114513 -11.148141 0.380977 26.000000
2.535898 -11.152872 0.384019 29.500000
-17.174656 -11.025931 0.331304 0.000000
-16.740986 -11.047035 0.325591 2.000000
-3.693624 -11.090515 0.392475 33.000000
2.013802 -11.092314 0.378516 33.500000
2.158879 -11.003903 0.376503 10.000000
3.284774 -11.089213 0.388314 29.000000
-3.734717 -10.983768 0.389522 28.000000
-3.569922 -10.832487 0.382945 33.000000
-4.236470 -10.765928 0.388449 0.000000
-3.684433 -10.798285 0.383080 34.666668
2.919288 -10.715189 0.372879 53.000000
-4.301775 -10.684997 0.386737 33.500000
-4.368350 -10.561819 0.383751 32.000000
-3.908761 -10.510358 0.376503 35.750000
3.959812 -10.512623 0.377174 75.000000
-4.412127 -10.480742 0.381805 35.000000
-3.990536 -10.477459 0.376436 24.500000
2.777988 -10.455134 0.363214 69.000000
2.810821 -10.446356 0.363214 35.000000
3.982171 -10.422887 0.374623 44.000000
-4.471509 -10.377906 0.379411 22.333334
-4.013172 -10.389579 0.373952 14.000000
4.008162 -10.344366 0.372476 28.000000
2.449971 -10.251287 0.353886 35.000000
2.556311 -10.199871 0.353058 23.833334
2.694406 -10.270466 0.356503 34.000000
2.833881 -10.274335 0.357845 49.000000
3.243658 -10.265634 0.361469 20.750000
4.048548 -10.241201 0.369747 18.000000
-4.724729 -10.178555 0.376771 1.000000
-4.689384 -10.186084 0.376503 0.000000
2.332988 -10.186363 0.350866 0.000000
2.624038 -10.131817 0.351402 36.000000
-5.012379 -10.044493 0.376905 8.000000
-4.971929 -10.042276 0.376234 18.000000
-2.991258 -10.021196 0.351134 17.000000
-2.807427 -10.034798 0.349859 17.000000
-2.726965 -10.050761 0.349658 0.000000
2.233353 -10.040824 0.345362 62.000000
2.879583 -10.039183 0.350664 44.750000
2.966856 -10.015940 0.350731 0.000000
4.085959 -10.027365 0.363550 30.500000
4.216981 -10.075919 0.366738 27.000000
4.362442 -10.067135 0.368382 19.000000
-3.002489 -9.945333 0.348807 5.333333
-2.875659 -9.946789 0.347644 23.750000
2.240240 -9.924567 0.341604 2.000000
2.824454 -9.994724 0.348718 31.000000
-5.617706 -9.824966 0.379992 0.000000
-5.576249 -9.860023 0.380328 1.500000
-5.443393 -9.876981 0.378650 0.000000
-5.003090 -9.870169 0.371536 9.000000
-4.968467 -9.878695 0.371268 1.000000
4.278419 -9.872746 0.361268 36.000000
-5.078568 -9.714408 0.368046 8.000000
3.463834 -9.749107 0.347376 3.000000
3.633308 -9.738443 0.348986 63.000000
-5.014072 -9.615739 0.364109 14.000000
-4.953631 -9.647055 0.364109 20.000000
2.278657 -9.669544 0.333550 25.000000
3.583297 -9.697311 0.347107 36.000000
4.280610 -9.668855 0.355027 7.000000
4.327772 -9.652204 0.355161 14.000000
-15.952152 -9.411539 0.300660 13.000000
-5.178268 -9.466146 0.362275 21.000000
-5.083979 -9.469426 0.360865 16.750000
-16.030544 -9.322428 0.301028 9.333333
2.859495 -9.300223 0.326686 21.571428
-16.165192 -9.231701 0.302186 41.500000
2.041303 -9.245998 0.317913 39.500000
3.386576 -9.254254 0.330866 56.000000
1.758785 -9.194000 0.314289 15.500000
1.905557 -9.105502 0.312343 25.000000
-16.436283 -9.013518 0.304296 20.000000
-16.197603 -9.015469 0.300920 20.000000
1.818312 -9.010858 0.308642 22.857143
1.938368 -9.049507 0.310732 29.500000
2.993494 -9.004072 0.318584 26.500000
-16.352108 -8.900654 0.302218 49.000000
2.936750 -8.974391 0.317041 20.000000
2.989224 -8.851624 0.313685 30.000000
2.957633 -8.668145 0.307511 29.000000
3.121849 -8.614618 0.307645 78.000000
-16.403421 -8.531808 0.300141 12.000000
2.941854 -8.534088 0.303081 34.000000
3.012226 -8.580690 0.305336 27.799999
3.043462 -8.481395 0.302544 31.000000
-19.980665 -7.995773 0.349353 2.500000
-19.975840 -7.812360 0.348184 1.000000
-19.923717 -7.647994 0.346431 4.000000
-19.920223 -7.539180 0.345750 4.500000
-19.907213 -7.391587 0.344711 4.000000
8.308871 -7.317531 0.371738 33.000000
-19.896889 -7.245843 0.343737 5.000000
8.114469 -7.214499 0.364557 10.000000
8.364942 -7.262483 0.371939 30.000000
-19.881760 -7.099164 0.342698 5.000000
8.407030 -7.059338 0.368583 14.000000
9.235740 -7.040844 0.389925 14.000000
9.339335 -7.012053 0.392118 38.000000
-19.867462 -6.953619 0.341692 4.500000
9.311437 -6.975959 0.390641 30.333334
-19.858448 -6.845567 0.340978 5.000000
8.389542 -6.800989 0.362610 8.000000
-19.845011 -6.736494 0.340199 5.000000
9.803804 -6.655189 0.397844 5.000000
-19.830019 -6.592738 0.339225 5.000000
-19.813999 -6.449465 0.338251 5.000000
-19.798878 -6.307230 0.337310 5.000000
9.653158 -6.355405 0.388046 17.000000
-19.792156 -6.202481 0.336693 5.000000
9.815908 -6.243795 0.390596 18.000000
10.027015 -6.246124 0.396636 11.000000
-19.704544 -6.039333 0.334550 4.000000
-19.654915 -6.091731 0.334031 6.000000
10.415561 -5.782950 0.399992 26.000000
-19.649134 -5.353288 0.330590 0.000000
-19.639864 -5.218424 0.329876 0.000000
-19.602289 -5.109671 0.328837 1.000000
8.043962 -5.019551 0.318349 13.000000
-19.595259 -4.965661 0.328144 1.000000
10.375450 -4.935507 0.385764 22.000000
10.500406 -4.974953 0.390127 19.500000
-19.583416 -4.842790 0.327474 2.000000
10.495908 -4.832077 0.387957 19.333334
7.865233 -4.704352 0.307712 15.750000
7.908422 -4.721851 0.309256 20.000000
8.926647 -4.738392 0.339322 9.000000
10.496059 -4.712713 0.386301 10.000000
-19.566338 -4.675848 0.326565 3.333333
8.195248 -4.617784 0.315833 10.000000
8.469485 -4.667696 0.324692 8.000000
10.388986 -4.664619 0.382364 22.000000
-19.542099 -4.508078 0.325558 4.000000
7.703654 -4.534178 0.300128 4.000000
7.975573 -4.527074 0.307913 11.000000
8.388391 -4.577209 0.320844 25.000000
8.570107 -4.514682 0.325228 16.000000
8.757993 -4.543591 0.331269 23.000000
8.864636 -4.563632 0.334758 10.000000
10.462769 -4.540659 0.382945 9.000000
8.275509 -4.442823 0.315363 11.000000
-19.542721 -4.379071 0.325104 5.000000
9.158025 -4.321159 0.339993 21.000000
10.470038 -4.349683 0.380664 14.000000
10.683270 -4.398963 0.387912 9.000000
-19.526859 -4.246856 0.324390 5.500000
9.258878 -4.227322 0.341738 8.000000
2.821217 -4.162223 0.343850 5.000000
9.888524 -4.144572 0.359993 63.000000
10.251139 -4.145892 0.371268 39.000000
-19.504108 -4.081767 0.323470 6.333333
9.547871 -4.072492 0.348517 31.750000
-19.485291 -3.918323 0.322637 7.000000
-19.480080 -3.790093 0.322150 7.000000
-19.459400 -3.627719 0.321328 7.333333
11.054287 -3.546913 0.389791 15.500000
-19.837162 -3.440739 0.326824 2.000000
-19.621456 -3.466853 0.323448 3.000000
-19.449080 -3.499446 0.320787 6.000000
8.407640 -3.379837 0.304245 23.000000
11.436768 -3.335679 0.399992 1.000000
8.520343 -3.260420 0.306303 9.000000
9.615993 -3.135562 0.339591 8.000000
9.947803 -3.174749 0.350597 6.000000
8.952288 -3.028461 0.317309 24.000000
9.279564 -3.058146 0.328047 17.000000
9.674640 -3.020749 0.340295 13.500000
11.174514 -2.919075 0.387778 4.000000
7.049088 -2.825144 0.386962 19.000000
11.512980 -2.853441 0.398247 11.000000
6.892041 -2.787364 0.378820 5.000000
9.143959 -2.729408 0.320396 9.000000
11.108474 -2.790256 0.384556 21.000000
7.269203 -2.617110 0.393679 21.666666
8.868080 -2.647140 0.310732 21.000000
9.630211 -2.612862 0.335027 0.000000
11.005403 -2.690969 0.380395 8.000000
8.777143 -2.559966 0.306974 27.000000
8.973369 -2.586637 0.313551 0.000000
8.693760 -2.212780 0.301202 23.000000
10.960340 -2.263764 0.375764 3.500000
11.002234 -2.146590 0.376368 4.000000
11.097992 -1.912967 0.378113 1.000000
11.440041 -1.916430 0.389455 49.500000
7.502242 -1.884360 0.394154 29.333334
11.568297 -1.863214 0.393415 47.000000
7.435249 -1.768601 0.389439 33.166668
7.140576 -1.603961 0.372917 29.000000
7.221611 -1.661940 0.377598 26.000000
7.550356 -1.637775 0.393679 54.333332
9.288622 -1.676302 0.316906 5.000000
11.352816 -1.646020 0.385160 5.000000
7.558823 -1.598406 0.393679 37.000000
11.101135 -1.556211 0.376368 96.000000
7.157962 -1.458956 0.372238 51.333332
10.666902 -1.427058 0.361335 17.000000
6.884335 -1.388125 0.357853 30.000000
7.128585 -1.367589 0.369863 38.000000
7.546447 -1.337449 0.390524 33.000000
10.580480 -1.347884 0.358114 18.000000
11.621289 -1.332297 0.392744 10.000000
11.782962 -1.360260 0.398247 12.750000
6.814871 -1.285220 0.353375 31.000000
6.949876 -1.272954 0.360025 27.000000
7.292774 -1.221707 0.376784 40.000000
7.399333 -1.223038 0.382158 30.799999
11.474361 -1.224221 0.387442 10.000000
7.379153 -1.105409 0.380204 27.799999
7.513307 -1.077331 0.386758 20.000000
10.563921 -1.043332 0.356414 14.666667
11.524371 -1.065026 0.388583 5.000000
7.487658 -0.969769 0.384723 17.666666
10.480414 -0.935353 0.353282 1.000000
11.293755 -0.900739 0.380395 4.000000
7.396646 -0.800847 0.379105 15.200000
9.060807 -0.808750 0.305430 20.000000
9.106652 -0.812747 0.306974 29.000000
10.593489 -0.777938 0.356637 24.000000
10.645081 -0.756452 0.358315 23.750000
10.703135 -0.667736 0.360060 18.000000
11.654066 -0.671970 0.391939 2.000000
9.349450 -0.568561 0.314490 9.000000
9.498864 -0.472919 0.319323 14.500000
9.108024 -0.353079 0.306034 36.000000
9.274627 -0.388722 0.311672 29.000000
7.820429 -0.290881 0.398768 8.000000
9.066107 -0.258782 0.304524 42.583336
9.124215 -0.152838 0.306392 34.666668
7.478232 -0.031325 0.381059 1.000000
9.170330 -0.096035 0.307913 0.000000
9.340570 -0.053789 0.313618 11.000000
8.937002 0.187204 0.300128 8.000000
10.064324 0.153864 0.337953 24.000000
9.136592 0.277483 0.306907 8.000000
9.096757 0.333563 0.305632 0.000000
1.443247 0.626495 0.348534 6.238095
1.628366 0.606558 0.366765 6.428571
7.298838 0.635998 0.373324 41.000000
7.396866 0.682113 0.352523 30.200001
7.403271 0.609926 0.378514 29.500000
1.652780 0.718091 0.343584 7.111111
1.763708 0.782288 0.337089 12.666667
7.483382 0.723204 0.383094 32.000000
7.672645 0.777965 0.392967 31.500000
1.591400 0.892897 0.385144 5.500000
1.694673 0.875146 0.362590 8.785714
7.501061 0.857332 0.369964 33.888889
7.627442 0.864319 0.357701 17.250000
1.768619 0.911630 0.363797 13.000000
1.801091 0.975475 0.394846 34.000000
1.934609 1.036459 0.383441 2.000000
1.964336 1.170400 0.381672 16.071428
1.413684 1.251261 0.398464 21.750000
2.371429 1.267641 0.341486 2.333333
2.425303 1.217305 0.336525 4.666667
7.715097 1.263395 0.398361 18.000000
1.525231 1.367460 0.337852 6.533333
1.806617 1.356887 0.384363 5.750000
1.980820 1.325080 0.334047 17.000000
2.196763 1.400031 0.315466 23.000000
2.272756 1.332350 0.316721 11.631579
7.387835 1.305334 0.382280 2.000000
1.486248 1.431738 0.360552 6.875000
1.800286 1.444207 0.340965 8.416667
2.000370 1.460450 0.335563 22.857143
2.190135 1.415246 0.315787 15.333333
2.279356 1.402817 0.324122 6.000000
3.317938 1.490000 0.328470 15.500000
1.868349 1.579699 0.358626 8.714286
3.258152 1.559972 0.355138 17.396826
9.703138 1.526411 0.329792 0.000000
1.992514 1.620056 0.308334 23.294117
2.078767 1.602597 0.364457 10.750000
2.746939 1.668853 0.304256 8.666667
3.436098 1.657925 0.327457 21.000000
2.731422 1.772360 0.316231 10.000000
3.441400 1.750874 0.378940 14.400000
8.988042 1.895634 0.308417 55.500000
9.074197 1.839571 0.310866 11.000000
1.954201 1.958137 0.339453 23.727272
8.939550 1.973667 0.307376 67.000000
1.660643 2.082298 0.337628 13.157895
1.813415 2.063613 0.381566 18.200001
1.975132 2.044177 0.357630 39.933334
2.094518 2.089247 0.358266 36.000000
8.960314 2.064632 0.308730 51.500000
1.457265 2.113462 0.343447 6.928572
1.847916 2.199102 0.398840 5.000000
11.140168 2.149292 0.380932 31.000000
11.219774 2.115942 0.383348 35.333332
1.274906 2.286743 0.305450 12.500000
1.307672 2.297237 0.320115 16.000000
2.034124 2.236721 0.301456 48.799999
2.127663 2.234374 0.304363 48.482758
2.289999 2.241698 0.388081 16.000000
11.212255 2.218072 0.383751 5.000000
1.274573 2.390465 0.308858 2.400000
1.346695 2.328084 0.337745 10.000000
2.175320 2.332733 0.301915 10.500000
1.470327 2.473377 0.314557 4.000000
2.437390 2.553488 0.303142 37.000000
2.570828 2.578313 0.335448 38.500000
9.241476 2.548876 0.321873 44.333336
10.369852 2.529796 0.358382 27.500000
10.696615 2.556186 0.369254 63.000000
1.291926 2.650129 0.304883 1.500000
9.177607 2.671612 0.320933 61.750000
10.547911 2.625979 0.364959 18.000000
9.221516 2.763079 0.323215 18.000000
10.706289 2.701156 0.370731 22.000000
10.930141 2.794186 0.378784 16.000000
8.631944 2.915036 0.305900 11.000000
9.706712 3.075422 0.341872 16.000000
8.438284 3.124198 0.302115 32.000000
8.816939 3.179500 0.314692 50.500000
9.147740 3.185580 0.325228 33.000000
9.277300 3.165480 0.329121 11.000000
9.514704 3.130105 0.336302 5.500000
9.689387 3.103462 0.341604 24.000000
9.117535 3.223336 0.324692 64.000000
9.316442 3.211546 0.330866 4.000000
10.716372 3.247712 0.375966 39.000000
10.952465 3.281730 0.383885 6.000000
2.430592 3.369198 0.338402 20.458332
10.870473 3.331738 0.381737 33.000000
10.921049 3.384807 0.383885 21.000000
2.514456 3.429285 0.365153 23.000000
8.365740 3.485748 0.304289 2.000000
10.828369 3.430876 0.381379 9.000000
2.721233 3.568251 0.385344 29.000000
10.540895 3.559696 0.373550 4.000000
10.737353 3.513656 0.379321 33.000000
10.851030 3.513155 0.382945 30.000000
3.198533 3.665256 0.332661 10.000000
8.493796 3.665038 0.310598 26.000000
-19.981096 3.768249 0.330071 15.000000
2.390346 3.756489 0.343374 19.000000
2.759516 3.738816 0.399033 35.000000
8.540890 3.717230 0.312745 1.000000
11.090432 3.706503 0.392610 9.000000
-19.988800 3.834766 0.330395 15.000000
2.414912 3.857755 0.337489 3.666667
9.946362 3.818051 0.357711 1.000000
2.924899 3.936944 0.335390 0.000000
-19.986988 4.030095 0.330979 12.666667
10.035632 4.070967 0.363617 0.000000
10.578602 4.022659 0.379992 0.000000
-19.968464 4.189821 0.331207 12.000000
2.976835 4.141179 0.348762 7.000000
9.803790 4.175602 0.357778 2.500000
9.968942 4.190558 0.363080 15.000000
10.041101 4.183820 0.365228 27.000000
3.038494 4.283488 0.359132 17.000000
9.889250 4.285575 0.361872 11.500000
-19.943699 4.315619 0.331239 12.500000
-19.930975 4.411297 0.331369 2.000000
3.080172 4.400576 0.367319 0.000000
7.938104 4.467413 0.305833 4.500000
8.188327 4.457008 0.313014 1.000000
8.293659 4.440243 0.315860 39.000000
8.530025 4.504985 0.323886 82.000000
7.701511 4.658673 0.302209 2.000000
7.806046 4.638475 0.304871 5.666667
7.945009 4.620394 0.308585 4.000000
8.958798 4.668604 0.339188 60.500000
9.797210 4.979012 0.368986 6.000000
10.188951 5.018004 0.381335 25.000000
10.319607 5.042130 0.385630 15.000000
10.566019 5.080545 0.393639 9.666667
10.544436 5.254999 0.395563 22.500000
9.219201 5.351730 0.357912 19.750000
9.539713 5.309736 0.366570 12.000000
9.643826 5.328072 0.369926 29.000000
9.727118 5.334271 0.372476 9.000000
10.537430 5.313609 0.396234 7.000000
9.282927 5.735458 0.366369 57.500000
9.410467 5.753195 0.370328 74.000000
8.627461 5.889669 0.350731 0.000000
9.168945 5.825497 0.364736 68.166664
8.469763 5.959280 0.347711 3.500000
8.589149 5.903158 0.349926 23.000000
9.113585 5.972945 0.365854 58.333332
8.037016 6.021212 0.337175 39.000000
9.156974 6.083879 0.369120 5.000000
8.270810 6.115461 0.345362 24.799999
8.268590 6.610185 0.355429 8.000000
8.580971 6.620166 0.363885 3.500000
8.668271 6.974452 0.373550 29.000000
8.077714 7.083969 0.360731 53.000000
8.622456 7.018307 0.373281 43.200001
8.042758 7.120637 0.360664 0.000000
8.757046 7.487166 0.386838 43.500000
8.864040 7.435143 0.388449 25.500000
8.719156 7.574105 0.387778 10.000000
8.539209 7.876980 0.390059 18.000000
8.496080 7.944958 0.390552 17.666666
8.551415 8.098104 0.395428 26.666666
8.551191 8.227932 0.398435 16.000000
7.564695 8.375008 0.378919 9.500000
7.377007 8.402986 0.375429 1.000000
7.529257 8.495228 0.381133 3.000000
7.173755 8.597996 0.375966 9.000000
7.607818 8.502906 0.383080 7.000000
7.478559 8.627397 0.383348 0.000000
6.788394 8.789495 0.372879 27.000000
7.318986 8.716248 0.382140 17.000000
-19.520638 8.801577 0.347600 9.000000
6.882625 8.825145 0.375764 13.500000
-19.508560 8.944098 0.348379 10.000000
-19.494415 9.123596 0.349396 10.000000
7.546175 9.190098 0.399254 18.500000
-19.464918 9.296808 0.350164 10.500000
7.485063 9.263100 0.399858 8.000000
-19.440722 9.398013 0.350521 9.000000
7.158144 9.512988 0.399724 9.000000
-19.640717 9.685678 0.355488 2.000000
-4.753158 9.779997 0.365093 6.333333
-4.683776 9.780180 0.364087 13.000000
-19.515175 10.202289 0.357468 1.000000
-19.825792 13.052857 0.385320 6.000000
-19.851929 13.890142 0.393306 2.000000
-19.706827 13.881049 0.391293 6.000000
-19.548935 13.861917 0.389021 6.000000
-19.324100 13.839684 0.385840 6.000000
-19.036026 13.815252 0.381814 9.500000
-19.035246 13.952112 0.383113 10.000000
-19.012642 14.073792 0.383989 10.000000
-19.002228 14.251764 0.385580 9.000000
-18.955935 14.388381 0.386316 8.000000
-18.855644 15.632039 0.397591 9.000000
-18.858650 15.734754 0.398695 13.000000
-18.839758 15.819637 0.399344 11.000000
8.885250 16.457060 0.303598 34.000000
8.982868 16.421150 0.303842 30.000000
6.550869 17.281620 0.300011 8.000000
7.434593 17.430161 0.307607 8.000000
7.542871 17.455463 0.308678 17.500000
8.527544 17.782425 0.320137 17.000000
8.483663 17.834410 0.320592 43.000000
8.454900 17.918846 0.321631 42.000000
5.306856 18.124542 0.306568 19.333334
5.260805 18.250393 0.308321 26.000000
5.876793 18.414425 0.313775 8.000000
8.155376 18.473248 0.327798 24.000000
8.290455 18.542309 0.329713 15.000000
7.865215 18.683258 0.329064 10.000000
5.874217 18.813669 0.319943 16.000000
5.797940 18.987911 0.322280 7.000000
8.757292 19.180626 0.342276 11.000000
5.963764 19.313532 0.328123 0.000000
5.418239 19.485157 0.328305 35.599998
5.293956 19.511913 0.328188 32.000000
5.558448 19.513084 0.329356 29.000000
9.159760 19.571774 0.350781 21.000000
5.261615 19.636616 0.330006 41.000000
5.088298 19.731808 0.330785 7.000000
8.510442 19.780027 0.349548 21.000000
5.240819 19.807707 0.332603 36.000000
5.206870 19.932423 0.334420 28.000000
8.528286 19.994286 0.352859 34.000000
8.050853 20.087885 0.351301 10.000000
8.222243 20.147993 0.353248 4.000000
7.950840 20.205063 0.352469 10.000000
8.322046 20.210819 0.354806 1.000000
8.402379 20.225204 0.355521 12.000000
6.644558 20.377214 0.347925 7.000000
7.848230 20.318045 0.353573 49.000000
6.812444 20.671516 0.353313 35.000000
6.954949 20.666212 0.353962 8.000000
7.644894 20.655735 0.357533 11.500000
7.892993 20.626486 0.358507 35.000000
8.064568 20.684547 0.360390 62.000000
6.958232 20.892864 0.357468 23.000000
8.043621 22.489695 0.387723 9.000000
8.014315 22.631725 0.389735 3.000000
5.871689 23.221985 0.388826 13.000000
-5.405612 -26.808844 0.443946 3.000000
-5.829448 -26.736261 0.444206 10.000000
-2.555035 -26.730629 0.435896 9.000000
-4.814799 -26.441668 0.436285 1.000000
-4.640962 -26.428064 0.435571 12.000000
-4.883997 -26.351692 0.435052 23.000000
-4.547721 -26.383394 0.434597 14.000000
-4.700724 -26.283436 0.433429 21.000000
-4.448137 -26.298964 0.432974 7.000000
-3.849037 -26.255875 0.430767 3.000000
-3.259422 -26.242876 0.429274 7.000000
-3.173597 -26.225193 0.428819 9.000000
-4.169853 -26.150139 0.429858 2.000000
-4.993713 -26.029825 0.430247 2.000000
-3.568849 -26.053236 0.426871 12.000000
-1.338705 -26.066208 0.423690 8.000000
-3.887064 -25.947002 0.425897 13.000000
-3.475845 -25.981073 0.425508 22.000000
-4.034584 -25.823278 0.424274 10.000000
-2.474358 -25.886587 0.422132 15.000000
-3.274630 -25.704842 0.420639 16.000000
-2.378298 -25.734932 0.419535 35.000000
-6.573549 -25.657784 0.429955 10.000000
-6.431564 -25.605127 0.428559 2.000000
-6.105600 -25.668360 0.428300 11.000000
-4.830380 -25.613062 0.423106 15.000000
-2.530123 -25.619980 0.417912 42.000000
-6.250605 -25.563446 0.427196 4.000000
-4.990447 -25.578283 0.423041 1.000000
-6.298173 -25.411695 0.424989 0.000000
-5.038873 -25.401634 0.420379 3.000000
-2.671813 -25.420609 0.414925 73.000000
-2.275038 -25.491308 0.415445 6.000000
-3.314450 -25.381130 0.415510 53.000000
-2.570848 -25.221975 0.411549 47.000000
-5.060943 -25.099478 0.415640 12.000000
-3.803406 -24.855370 0.408173 26.000000
-2.691385 -24.855417 0.405836 115.000000
-5.304566 -24.701523 0.410121 6.000000
-5.159858 -24.785263 0.410965 2.000000
-3.466898 -24.730888 0.405382 27.000000
-4.330365 -24.659367 0.406420 10.000000
-5.428553 -24.527126 0.407784 1.000000
-5.145848 -24.334597 0.403759 4.000000
-5.443347 -24.232891 0.403174 3.000000
-3.727451 -13.569426 0.472474 1.000000
-4.568713 -12.934029 0.460561 14.250000
-2.782650 -12.572486 0.432340 3.000000
-3.217370 -12.476580 0.432609 11.000000
-3.179147 -12.490499 0.432743 8.000000
-2.463510 -12.418882 0.425092 10.000000
-2.061084 -12.423090 0.422810 11.000000
-2.503341 -12.315045 0.421938 25.500000
-6.281681 -12.296643 0.463615 6.000000
-2.313759 -12.268695 0.419186 17.000000
-2.278118 -12.291627 0.419723 32.000000
-3.677881 -12.181727 0.427240 14.000000
-2.355583 -12.073422 0.413012 32.000000
-4.495450 -11.972643 0.429387 7.000000
-2.870090 -11.899880 0.410999 27.000000
-2.481856 -11.921538 0.408851 50.000000
-2.294294 -11.959051 0.408851 15.000000
1.993714 -11.939838 0.406435 11.250000
-6.007495 -11.897823 0.447508 8.500000
-2.963978 -11.878889 0.411066 24.000000
-2.743401 -11.864082 0.408851 3.000000
-2.166441 -11.897550 0.406032 59.000000
2.940826 -11.812573 0.408717 1.000000
-5.643971 -11.769330 0.438246 2.000000
2.043466 -11.781358 0.401469 24.000000
-3.429294 -11.621781 0.406838 9.000000
-3.112581 -11.616671 0.403795 3.333333
-3.047396 -11.665745 0.404824 1.000000
-2.852389 -11.665572 0.403214 14.000000
-5.497062 -11.555957 0.429656 18.000000
-5.387241 -11.526630 0.427195 22.833334
-5.235993 -11.563976 0.426211 23.000000
-5.093709 -11.554540 0.423974 27.666666
-4.200899 -11.516816 0.411603 30.750000
-3.206695 -11.531703 0.401871 19.000000
-4.413196 -11.319260 0.407911 0.000000
10.576422 -10.466244 0.499587 0.000000
8.640358 -10.138037 0.447239 4.000000
8.740205 -10.074205 0.447803 28.000000
9.617024 -10.039053 0.466769 20.000000
8.766457 -9.922739 0.444555 31.000000
8.888835 -9.945016 0.447843 25.500000
9.032494 -9.947388 0.451132 22.333334
9.179237 -9.919527 0.453772 19.333334
9.307081 -9.900549 0.456233 8.500000
9.651731 -9.980704 0.466165 10.000000
10.192998 -9.713449 0.472742 63.000000
9.827101 -9.603270 0.461333 92.000000
10.241186 -9.607075 0.471467 80.250000
10.462637 -9.600686 0.476769 12.000000
9.808468 -9.525002 0.459051 123.000000
10.665874 -9.543094 0.480527 15.000000
1.982803 -9.474132 0.493219 44.500000
2.109777 -9.438519 0.492812 26.333334
9.620156 -9.460305 0.453011 2.000000
2.147444 -9.309115 0.486807 19.000000
10.171025 -9.392129 0.464823 88.000000
1.880288 -9.275050 0.482227 80.000000
9.331075 -9.292068 0.442139 4.000000
1.737534 -9.160576 0.475102 84.000000
9.129275 -9.177218 0.434622 29.000000
10.970809 -9.153516 0.479722 33.000000
1.807382 -9.061523 0.470827 2.000000
3.593032 -9.060949 0.496679 18.000000
10.885638 -9.024599 0.474756 15.000000
3.321743 -8.989481 0.488333 30.000000
10.684828 -8.971992 0.468447 5.000000
1.598771 -8.885601 0.460039 1.000000
1.686715 -8.891508 0.461159 8.500000
3.306680 -8.862974 0.482023 34.000000
3.437138 -8.843199 0.483448 20.666666
3.575881 -8.868466 0.487248 20.333334
9.185330 -8.863974 0.428582 21.000000
9.275304 -8.876102 0.431043 61.333332
2.249568 -8.713594 0.458563 17.750000
3.328865 -8.737603 0.476446 29.000000
2.150877 -8.698337 0.456578 33.750000
9.349535 -8.525335 0.424824 40.000000
9.476995 -8.587190 0.429387 37.000000
9.249065 -8.487093 0.421468 23.000000
10.480513 -8.414507 0.451266 5.000000
10.608367 -8.408089 0.454488 0.000000
11.046774 -8.476488 0.467508 7.000000
3.660766 -8.304066 0.462431 15.750000
10.438140 -8.326694 0.448313 12.000000
3.795794 -8.222385 0.461464 23.000000
9.174851 -8.243712 0.414131 22.000000
9.637006 -8.248248 0.425898 14.000000
10.267458 -8.296635 0.443213 26.000000
3.672808 -8.111689 0.453729 29.666666
3.781015 -8.123431 0.456578 16.000000
9.617189 -8.179085 0.423884 14.000000
11.359078 -8.108335 0.468581 3.000000
9.629387 -8.034297 0.421066 3.000000
11.597870 -7.820008 0.469655 8.500000
10.478892 -7.782312 0.438246 12.000000
10.980120 -7.785871 0.451937 19.000000
9.761270 -7.651380 0.416425 35.428570
9.871571 -7.624115 0.418784 35.000000
10.092770 -7.644183 0.425092 11.000000
10.428761 -7.631281 0.433884 28.750000
10.452768 -7.560985 0.433146 32.000000
11.742030 -7.520895 0.468179 21.000000
11.499969 -7.416906 0.459454 14.000000
11.636956 -7.350895 0.462139 3.000000
10.008974 -7.192178 0.413817 63.000000
11.593525 -7.171491 0.457709 5.000000
9.811254 -6.841835 0.401603 10.500000
9.928915 -6.854616 0.405093 26.000000
10.036122 -6.882171 0.408583 28.000000
13.340049 -6.500613 0.498245 1.000000
10.143045 -6.407214 0.402811 10.000000
10.548851 -6.186478 0.410596 5.000000
10.404964 -5.891574 0.401469 11.000000
10.525346 -5.757555 0.402811 8.500000
7.688577 -5.524803 0.482430 7.000000
7.793700 -5.148712 0.475967 6.250000
8.080634 -5.122505 0.487519 20.500000
11.493234 -5.117118 0.422408 0.000000
7.983076 -5.033953 0.480904 23.250000
11.663492 -4.910017 0.424891 12.000000
12.867237 -4.762302 0.460662 1.500000
11.448421 -4.672014 0.415160 8.000000
11.759192 -4.627327 0.424287 4.000000
7.927732 -4.532909 0.465331 17.000000
11.684278 -4.555510 0.421066 20.000000
11.838080 -4.551290 0.425830 5.000000
7.896885 -4.417037 0.461057 3.000000
11.815453 -4.436430 0.423750 5.000000
8.462355 -4.373349 0.485382 5.500000
11.457543 -4.343162 0.411401 4.000000
8.124808 -4.247547 0.467163 8.000000
2.815201 -4.153348 0.430860 5.000000
11.789427 -4.133219 0.419455 9.000000
2.852965 -4.089906 0.474554 30.088236
11.842770 -4.089350 0.420663 8.000000
12.588068 -3.628600 0.439857 13.000000
7.843993 -3.573865 0.439225 28.000000
7.939333 -3.542213 0.442991 37.000000
8.135452 -3.500313 0.451286 8.000000
8.352294 -3.500693 0.461464 14.000000
8.263644 -3.433057 0.455968 23.000000
13.343708 -3.440980 0.462675 0.000000
7.611371 -3.303202 0.422788 53.000000
7.856121 -3.350920 0.435205 53.000000
8.391418 -3.363125 0.460650 5.000000
13.454243 -3.379472 0.465763 5.000000
7.520446 -3.291856 0.418310 26.000000
8.003063 -3.236697 0.439887 33.000000
13.361318 -3.289241 0.462004 15.000000
13.764004 -3.273972 0.475024 3.000000
7.647557 -3.155946 0.421567 55.500000
7.897949 -3.079282 0.431948 16.000000
8.495376 -3.008370 0.459225 14.000000
8.875398 -3.017957 0.477681 70.666664
13.556114 -3.000355 0.466165 10.000000
13.651937 -3.066583 0.469789 3.000000
7.484116 -2.908892 0.409150 36.333332
7.913351 -2.914683 0.429709 3.000000
8.548075 -2.966722 0.461057 15.000000
8.952325 -2.981513 0.480802 28.000000
12.563772 -2.946806 0.433280 5.000000
13.844395 -2.973037 0.475427 1.000000
7.346921 -2.864553 0.401822 21.000000
7.677628 -2.888282 0.417984 47.599998
7.640996 -2.787138 0.414442 29.000000
8.915237 -2.661136 0.474084 59.000000
8.678026 -2.580425 0.461328 27.000000
8.833476 -2.566356 0.468724 22.000000
9.214477 -2.500065 0.486501 6.000000
8.229523 -2.344241 0.436019 49.000000
8.440654 -2.375740 0.446808 1.000000
8.047447 -2.224193 0.425434 15.500000
8.013532 -2.156237 0.422856 31.666666
8.195007 -2.168274 0.431948 15.000000
7.679492 -1.997527 0.404332 26.333334
8.646732 -1.970839 0.451897 6.000000
12.945930 -1.981005 0.439723 0.000000
11.877745 -1.843020 0.403571 7.666667
9.485117 -1.773362 0.491692 10.000000
13.184565 -1.721736 0.446434 26.000000
7.790625 -1.698631 0.406300 63.000000
11.957533 -1.637979 0.405227 0.000000
13.121118 -1.650610 0.444018 11.000000
7.833934 -1.528439 0.406707 26.000000
9.353542 -1.491498 0.482634 9.000000
9.452908 -1.476905 0.487519 17.000000
13.831312 -1.497676 0.467105 14.000000
6.901368 -1.336424 0.480708 5.500000
7.144832 -1.348738 0.497218 2.000000
12.961263 -1.362284 0.437575 32.000000
6.784122 -1.236554 0.471566 23.000000
8.474319 -1.269520 0.436630 2.000000
9.289925 -1.228024 0.477494 6.500000
12.695033 -1.293992 0.428448 4.000000
12.774625 -1.261567 0.430998 0.000000
12.881995 -1.231319 0.434488 2.000000
13.251499 -1.140714 0.446568 6.000000
8.772535 -1.061594 0.450268 20.000000
9.139473 -1.018696 0.468588 35.000000
9.287618 -1.094331 0.476527 15.000000
13.114942 -1.045989 0.441736 9.000000
9.082074 -0.954627 0.465331 32.500000
9.277993 -0.923585 0.475102 14.750000
12.921904 -0.948926 0.435025 2.000000
13.034455 -0.998369 0.438917 1.000000
8.980607 -0.801498 0.459428 12.000000
9.572136 -0.823987 0.489555 34.000000
9.534865 -0.790610 0.487519 19.000000
8.681136 -0.692368 0.443754 23.000000
9.029801 -0.691634 0.461464 54.000000
9.215198 -0.676722 0.470827 33.000000
9.304948 -0.653929 0.475306 5.000000
8.983727 -0.546320 0.458614 9.000000
7.989994 -0.456446 0.491300 7.200000
9.110923 -0.410537 0.464721 1.000000
9.048400 -0.314286 0.461348 37.714287
9.141265 -0.354367 0.466146 14.000000
8.476216 -0.115399 0.431948 9.000000
9.027364 -0.198656 0.460107 29.333334
9.106380 -0.181212 0.464110 27.000000
8.480532 -0.088811 0.432152 10.000000
8.504737 -0.062344 0.433373 7.000000
9.319904 -0.009760 0.474899 17.000000
8.672629 0.045410 0.441922 0.000000
9.095799 0.390769 0.463907 7.000000
9.166950 0.307302 0.467367 10.000000
4.461067 0.472832 0.463908 2.500000
1.669266 0.584266 0.406236 13.833333
3.241910 0.589149 0.457520 7.000000
3.344657 0.548249 0.461691 13.285714
3.426461 0.553303 0.466627 20.875000
3.903138 0.531907 0.477047 9.500000
3.410780 0.673513 0.482734 10.000000
1.544218 0.867569 0.425474 6.428571
1.696846 0.866053 0.455328 7.250000
1.849726 0.927206 0.468767 10.363636
1.963412 0.994199 0.480350 8.600000
1.871091 1.025304 0.470291 14.000000
7.991100 1.001010 0.410371 68.000000
8.640562 1.054805 0.443551 37.000000
1.849506 1.139831 0.492161 8.916667
1.981788 1.165142 0.408512 9.666667
8.386657 1.148863 0.431337 26.333334
8.635967 1.123099 0.443754 33.000000
1.383717 1.286577 0.483503 14.333333
1.507218 1.262615 0.485115 10.602272
1.706667 1.239555 0.445239 1.000000
2.353567 1.282403 0.420104 10.500000
8.129351 1.278837 0.419328 13.000000
1.673000 1.301794 0.437003 7.533333
1.826878 1.321116 0.444484 4.000000
1.927904 1.309816 0.421580 9.666667
8.036359 1.315985 0.414951 19.500000
8.532098 1.314740 0.439887 5.000000
9.016495 1.316966 0.464314 15.000000
1.836480 1.494126 0.490085 7.666667
1.936674 1.430449 0.464124 18.000000
2.117342 1.472673 0.456312 9.533334
1.445361 1.530839 0.423116 6.250000
1.869348 1.581968 0.427843 4.500000
2.148254 1.576690 0.433848 12.000000
2.209448 1.574228 0.473966 25.000000
2.870932 1.683370 0.462104 15.500000
3.309707 1.624732 0.472406 27.200001
2.881266 1.763984 0.469106 21.272728
3.373978 1.713938 0.458292 13.000000
8.890753 1.744296 0.461667 7.000000
8.990629 1.881464 0.468046 53.333332
1.574069 1.977454 0.487217 41.500000
1.640776 1.979654 0.495672 20.777779
1.764180 1.995446 0.417471 21.000000
8.928265 1.956460 0.465739 69.666664
1.516010 2.051665 0.491495 16.526316
1.685653 2.032697 0.464912 17.962963
1.790252 2.046411 0.439625 15.000000
8.945312 2.061175 0.467757 50.166664
1.618580 2.182736 0.474769 18.333334
1.827878 2.175294 0.445344 3.000000
1.946545 2.108064 0.484052 18.444445
2.014100 2.152314 0.409292 13.000000
1.262964 2.348586 0.427476 13.400000
2.138252 2.328592 0.495515 39.000000
2.251889 2.376449 0.454586 34.333332
2.446016 2.462266 0.481909 31.000000
9.197165 2.567860 0.486569 50.666668
9.323629 2.540165 0.492405 54.000000
2.495776 2.667720 0.464112 14.000000
2.503572 2.693222 0.445308 9.000000
9.172793 2.670227 0.486807 47.500000
8.564697 2.713645 0.457800 4.666667
2.498826 3.091305 0.481375 10.000000
8.379200 3.036536 0.454136 31.000000
2.547666 3.111276 0.486985 36.333332
8.433513 3.131772 0.458411 29.000000
8.517336 3.147278 0.462685 4.000000
8.897764 3.140377 0.480802 8.000000
2.480627 3.238737 0.421871 40.000000
2.508275 3.278484 0.426877 37.500000
8.046343 3.278745 0.442737 24.000000
8.545982 3.218940 0.465331 17.000000
9.075684 3.224568 0.490776 7.000000
8.068253 3.332146 0.444806 37.500000
8.660549 3.355728 0.473270 12.000000
8.723261 3.348547 0.476120 54.000000
3.619018 3.476473 0.430929 9.000000
3.745138 3.475272 0.438731 20.750000
8.208682 3.450613 0.453729 19.000000
2.687145 3.569849 0.462056 40.000000
3.842933 3.510310 0.446945 23.000000
3.960177 3.594649 0.459265 10.000000
8.197804 3.537318 0.454950 17.000000
8.301743 3.561738 0.460310 7.666667
2.390964 3.693101 0.454959 7.750000
2.831192 3.617240 0.475017 38.500000
3.094809 3.614604 0.408616 33.000000
3.145115 3.611641 0.495246 32.333332
3.247316 3.680031 0.421449 13.250000
1.870803 3.747280 0.433118 22.333334
1.983725 3.721775 0.488253 16.500000
2.832362 3.730541 0.429453 21.000000
2.958931 3.731905 0.492503 16.000000
1.848380 3.821856 0.439015 1.000000
2.874320 3.852138 0.469227 22.333334
2.950830 3.844207 0.416145 7.000000
3.002548 4.163005 0.485638 5.500000
3.089837 4.384995 0.460634 2.000000
8.316923 4.375770 0.478868 68.000000
8.452655 4.396424 0.485484 82.000000
7.702836 4.512055 0.454882 10.000000
8.118338 4.585511 0.475102 2.000000
8.266072 4.566883 0.481209 28.000000
8.378639 4.577673 0.486501 12.500000
8.419541 4.531578 0.487214 19.000000
7.718921 4.636272 0.458818 8.500000
7.060859 4.771468 0.434238 20.500000
7.212909 4.743155 0.439887 4.000000
6.992704 4.805953 0.432355 21.000000
7.030659 4.881020 0.436121 25.500000
2.642282 5.130307 0.495541 8.000000
7.245625 6.415056 0.493117 4.500000
7.154415 6.578821 0.495254 4.000000
9.613479 7.297028 0.405227 19.000000
10.569307 7.362286 0.432475 1.000000
9.923627 7.483421 0.417307 9.000000
10.919476 8.074089 0.455964 3.000000
10.753185 8.215485 0.454353 27.000000
8.785921 8.603810 0.412878 13.000000
8.901222 8.771671 0.419589 9.000000
9.462842 8.756555 0.432877 3.000000
10.587133 8.795853 0.462139 23.000000
10.617797 8.765094 0.462273 22.000000
11.202790 8.784110 0.477977 18.000000
11.093513 8.840018 0.476266 11.250000
7.931365 9.091894 0.405093 1.000000
7.673177 9.196570 0.402140 1.000000
7.781381 9.178679 0.404019 1.500000
8.397026 9.112707 0.416054 1.333333
7.529261 9.258148 0.400663 8.000000
8.449253 9.207828 0.419589 0.000000
7.718240 9.309883 0.406032 15.000000
7.245510 9.692326 0.406301 26.000000
10.432769 9.838223 0.481467 3.000000
10.945186 9.891574 0.495326 25.250000
7.849370 9.903440 0.424287 7.000000
7.947755 9.963112 0.427911 2.000000
7.712314 10.050883 0.425361 22.000000
10.956852 10.043614 0.499051 21.500000
7.703061 10.148449 0.427777 5.666667
7.584476 10.212506 0.427106 20.000000
7.550055 10.300780 0.428806 20.333334
7.556298 10.446291 0.432877 10.000000
8.309243 10.416265 0.447374 1.000000
7.586429 10.557633 0.436501 0.000000
6.977732 10.781811 0.431200 8.500000
7.300962 11.398656 0.454488 4.000000
7.254388 11.404670 0.453817 4.000000
7.127327 11.522127 0.454890 2.000000
8.906984 11.532589 0.489252 7.000000
9.065197 11.548800 0.492943 12.500000
9.160495 11.557668 0.495158 3.000000
7.924439 11.792809 0.477038 0.000000
7.833209 11.816794 0.476008 26.333334
7.694634 12.181119 0.483749 11.000000
6.869483 12.281425 0.472474 12.000000
7.581592 12.256497 0.483883 1.000000
7.622174 12.236012 0.484017 4.000000
7.435278 12.453019 0.486970 0.000000
1.470740 14.429067 0.486970 4.000000
1.522331 14.484013 0.488984 9.000000
1.388419 14.525574 0.489923 4.000000
1.270660 14.761063 0.497440 0.000000
1.740238 14.769450 0.499319 10.000000
1.805937 14.729322 0.498245 9.500000
-19.068274 15.707494 0.401032 5.000000
-18.816811 15.952221 0.400448 45.000000
-18.833008 16.170471 0.402947 34.000000
-18.866980 16.354618 0.405317 32.000000
-18.899891 16.487431 0.407135 29.000000
-18.947189 16.633797 0.409277 29.000000
-19.011738 16.796509 0.411809 28.000000
-19.144184 17.020918 0.415834 25.000000
-11.434997 22.326729 0.407200 7.000000
-11.399231 22.430283 0.408433 22.000000
-15.394593 22.652348 0.444595 60.000000
-15.263788 22.663618 0.443557 79.000000
-15.179175 22.691511 0.443167 85.000000
-15.167577 22.829025 0.444920 72.000000
-15.197104 23.030125 0.447907 55.000000
-11.154860 24.364317 0.434987 6.000000
-11.051800 24.340977 0.433948 10.000000
-10.960503 24.342754 0.433364 0.000000
5.855575 24.390284 0.407178 22.000000
5.966575 24.401825 0.407784 14.000000
5.505473 24.874670 0.413562 2.000000
5.238110 25.161158 0.417198 5.000000
6.240445 25.178774 0.421093 26.000000
5.498016 25.216179 0.418951 1.000000
-13.919325 25.382080 0.469916 25.000000
-14.058949 25.446749 0.471928 3.000000
-11.060737 25.413700 0.449919 3.000000
-14.005859 25.731300 0.475564 12.000000
6.628270 25.703630 0.430897 0.000000
-13.985790 25.887774 0.477641 30.000000
-11.023719 25.995483 0.458359 10.000000
-13.953536 26.023224 0.479329 28.000000
-11.653588 26.100811 0.464008 2.000000
6.079357 26.290716 0.438038 29.000000
8.275066 26.213245 0.446219 1.000000
5.924567 26.375219 0.438817 42.000000
7.779517 26.364561 0.446219 2.000000
-10.853761 26.516897 0.465111 20.000000
6.059837 26.586546 0.442648 18.000000
-11.820875 26.700483 0.474006 2.000000
-11.744978 26.755796 0.474330 10.000000
-11.043873 26.741436 0.469656 5.000000
5.914278 26.721722 0.444271 40.000000
6.807927 26.747566 0.448036 3.000000
-11.595648 26.873131 0.475109 4.000000
5.851600 26.837862 0.445894 42.000000
-12.446674 26.961786 0.482056 6.000000
-10.919231 26.917780 0.471539 8.000000
5.788251 26.953871 0.447517 45.000000
4.573531 27.040337 0.445180 2.000000
4.412533 27.123806 0.446089 8.000000
4.854929 27.145638 0.447647 33.000000
5.039971 27.193249 0.448945 10.000000
5.216759 27.192467 0.449465 33.000000
4.696503 27.246552 0.448815 18.000000
4.777235 27.204088 0.448361 25.000000
4.963114 27.256165 0.449724 12.000000
5.143906 27.275536 0.450568 15.000000
5.592570 27.293242 0.452256 45.000000
5.774704 27.308434 0.453100 42.000000
-11.050922 27.490021 0.480953 5.000000
5.720675 27.479147 0.455632 26.000000
5.551858 27.534149 0.455957 42.000000
5.498015 27.716223 0.458684 14.000000
-11.359729 28.003681 0.490561 6.000000
-11.182071 28.070786 0.490496 9.000000
-11.006944 28.144213 0.490561 5.000000
5.489800 28.137680 0.465371 34.000000
4.790327 28.873466 0.475109 7.000000
5.555098 28.956070 0.478615 2.000000
4.636527 29.076775 0.477966 9.000000
5.439838 29.095909 0.480498 18.000000
4.479755 29.275331 0.480758 13.000000
5.129336 29.209139 0.481407 2.000000
4.603190 29.462643 0.484069 15.000000
4.804915 29.535776 0.485757 11.000000
4.448794 29.696661 0.487445 13.000000
4.732255 29.677111 0.487834 16.000000
4.943502 29.796724 0.490301 12.000000
5.030417 29.741610 0.489652 20.000000
4.372880 29.829205 0.489393 16.000000
4.215356 30.069973 0.492898 5.000000
4.304125 30.016991 0.492249 12.000000
-1.777556 -36.872314 0.599243 9.000000
-2.532966 -36.042343 0.586518 4.000000
15.520508 -32.020088 0.577623 13.000000
15.650867 -32.032261 0.578727 2.000000
15.762026 -32.004463 0.579117 3.000000
15.933146 -31.970964 0.579863 16.500000
16.255360 -31.985706 0.582428 7.000000
15.999933 -31.729500 0.576844 7.000000
14.857126 -31.402122 0.563925 15.000000
14.714223 -31.354507 0.562237 15.000000
-11.173880 -30.633425 0.529320 1.000000
13.514876 -30.656738 0.543863 18.000000
-10.768618 -30.562004 0.526009 1.000000
-10.590359 -30.514223 0.524321 2.000000
-10.484047 -30.517084 0.523802 4.000000
-10.324747 -30.520643 0.523023 8.000000
-10.170696 -30.538645 0.522503 7.000000
-10.070951 -30.559052 0.522309 29.000000
9.636988 -30.583328 0.520523 40.500000
13.624942 -30.516068 0.542500 59.000000
9.754813 -30.455711 0.519127 72.000000
13.918597 -30.400852 0.542760 59.000000
9.833199 -30.371645 0.518219 255.000000
12.991354 -30.369631 0.536202 13.000000
13.681328 -30.385592 0.540942 56.000000
9.953667 -30.256561 0.517050 255.000000
12.777328 -30.262817 0.533248 12.000000
13.039157 -30.218502 0.534255 20.000000
13.753573 -30.291477 0.540033 63.000000
10.089843 -30.190378 0.516725 30.000000
12.539956 -30.095699 0.529256 16.000000
13.100163 -29.843006 0.529061 2.000000
9.452319 -15.033296 0.596230 27.000000
9.209612 -14.958309 0.589787 2.000000
9.458684 -14.870002 0.591711 16.000000
9.800425 -14.851841 0.597438 7.000000
9.196595 -14.780630 0.584485 12.500000
9.476959 -14.761880 0.588982 47.000000
9.811639 -14.767700 0.595290 3.000000
9.700165 -14.500883 0.585760 6.000000
9.729491 -14.413724 0.583881 12.000000
10.043532 -13.946215 0.577036 2.000000
10.266829 -13.976591 0.582270 4.000000
10.075564 -13.898408 0.576364 8.000000
10.753669 -13.803750 0.587505 7.000000
10.639111 -13.568557 0.578915 33.000000
10.599953 -13.431507 0.574485 25.000000
10.276805 -13.363995 0.566029 106.000000
10.640699 -13.353247 0.573277 5.500000
10.184156 -13.157764 0.558647 7.000000
10.636488 -13.177263 0.568579 11.000000
9.654679 -13.057083 0.545224 20.000000
10.668184 -13.089815 0.566969 16.000000
9.682589 -12.966592 0.543345 64.000000
9.766312 -12.908663 0.543479 74.000000
9.863434 -12.910176 0.545493 44.000000
10.137325 -11.522840 0.515292 7.000000
2.094528 -11.434669 0.592351 5.000000
2.590440 -11.476004 0.599476 7.000000
10.260584 -11.443600 0.516052 13.333333
10.391461 -11.407986 0.518111 15.000000
-2.924733 -11.341768 0.596829 18.000000
-2.394302 -11.322602 0.589705 2.000000
1.790994 -11.385037 0.587262 16.000000
-2.323712 -11.161896 0.580952 25.000000
-2.236685 -11.122553 0.578102 19.833334
-3.424158 -11.027623 0.588382 15.000000
-3.119309 -11.082443 0.586651 15.000000
-2.127027 -11.087167 0.575252 10.000000
1.835438 -11.034234 0.569980 28.400000
3.475754 -11.030259 0.589298 8.750000
3.587593 -11.021763 0.590621 0.500000
-4.224705 -10.937209 0.597440 30.000000
-3.683667 -10.945793 0.588483 15.000000
-2.981067 -10.952798 0.578407 22.000000
3.129455 -10.942532 0.579934 38.000000
3.279325 -10.944438 0.582173 10.000000
-3.980592 -10.807290 0.586855 16.000000
-3.842652 -10.851412 0.586584 4.000000
-3.752608 -10.812467 0.583191 13.000000
-3.030963 -10.899748 0.576474 69.000000
3.180533 -10.862558 0.576745 58.333332
3.029880 -10.721654 0.567721 57.000000
-3.967181 -10.667425 0.579934 4.000000
-3.952290 -10.352736 0.564667 46.250000
1.840808 -10.354658 0.535898 63.666668
1.769569 -10.202238 0.527620 78.000000
1.977444 -10.249445 0.531895 2.000000
2.841606 -10.239210 0.541462 43.500000
-4.640843 -10.122391 0.567415 27.000000
-3.209725 -10.167570 0.543294 102.000000
-2.521254 -10.104681 0.530673 8.500000
2.752117 -10.164330 0.536576 33.500000
-5.452769 -10.061563 0.583140 5.500000
-3.131332 -10.028886 0.535355 1.000000
1.866150 -10.010328 0.518867 44.000000
4.328664 -10.031765 0.556729 16.000000
-4.710071 -9.982265 0.562428 2.000000
-3.162705 -9.910065 0.530063 29.000000
4.349000 -9.992476 0.555304 6.000000
4.536571 -9.908730 0.555304 3.000000
-4.681347 -9.841157 0.555304 13.000000
1.971476 -9.884230 0.513574 32.000000
2.551004 -9.849819 0.518460 5.000000
3.469115 -9.862072 0.532709 24.000000
4.534191 -9.821889 0.551233 1.000000
11.621482 -9.820915 0.510862 13.000000
-4.729088 -9.782781 0.553675 23.000000
-3.202197 -9.716672 0.521310 26.000000
-3.148409 -9.724424 0.520835 21.000000
-2.814086 -9.762629 0.517713 14.333333
2.108788 -9.770041 0.509300 58.000000
2.579738 -9.750061 0.513914 33.000000
2.984956 -9.793932 0.521717 12.000000
3.461295 -9.741961 0.526806 24.000000
4.954424 -9.711018 0.555507 6.500000
-4.755488 -9.605318 0.546144 23.333334
-3.534573 -9.690105 0.525584 10.000000
-3.363003 -9.641029 0.520292 12.000000
-3.272714 -9.674053 0.520394 10.500000
2.012174 -9.614963 0.500547 36.000000
2.110398 -9.630692 0.502379 66.000000
2.289145 -9.623987 0.504075 19.666666
3.469584 -9.637162 0.521920 20.000000
4.291518 -9.611804 0.536373 16.000000
4.565051 -9.648722 0.543904 51.000000
11.777683 -9.670849 0.511668 15.000000
4.753209 -9.575276 0.544719 29.000000
4.937836 -9.566881 0.548586 17.000000
11.920726 -9.570813 0.513278 20.000000
12.006987 -9.578193 0.515694 5.000000
14.980515 -9.595179 0.597304 7.000000
-4.771438 -9.449981 0.539426 24.500000
-3.345746 -9.448092 0.510725 14.000000
3.150005 -9.405642 0.505432 19.200001
4.212594 -9.487975 0.528977 11.333333
4.684666 -9.462065 0.538001 27.333334
4.983744 -9.473003 0.545431 5.000000
-4.754150 -9.306439 0.532505 27.000000
-3.383328 -9.366769 0.507468 28.000000
3.241013 -9.377834 0.505585 16.500000
4.512155 -9.346289 0.528841 33.000000
4.694565 -9.309801 0.531284 7.000000
5.027089 -9.375481 0.542072 0.000000
15.252728 -9.302999 0.599854 18.000000
-4.800741 -9.218282 0.529605 26.750000
-3.321599 -9.287076 0.502582 19.000000
-15.206003 -9.133101 0.595559 38.500000
-15.152573 -9.198425 0.595156 49.000000
-4.863504 -9.127708 0.527009 26.500000
11.865053 -9.104376 0.502138 10.000000
-4.889851 -9.006161 0.522192 14.666667
11.858626 -9.040396 0.500661 3.000000
12.762895 -8.989897 0.524151 22.000000
-15.417096 -8.836604 0.596632 2.000000
-5.000978 -8.810474 0.516221 2.000000
-4.938841 -8.884262 0.517951 13.166667
12.753473 -8.863894 0.521466 2.000000
-5.065725 -8.731809 0.514389 1.500000
-15.582812 -8.673280 0.598780 44.000000
-5.100636 -8.635038 0.511030 3.500000
-15.598443 -8.554053 0.597304 39.000000
-15.573540 -8.445198 0.594820 43.000000
2.122355 -8.446056 0.595529 15.000000
-15.650182 -8.391552 0.596230 44.000000
-15.887407 -8.136998 0.599317 32.000000
13.644088 -8.146422 0.533547 2.000000
-15.816806 -7.913565 0.593814 27.000000
-15.738319 -7.967202 0.592270 44.500000
3.670695 -7.783054 0.588457 20.666666
3.752426 -7.734941 0.587911 19.000000
13.705184 -7.722474 0.528177 12.000000
13.565392 -7.587655 0.521869 6.000000
8.449676 -7.441545 0.573726 10.500000
8.501222 -7.416090 0.574845 9.000000
14.064414 -7.465592 0.534620 14.000000
14.039238 -7.367653 0.532338 7.500000
-16.047895 -7.255999 0.591331 26.500000
8.036346 -7.235960 0.551029 14.000000
-14.862252 -7.117643 0.553278 24.500000
14.054089 -7.151710 0.529453 22.000000
8.360357 -7.065051 0.557746 2.000000
-14.725915 -6.910667 0.546164 44.000000
13.900606 -6.936645 0.521600 1.000000
-14.809170 -6.893045 0.548446 18.000000
-14.505381 -6.862858 0.538781 41.000000
-14.806101 -6.610686 0.544419 39.000000
-14.681900 -6.638326 0.540996 18.500000
-14.523651 -6.677045 0.536701 39.500000
-14.742718 -6.526919 0.541332 43.000000
14.905434 -6.524419 0.546298 5.000000
-15.574580 -6.432106 0.565761 1.000000
-14.763151 -6.480567 0.541332 33.000000
14.780880 -6.359537 0.540258 0.000000
-14.442534 -6.285789 0.528849 80.000000
-14.810800 -6.008022 0.536634 6.000000
-14.391771 -6.007183 0.523614 42.400002
-14.237662 -6.064049 0.519587 42.000000
-14.084136 -6.077250 0.515023 45.000000
-14.755417 -5.931637 0.533949 38.000000
-14.651258 -5.996973 0.531533 24.000000
-14.692272 -5.852707 0.530996 37.000000
-14.641514 -5.752746 0.528177 28.500000
-14.774917 -5.618367 0.530728 13.000000
-14.656425 -5.626071 0.527104 11.000000
-14.590215 -5.653315 0.525359 31.000000
-14.467706 -5.432295 0.518871 28.333334
8.875432 -5.223857 0.524770 6.000000
9.045431 -5.209758 0.531895 11.000000
9.046481 -5.097555 0.529113 12.666667
10.383041 -4.992502 0.587059 10.666667
10.528884 -4.927608 0.592351 2.000000
