# This PCD file was generated using the MATLAB® pcwrite function
# from Computer Vision Toolbox®.
# .PCD v.7 - Point Cloud Data file format
VERSION .7
FIELDS x y z intensity
SIZE 4 4 4 4
TYPE F F F F
COUNT 1 1 1 1
WIDTH 1228
HEIGHT 1
VIEWPOINT 0 0 0 1 0 0 0
POINTS 1228
DATA ascii
6.729984 0.582880 1.425756 4.000000
5.847481 1.096386 1.477063 1.500000
5.244036 1.180833 1.436598 2.000000
5.647483 1.497403 1.450558 20.000000
5.288201 1.829124 1.495467 15.500000
5.086756 1.931261 1.454155 20.000000
4.879281 2.084210 1.418008 46.000000
4.910714 2.079419 1.425238 31.000000
-16.589672 3.949161 1.464377 1.000000
-16.479326 4.032409 1.456848 3.666667
-16.440559 4.187661 1.456848 3.333333
-19.436794 6.579022 1.403236 63.000000
-19.470510 6.727082 1.408694 63.000000
-19.493723 6.872505 1.413470 63.000000
-19.517754 7.019151 1.418382 63.000000
-19.550070 7.169824 1.423976 59.500000
-19.584999 7.322572 1.429844 50.000000
-19.618778 7.476034 1.435711 41.000000
-19.655117 7.631664 1.441851 29.500000
-19.687674 7.751207 1.446900 18.000000
-19.715145 7.833656 1.450720 21.000000
-19.737200 7.950356 1.455087 19.500000
-19.769751 8.071911 1.460272 17.000000
-19.943993 8.585110 1.484832 5.000000
-19.969110 8.707754 1.489745 20.500000
2.814649 13.508297 1.426901 25.000000
2.922878 13.599264 1.438422 20.000000
3.178499 13.800495 1.464480 29.000000
3.281380 13.881351 1.475041 57.000000
2.454544 13.963592 1.466126 0.666667
2.537081 13.919221 1.463109 9.000000
2.772057 14.077133 1.483681 15.500000
4.882482 15.802034 1.420230 6.000000
3.241163 16.059908 1.406884 7.000000
1.869802 16.284683 1.407568 1.000000
2.089771 16.245846 1.406541 14.666667
2.256274 16.259769 1.409621 33.000000
4.911033 16.255869 1.458217 4.000000
3.977879 16.480330 1.455822 1.000000
2.221389 16.582302 1.436657 24.000000
1.838472 17.118179 1.478408 17.000000
1.929175 17.280659 1.493124 27.000000
2.098186 17.313143 1.497573 23.000000
6.955299 20.442749 1.476646 1.000000
7.024676 20.435894 1.477737 23.000000
7.829291 20.449320 1.497386 6.000000
7.133352 20.541899 1.487016 18.000000
16.152773 22.330585 1.404340 16.000000
16.229401 22.585602 1.417164 24.000000
16.199759 23.101397 1.437724 13.666667
15.807371 23.207527 1.430803 26.000000
15.909572 23.200583 1.433449 13.000000
16.076698 23.209072 1.438640 23.500000
15.953123 23.740751 1.457469 15.000000
15.885308 23.963718 1.465000 18.000000
16.018171 24.000084 1.470293 6.000000
15.867062 24.100254 1.470293 3.000000
15.747959 24.249729 1.473346 2.000000
14.634720 24.686924 1.462354 30.000000
14.753164 24.709425 1.466425 9.000000
15.059194 24.865685 1.481285 5.000000
14.640560 25.054317 1.478639 26.000000
14.403450 25.375278 1.486781 7.000000
14.734178 25.397352 1.496144 13.000000
14.578501 25.434826 1.493837 24.000000
3.053501 -30.592102 1.566575 8.000000
3.433660 -30.515587 1.564743 10.000000
3.622964 -30.473577 1.563725 4.000000
5.157558 -30.300312 1.566168 1.000000
4.372207 -30.266155 1.558229 16.000000
-1.453476 -30.149824 1.538077 1.000000
4.165562 -30.174311 1.552123 3.000000
4.443921 -30.094194 1.550087 4.000000
-1.351376 -29.990622 1.529731 3.000000
3.914880 -29.736494 1.528306 1.000000
3.808213 -29.645626 1.523014 32.000000
-1.793668 -29.495176 1.505712 3.000000
4.821817 -29.445101 1.520368 31.000000
3.676329 -29.348265 1.507136 9.000000
4.142446 -29.326454 1.509172 35.000000
5.095704 -29.378668 1.519350 28.000000
4.398983 -29.155758 1.502455 35.000000
5.133065 -29.051739 1.503269 13.000000
5.263092 -28.989857 1.501335 24.500000
5.403708 -28.986362 1.502455 8.000000
6.358557 -29.016947 1.513650 14.000000
6.452288 -29.008526 1.514261 21.000000
9.727988 -28.806303 1.549273 3.000000
9.777159 -28.654615 1.542759 36.000000
11.943033 -28.663094 1.582249 14.000000
12.031475 -28.621748 1.582045 5.000000
9.460167 -28.306288 1.520775 7.000000
9.094533 -28.090141 1.504490 14.000000
13.172180 -26.959190 1.528917 33.000000
13.463217 -26.908876 1.533192 19.000000
13.473942 -26.720201 1.524846 26.000000
13.007948 -26.412365 1.500216 8.000000
-2.042736 -22.061888 1.515124 5.000000
-8.085247 -20.726894 1.521401 6.000000
-8.214879 -20.486795 1.509393 20.000000
-8.569610 -20.436201 1.515397 7.000000
-8.911963 -20.350250 1.519217 15.000000
-8.653318 -20.366184 1.513214 8.500000
-6.584418 -17.360985 1.594422 13.000000
-7.731186 -16.925385 1.597845 2.000000
-8.538781 -16.451885 1.591685 0.000000
-9.757303 -15.851027 1.598358 38.750000
-9.870929 -15.729573 1.594651 41.666668
-10.134933 -15.600471 1.597502 45.000000
-10.015926 -15.631333 1.594194 47.000000
-8.841635 -15.513597 1.533335 4.500000
-8.781152 -15.577681 1.535560 24.000000
-0.979504 -15.271016 1.582429 11.000000
-0.162659 -15.277659 1.579960 8.000000
-2.961920 -15.167088 1.598064 1.000000
-0.681785 -15.072131 1.560210 10.000000
-0.913358 -14.976164 1.551570 32.000000
-1.327517 -14.845283 1.541284 13.000000
16.574827 -14.648702 1.512668 23.000000
-1.850818 -14.508356 1.512483 21.000000
-1.667486 -14.522632 1.511660 10.000000
-0.840574 -14.534080 1.505488 3.000000
-0.702214 -14.513536 1.502608 23.000000
-2.391145 -14.396955 1.509191 57.000000
-1.840279 -14.425542 1.503842 32.000000
-1.747831 -13.047273 1.594163 4.000000
-1.540350 -13.053398 1.591759 21.000000
-2.378721 -12.821939 1.579256 96.000000
-3.489087 -12.693010 1.594163 12.000000
-0.734376 -12.697854 1.540303 2.000000
-0.614289 -12.696278 1.539341 3.000000
-2.748969 -12.597347 1.561463 4.000000
-0.672738 -12.667452 1.536216 11.500000
-4.079441 -12.503235 1.592721 0.000000
-3.623002 -12.560409 1.583103 1.000000
-3.389889 -12.485470 1.566752 0.000000
-3.789677 -12.403212 1.570600 12.000000
-3.635741 -12.457479 1.571561 13.000000
-3.337277 -12.446197 1.560501 3.000000
-2.788040 -12.447340 1.544751 17.750000
-1.073606 -12.446509 1.512892 34.000000
-19.805258 -12.318176 1.594946 3.000000
-4.635018 -12.337798 1.596087 11.000000
-3.636626 -12.316507 1.555211 10.000000
-1.586856 -12.285419 1.500149 3.000000
-1.317837 -12.330099 1.501711 7.500000
-4.032895 -12.230142 1.559539 11.000000
-3.841198 -12.227180 1.552085 5.000000
-3.657119 -12.244143 1.547517 12.000000
-3.674896 -12.164169 1.538861 12.000000
-3.173642 -12.140359 1.519625 0.000000
-4.133336 -12.024531 1.539822 2.000000
-4.017950 -11.994480 1.531888 27.000000
-3.386834 -12.024873 1.512892 6.000000
-4.371498 -11.978061 1.544150 20.000000
-4.049495 -11.902119 1.522510 9.000000
-4.312249 -11.815735 1.523232 11.000000
-4.177781 -11.870225 1.523953 5.000000
-3.671538 -11.882847 1.506160 15.000000
-19.772577 -11.702826 1.571204 11.500000
-19.780216 -11.540164 1.566019 8.000000
-19.767029 -11.407897 1.560698 21.000000
-19.764679 -11.323922 1.557696 24.000000
-1.977496 -11.237870 1.584357 23.000000
-19.776388 -11.002873 1.547599 3.000000
-13.710718 -11.027644 1.510920 14.000000
-2.293921 -10.999554 1.560152 16.000000
-2.087573 -10.985376 1.552633 12.666667
-2.313685 -10.922526 1.550249 7.000000
-19.748329 -10.785059 1.538730 14.500000
-14.621803 -10.878921 1.564991 0.000000
-14.320845 -10.795452 1.540009 1.000000
-2.468208 -10.811447 1.539797 1.000000
-2.377186 -10.803360 1.535946 6.500000
-2.177654 -10.693815 1.515316 7.000000
-1.943343 -10.746920 1.516417 9.500000
-19.734007 -10.656792 1.533681 26.000000
-2.084534 -10.663876 1.508715 6.000000
14.531455 -10.584871 1.543773 1.000000
-19.734684 -10.537374 1.529860 29.500000
-11.107578 -10.537014 1.583252 4.000000
14.512979 -10.501785 1.538298 49.000000
14.491005 -10.382216 1.530769 47.000000
14.536548 -10.311503 1.530427 49.000000
14.609430 -10.260038 1.532993 52.500000
14.705070 -10.224096 1.537956 49.000000
14.822379 -10.236732 1.546853 18.000000
-19.722122 -10.174985 1.517580 22.000000
-11.306215 -10.133806 1.570085 1.000000
-19.732496 -10.062895 1.514715 32.500000
-19.711514 -9.896651 1.508302 17.000000
-15.736491 -9.959729 1.599214 6.000000
-14.615538 -9.839759 1.512973 1.000000
-19.703543 -9.738128 1.502980 10.000000
-15.636475 -9.759377 1.582787 1.000000
-14.911967 -9.503632 1.518449 1.000000
-15.097612 -9.455983 1.529742 4.000000
-15.084641 -9.088872 1.512289 14.000000
-11.782854 -8.998955 1.533192 7.666667
-9.556044 -9.065177 1.595125 0.000000
-15.256128 -8.932830 1.518106 7.000000
-15.803727 -8.727727 1.550276 0.000000
-15.772751 -8.775393 1.549933 1.000000
-15.164928 -8.688570 1.500824 5.500000
-9.627113 -8.547318 1.559058 1.000000
-9.729503 -8.448788 1.560501 3.000000
-9.630061 -8.100646 1.523953 1.000000
-12.763307 -7.910500 1.552804 0.000000
-13.101704 -7.782318 1.575845 22.000000
-12.558741 -7.300564 1.502196 1.000000
-12.840048 -7.249765 1.524826 2.000000
-12.695212 -7.063211 1.502334 3.666667
-12.873622 -6.899881 1.510425 0.000000
10.870940 -6.774522 1.551203 18.666666
10.938163 -6.721312 1.554730 11.000000
5.073066 -5.089027 1.516621 6.000000
-14.532794 -4.904947 1.586132 1.000000
-14.496501 -4.665507 1.574817 9.000000
-14.083273 -4.630317 1.533055 7.500000
-3.829824 -4.585294 1.596679 2.000000
-3.836750 -4.564366 1.593581 3.000000
-14.208639 -4.474546 1.540461 26.500000
-14.367438 -4.351468 1.552393 5.000000
-14.215559 -4.378747 1.538198 28.000000
-14.252396 -4.243396 1.537787 11.500000
-3.741736 -4.211024 1.505536 10.750000
-14.117593 -4.130947 1.521123 11.000000
-13.985257 -4.044574 1.505488 1.000000
4.657076 -3.883605 1.505496 0.750000
-14.502464 -3.704722 1.547867 2.000000
-14.249964 -3.711817 1.522769 1.500000
-14.645149 -3.643303 1.560622 5.000000
5.811985 -3.624682 1.573306 22.000000
-14.509688 -3.561233 1.544987 10.000000
-14.155231 -3.568682 1.509602 2.000000
4.804332 -3.494307 1.550083 11.666667
4.930390 -3.546783 1.507906 37.000000
5.303415 -3.543628 1.583566 38.000000
-14.381589 -3.481929 1.530175 22.000000
5.281359 -3.457341 1.567181 50.000000
5.416252 -3.417336 1.589992 37.000000
-14.483675 -3.290615 1.535935 8.500000
-14.324625 -3.325540 1.520712 17.000000
-14.283126 -3.363228 1.517420 22.000000
4.634051 -3.298686 1.520253 50.000000
5.139222 -3.341276 1.521881 42.000000
5.218937 -3.346642 1.539230 53.000000
5.412106 -3.375295 1.583566 19.000000
-14.536329 -3.158808 1.538301 1.500000
-14.703667 -3.026303 1.552393 2.500000
-14.536173 -2.991783 1.534701 2.000000
-15.196269 -2.830179 1.598475 18.000000
-14.697641 -2.832979 1.547867 2.000000
5.840702 -1.686937 1.509351 13.000000
8.074917 -1.214009 1.574085 1.000000
5.651295 -1.142581 1.540909 3.000000
7.456641 -1.049289 1.589313 23.000000
6.027810 -0.790378 1.509351 3.000000
6.673535 -0.094351 1.533011 18.000000
6.659394 -0.031367 1.529653 36.750000
6.713179 -0.010545 1.541965 24.000000
-11.440553 0.195700 1.588758 0.000000
-8.969648 0.209815 1.567496 16.000000
6.745587 0.120842 1.549666 15.800000
-11.416115 0.231163 1.585457 3.000000
-8.950929 0.279785 1.564571 51.500000
6.337688 0.268928 1.574892 16.000000
6.466390 0.304852 1.546507 22.000000
6.654871 0.289298 1.530026 12.000000
6.747766 0.243892 1.550920 1.000000
6.859900 0.355911 1.577783 5.000000
5.618237 0.495482 1.507344 24.500000
5.740952 0.415567 1.538327 30.500000
6.915697 0.467828 1.592110 0.000000
5.633161 0.523564 1.511991 0.000000
5.743303 0.588448 1.542975 0.000000
6.020607 0.655110 1.503568 20.000000
6.013327 0.718151 1.503568 9.666667
5.772502 1.167086 1.573958 2.000000
5.738283 1.527783 1.512185 7.333333
5.343452 1.904878 1.516122 7.500000
5.354232 1.924509 1.520598 13.000000
-3.347851 7.919625 1.502184 3.375000
-18.598045 11.916825 1.510485 1.000000
-18.439104 11.979018 1.503662 5.000000
-18.383505 12.107886 1.505300 6.000000
-18.495041 12.264824 1.517580 3.000000
-18.741846 12.513435 1.541049 5.000000
-18.700829 12.613895 1.542550 6.000000
-18.725307 12.759183 1.549509 3.000000
4.370281 14.384579 1.554656 36.000000
2.353580 14.451522 1.514128 11.000000
3.487759 14.449768 1.537169 30.000000
4.461009 14.437947 1.562679 44.000000
3.606234 14.539515 1.549101 41.666668
3.705397 14.547460 1.552393 4.000000
4.217562 14.535769 1.565148 30.000000
1.954497 14.765760 1.540255 3.000000
3.996106 14.903267 1.595595 37.000000
4.034566 14.859921 1.592303 35.000000
2.103535 14.987010 1.565011 11.666667
2.852785 14.983484 1.577286 81.500000
3.071161 14.974796 1.580783 37.000000
2.245211 15.050252 1.573583 20.250000
3.186609 15.056411 1.591480 3.000000
3.243091 15.089115 1.596006 1.000000
3.386901 15.065643 1.596829 29.000000
2.744458 15.124920 1.589629 65.000000
3.060308 15.163778 1.599710 79.000000
2.433611 15.244652 1.596418 53.000000
2.562789 15.232865 1.597378 36.000000
2.022774 17.376261 1.502193 18.500000
2.270048 17.359777 1.503391 4.000000
2.712788 17.707479 1.538298 6.000000
2.430526 17.720268 1.535902 4.000000
9.661350 20.383564 1.542550 7.500000
9.784102 20.393587 1.546780 4.000000
9.583004 20.466822 1.545416 5.000000
7.738543 20.598976 1.504754 20.000000
7.811709 20.596951 1.506391 20.000000
7.631042 20.707104 1.509120 17.000000
8.352547 20.642155 1.522765 1.000000
7.581002 20.772213 1.512122 6.000000
9.651446 20.782761 1.566974 10.000000
7.753118 20.836374 1.520309 23.000000
8.575777 20.878647 1.543505 16.666666
8.676912 20.875746 1.545961 4.000000
6.903544 20.935658 1.507483 4.000000
8.119352 21.009035 1.540231 3.000000
9.320567 20.924505 1.566429 11.000000
7.021009 21.069092 1.518672 0.000000
9.165859 21.110254 1.573797 11.000000
9.723004 21.110205 1.589352 9.000000
8.918449 21.174801 1.571204 9.500000
9.628047 21.254486 1.595629 7.000000
9.230456 21.443180 1.596447 3.000000
6.911576 21.880764 1.569158 6.000000
-13.803382 -19.202368 1.617188 1.000000
-6.806370 -18.469324 1.690245 6.000000
-7.857680 -17.060286 1.612903 5.000000
-7.951195 -16.981703 1.610165 6.000000
-9.093631 -16.616745 1.626592 15.000000
-9.508557 -16.502544 1.635489 13.000000
-9.553727 -16.342701 1.625565 3.000000
-9.601955 -16.229549 1.619291 24.666666
-9.613975 -16.038395 1.605716 48.500000
-9.656431 -15.938388 1.600240 41.000000
-10.487294 -15.707208 1.621800 32.000000
-3.440624 -15.766906 1.668833 4.000000
-2.866701 -15.727624 1.653198 1.000000
-1.853914 -15.710633 1.635917 14.000000
-10.308345 -15.615507 1.606743 59.333332
-10.212256 -15.611911 1.601951 55.000000
-3.087816 -15.551869 1.639620 1.000000
-1.071532 -15.557962 1.612670 9.000000
-3.147967 -15.472796 1.632831 7.000000
-0.369173 -14.004779 1.696594 3.000000
-19.877876 -13.934151 1.660032 1.000000
-1.758784 -13.786723 1.683129 39.000000
-1.591290 -13.859021 1.689380 3.000000
-0.801096 -13.851484 1.680243 24.000000
-0.758443 -13.869792 1.682167 20.000000
-2.328837 -13.754315 1.689380 29.000000
-1.872991 -13.655445 1.669183 6.000000
-0.316789 -13.644606 1.652832 2.000000
-1.080178 -13.513849 1.641772 3.000000
-0.526123 -13.510971 1.637444 11.000000
-2.532427 -13.415321 1.653313 34.000000
-2.333672 -13.398907 1.647062 2.000000
-2.052373 -13.396679 1.641291 15.000000
-1.331574 -13.459476 1.637925 6.000000
-0.461434 -13.483519 1.633837 4.000000
-1.107173 -13.324394 1.619170 26.000000
-3.301234 -13.046474 1.629750 15.500000
-3.674963 -12.892514 1.623498 12.000000
-3.348821 -12.976950 1.623017 7.000000
-19.819124 -12.806857 1.613640 19.000000
-4.140172 -12.825866 1.632154 7.000000
-0.688865 -12.207264 1.697683 10.000000
-1.173236 -12.095964 1.687414 31.000000
-0.897676 -12.165895 1.693832 30.000000
-0.608992 -12.148039 1.688881 6.500000
-2.033970 -12.000078 1.689981 11.000000
-1.305072 -12.013389 1.677878 3.000000
-1.075223 -12.000339 1.672927 12.000000
-1.709780 -11.894457 1.668526 2.000000
-1.221097 -11.938581 1.666326 31.000000
-0.914616 -11.886492 1.655323 5.000000
-0.748175 -11.925901 1.659174 11.000000
-1.972866 -11.865709 1.670176 29.000000
-0.998895 -11.883641 1.655873 8.250000
-1.718338 -11.693032 1.641020 7.000000
-3.908926 -11.601737 1.699883 8.000000
-1.896691 -11.633316 1.636619 3.000000
-1.606848 -11.564875 1.621215 11.500000
-2.092237 -10.615562 1.695899 19.500000
-12.233118 -10.488758 1.666364 2.000000
-12.079797 -10.556458 1.658958 6.000000
-2.166903 -10.556324 1.689086 12.000000
-2.057460 -10.525859 1.681033 15.000000
-11.846381 -10.484478 1.635917 5.000000
-16.643726 -10.099661 1.671765 19.000000
-12.819174 -10.178580 1.692697 10.000000
-12.535372 -10.017604 1.659369 3.000000
-12.332441 -10.047340 1.644969 3.000000
-16.755304 -9.952530 1.673476 4.000000
-12.973963 -9.908588 1.688171 26.000000
-12.367419 -9.947217 1.641266 2.000000
-12.719497 -9.841383 1.663072 103.000000
-9.881369 -9.734154 1.679762 0.000000
-9.332828 -9.728783 1.632635 0.000000
-16.353956 -9.644750 1.630356 3.000000
-10.020815 -9.596256 1.680243 0.500000
-13.265852 -9.486919 1.686525 5.000000
-13.061960 -9.248433 1.655049 14.500000
-13.148926 -9.155770 1.656901 2.000000
-10.504705 -8.892890 1.666778 1.000000
-13.014437 -8.881178 1.629334 2.000000
-12.881532 -8.849920 1.616167 0.000000
-12.857841 -8.715231 1.606293 3.000000
-10.526953 -8.742751 1.657160 2.000000
-6.490366 -8.316285 1.653471 4.500000
-6.528279 -8.284058 1.653161 2.000000
4.444757 -8.172613 1.625322 8.000000
4.505490 -8.131340 1.624117 9.750000
-11.593324 -7.491453 1.671587 3.000000
11.185418 -7.493689 1.630471 21.000000
11.192544 -7.396962 1.624700 29.000000
11.688894 -7.438047 1.677839 19.000000
11.728989 -7.411894 1.680243 20.000000
11.220505 -7.314563 1.622055 14.000000
11.292987 -7.261062 1.625902 17.000000
11.515152 -7.026121 1.633597 9.000000
11.489621 -6.961102 1.626864 31.000000
11.506950 -6.897695 1.624700 32.500000
11.580109 -6.748616 1.623154 46.285713
11.678160 -6.680028 1.629269 19.000000
-12.576632 -5.995992 1.687296 0.333333
-12.118569 -5.591869 1.616284 2.000000
-12.095695 -5.650528 1.616765 0.000000
-12.247730 -5.581677 1.629990 0.000000
5.065237 -5.194168 1.666433 1.000000
-14.808525 -4.946245 1.614522 3.000000
5.990998 -4.768867 1.616160 9.500000
-3.886012 -4.593594 1.608040 0.000000
5.029757 -3.876231 1.697117 16.750000
5.381572 -3.583736 1.605252 25.500000
5.596086 -3.417206 1.627902 43.000000
-19.439213 -3.117136 1.690587 0.000000
-19.435938 -3.022747 1.689047 5.500000
-15.719452 -3.081189 1.656489 0.000000
-15.280468 -3.045020 1.611230 4.000000
-19.433411 -2.866241 1.686823 2.000000
-15.298821 -2.865845 1.609584 16.333334
6.671686 -2.800409 1.661955 2.000000
6.741640 -2.804893 1.677178 1.000000
-19.431683 -2.710197 1.684770 4.000000
-15.491788 -2.784625 1.627688 0.000000
-15.312387 -2.702742 1.607938 0.000000
-19.444263 -2.618602 1.684770 0.000000
-19.397074 -2.550233 1.679978 0.000000
-19.411442 -2.057350 1.676214 1.000000
-19.404016 -1.810306 1.673476 1.000000
-19.365948 -1.745397 1.669712 0.000000
-19.379887 -1.654652 1.670225 3.000000
-19.379663 -1.501407 1.669141 14.333333
-19.367577 -1.378093 1.667316 7.000000
-19.391762 -1.257406 1.668685 0.000000
7.693487 -1.107278 1.640528 27.000000
-19.361567 -1.072331 1.665149 3.000000
-19.372753 -0.920357 1.665434 1.000000
-19.354784 -0.767209 1.663324 1.000000
6.182984 -0.692440 1.662777 10.000000
-19.339008 -0.614504 1.661498 4.500000
6.021965 -0.636122 1.618368 16.000000
6.217935 -0.656750 1.671040 11.500000
-19.340544 -0.462535 1.661270 4.333333
-19.338306 -0.310548 1.660814 5.000000
7.217096 -0.204095 1.658374 10.500000
-19.320183 -0.158492 1.659103 21.000000
6.496649 -0.163277 1.613445 16.500000
6.679777 -0.136422 1.658744 34.000000
6.759912 -0.106166 1.678503 17.000000
7.077680 -0.166795 1.626137 0.000000
-19.314224 -0.016851 1.658533 40.666668
6.737153 -0.063550 1.672720 7.000000
6.620172 0.103983 1.643805 19.000000
-19.309662 0.144921 1.658190 35.000000
6.779085 0.202382 1.683804 2.000000
-19.315075 0.266338 1.658761 20.000000
6.779988 0.234359 1.684286 4.000000
6.278413 0.385131 1.681109 1.250000
6.219018 0.420699 1.665876 12.000000
6.937344 0.441806 1.693326 5.500000
6.978931 0.803787 1.613601 1.000000
6.988606 0.838281 1.616735 0.500000
-19.265366 1.235705 1.657734 34.000000
-19.259304 1.326475 1.657734 87.500000
5.877177 1.381731 1.613548 17.333334
-19.257526 1.478413 1.658532 82.000000
5.870430 1.477911 1.617925 14.571428
-19.253963 1.630346 1.659274 77.000000
5.934288 1.658559 1.646769 2.750000
-19.243834 1.781813 1.659559 83.666664
-19.241840 1.934161 1.660643 83.000000
-19.234600 2.086167 1.661384 80.333336
-19.230858 2.238698 1.662525 76.000000
-19.227144 2.391473 1.663780 71.333336
-19.220978 2.544154 1.664921 66.000000
-19.217466 2.697423 1.666404 60.666668
-19.202299 2.849260 1.666974 57.500000
-19.199772 2.972283 1.668343 41.500000
-19.199396 3.126832 1.670396 44.666668
-19.197857 3.281551 1.672450 40.000000
-19.194986 3.436462 1.674503 51.333332
-19.192909 3.591866 1.676727 57.500000
-19.196007 3.748747 1.679522 43.000000
-19.200512 3.906405 1.682545 43.000000
-19.202892 4.032692 1.684941 32.500000
-19.214060 4.192896 1.688762 20.666666
-19.205200 4.349228 1.690930 30.000000
-19.218248 4.479309 1.694523 26.500000
-19.229906 4.577668 1.697432 5.000000
-18.468885 5.453204 1.653627 2.000000
-18.379105 5.489532 1.647125 4.000000
-18.324415 5.567370 1.644558 5.000000
-18.311321 5.657797 1.645756 5.000000
-18.358126 5.735497 1.651574 4.000000
-17.806728 7.368448 1.654825 1.500000
-17.730671 7.467869 1.652087 3.500000
-17.730131 7.566200 1.655338 3.000000
-17.764847 7.647072 1.660814 2.000000
-3.348557 7.925122 1.658506 2.875000
3.319055 13.381733 1.669664 36.500000
3.431996 13.386063 1.673511 11.000000
3.335347 13.447313 1.677839 29.000000
2.886713 13.534449 1.675915 38.500000
2.986869 13.687539 1.696594 13.000000
4.652842 14.837984 1.608075 24.666666
4.124468 15.004468 1.609173 18.000000
5.040820 14.969850 1.633448 14.000000
3.447488 15.113115 1.603001 6.000000
4.288601 15.045284 1.617813 35.000000
4.449361 15.069068 1.624808 18.000000
3.325681 15.126109 1.601561 26.000000
3.934458 15.147900 1.618430 32.500000
4.027682 15.211908 1.627277 42.000000
4.234339 15.124678 1.624191 37.000000
4.534256 15.180823 1.638386 14.000000
2.643251 15.318729 1.607527 40.000000
2.798209 15.351852 1.613699 6.000000
3.122685 15.727487 1.658135 23.000000
2.332568 15.892076 1.661015 40.000000
2.479168 15.849731 1.658958 44.000000
2.299028 16.013538 1.672947 28.000000
3.323527 15.950542 1.684879 5.000000
4.054037 15.916224 1.698457 27.000000
2.045672 16.085884 1.676856 25.125000
10.256554 21.038368 1.600541 44.000000
10.237321 21.167486 1.607909 7.000000
9.746172 21.336662 1.604088 10.000000
9.461164 21.420944 1.601359 4.000000
11.316975 21.804707 1.679954 6.000000
11.242935 21.829508 1.679135 9.000000
11.105360 21.984764 1.684320 26.000000
9.501848 22.073647 1.643386 5.000000
9.636992 22.068668 1.646751 15.333333
10.822446 22.023216 1.678043 4.000000
11.005170 22.044043 1.684866 22.000000
8.441581 22.152718 1.621145 14.000000
8.566751 22.166691 1.625101 33.000000
8.650850 22.176846 1.627831 40.000000
9.443419 22.129082 1.645296 8.000000
9.965130 22.183775 1.663034 7.000000
10.962432 22.132149 1.688959 9.000000
11.305058 22.120575 1.698784 7.000000
8.031132 22.222103 1.615823 33.000000
8.198195 22.246094 1.621281 16.000000
8.307114 22.218403 1.622100 4.000000
8.178890 22.410446 1.631378 28.000000
7.976646 22.512865 1.633288 18.000000
8.055400 22.510239 1.634926 25.000000
8.261858 -34.334099 1.799444 4.500000
-2.014247 -26.237341 1.799483 8.000000
-1.678770 -26.172964 1.793479 1.000000
-1.345640 -26.112286 1.788021 0.000000
-1.016159 -26.095232 1.785838 31.000000
-1.751877 -26.032185 1.784200 7.000000
-1.094947 -26.016155 1.780653 12.000000
-2.151965 -25.898056 1.777105 3.000000
-1.905735 -25.889328 1.775195 3.000000
-1.253763 -25.913097 1.774103 2.000000
-2.062007 -25.797283 1.769737 5.000000
-1.170544 -25.877043 1.771374 9.000000
-2.282295 -25.522316 1.752272 2.000000
8.766269 -24.442913 1.775741 26.000000
8.843016 -24.415251 1.775741 255.000000
8.915565 -24.376108 1.774922 255.000000
9.021292 -24.309479 1.773148 255.000000
9.163960 -24.226191 1.771238 255.000000
9.315308 -24.166260 1.771101 133.000000
10.771659 -23.934509 1.794843 9.000000
-6.365976 -19.935223 1.797019 2.000000
-8.578386 -19.096695 1.797704 4.000000
-8.589005 -18.960743 1.787437 0.000000
-8.200830 -18.969097 1.774603 0.500000
-8.305266 -18.803886 1.765192 29.000000
-8.247748 -18.833534 1.765535 0.000000
-7.901589 -18.843151 1.754583 9.000000
-7.213190 -18.840126 1.732339 17.000000
-7.068045 -18.814190 1.725837 14.000000
-7.371453 -18.723101 1.727890 18.000000
-7.197602 -18.740726 1.723897 21.333334
-7.592587 -18.595785 1.724810 12.000000
-9.127608 -18.574295 1.777170 17.000000
-7.718453 -18.569796 1.726863 19.000000
-7.519180 -18.582603 1.721388 4.000000
-9.697375 -18.400496 1.786068 5.000000
-8.555820 -18.423513 1.744317 1.000000
-8.229706 -18.475538 1.736788 8.000000
-9.916417 -18.256174 1.784015 0.000000
-9.346579 -18.008289 1.742263 1.000000
-8.513288 -17.888638 1.701196 1.000000
-0.359447 -16.607508 1.717795 8.500000
-0.462635 -16.563160 1.713475 6.500000
-12.659524 -15.661132 1.729259 0.000000
-1.792009 -14.594946 1.780750 15.500000
-2.403376 -14.470600 1.776422 4.000000
-2.116885 -14.113859 1.728333 21.000000
-2.538837 -14.054163 1.729535 17.000000
-1.343034 -14.024905 1.706212 28.000000
-1.013351 -14.068481 1.708135 9.000000
-0.635050 -14.038968 1.701884 10.000000
-0.414106 -14.035303 1.700441 3.000000
-2.941097 -13.896398 1.720158 5.000000
-2.711803 -13.886317 1.713425 21.000000
-2.891758 -13.878355 1.716791 58.000000
-4.876424 -13.762959 1.768247 6.000000
-2.033330 -12.722936 1.789003 29.000000
-1.630179 -12.760876 1.786253 0.000000
-0.854560 -12.665419 1.762597 1.000000
-0.441411 -12.642834 1.756546 7.000000
-0.528309 -12.500805 1.737292 4.000000
-1.667658 -12.432309 1.741693 4.000000
-4.030297 -12.301749 1.797438 13.666667
-3.604129 -12.341146 1.785152 16.000000
-2.813881 -12.325590 1.755446 7.000000
-1.299734 -12.324761 1.720788 3.000000
-1.147686 -12.371680 1.725189 11.000000
-0.558054 -12.289314 1.708135 10.000000
-3.087134 -12.272262 1.757096 10.000000
-2.855109 -12.188330 1.738172 19.000000
-0.865034 -12.247697 1.704834 105.000000
-3.591240 -12.154982 1.759847 10.000000
-3.098272 -12.155004 1.741693 10.000000
-2.940597 -12.118004 1.731424 11.333333
-2.090542 -12.102945 1.705384 26.000000
-4.140238 -12.037779 1.767548 15.000000
-3.114649 -12.060815 1.729590 27.000000
-3.379804 -11.849194 1.710886 0.000000
-3.185054 -11.870206 1.706485 0.000000
-4.241371 -11.615212 1.716937 5.000000
-3.950462 -11.604403 1.702084 9.000000
-3.881230 -11.640270 1.703734 0.000000
-12.482708 -11.259223 1.738367 0.000000
-2.027086 -11.012264 1.755051 8.000000
-2.061722 -10.911350 1.740495 21.000000
-1.956702 -10.918628 1.738637 6.000000
-10.173576 -10.773262 1.794456 1.000000
-2.477595 -10.621692 1.709526 4.500000
-12.973171 -10.501718 1.726024 0.000000
-12.726292 -10.501909 1.706275 1.000000
-2.517564 -10.567623 1.702712 11.000000
-10.229107 -10.463874 1.772094 4.000000
-13.210670 -10.321304 1.733636 16.500000
-13.063505 -10.305828 1.720675 3.000000
-10.085507 -10.382024 1.752858 2.000000
-13.312486 -10.101065 1.728081 38.000000
-13.210901 -10.155411 1.723144 54.000000
-9.826687 -10.179386 1.713425 0.000000
-13.258154 -9.961695 1.714915 26.000000
-11.223155 -9.684149 1.795177 3.000000
-14.278325 -9.547687 1.776221 4.000000
-14.036530 -9.578665 1.757294 6.000000
-11.557235 -9.295579 1.796139 31.000000
-11.524342 -9.209642 1.786521 7.000000
-9.255688 -8.860403 1.779101 2.000000
-14.976938 -8.087872 1.760174 4.000000
-9.832083 -8.110707 1.769749 10.000000
4.471620 -8.149025 1.791857 7.750000
-12.559310 -7.948870 1.799986 23.000000
-10.011167 -7.894997 1.770299 2.000000
-9.910007 -7.967873 1.765623 4.500000
-9.815890 -7.892181 1.748844 2.000000
-9.686237 -7.888645 1.734541 25.000000
-10.004732 -7.839073 1.764798 10.000000
-9.840458 -7.810644 1.744443 9.000000
-14.980058 -7.315970 1.723967 6.000000
-14.983892 -7.230586 1.720469 1.000000
-15.185905 -7.181588 1.737133 0.000000
-19.574825 -7.055079 1.786752 1.000000
-19.588696 -6.921349 1.784015 8.500000
12.450003 -6.928117 1.725447 34.250000
-13.074847 -6.797639 1.784597 0.000000
12.564873 -6.876217 1.734584 56.000000
-19.595936 -6.751279 1.779794 5.666667
10.638665 -6.760587 1.750220 27.000000
10.767971 -6.759974 1.765348 20.000000
-13.335169 -6.564609 1.799986 1.000000
-12.663500 -6.184608 1.706692 1.000000
5.449991 -3.716338 1.762957 4.000000
5.581902 -3.729707 1.794199 15.250000
7.020224 -1.779019 1.798017 3.500000
8.270783 -1.216899 1.764435 1.000000
8.072512 -1.110103 1.719828 10.000000
6.609529 -0.951270 1.784645 0.000000
6.481823 -0.798152 1.745400 10.000000
7.161644 -0.401673 1.780829 13.000000
7.141304 -0.370511 1.775367 10.000000
6.370377 0.020010 1.702539 17.500000
7.129408 0.044775 1.770066 2.000000
-11.438651 0.195668 1.793144 16.000000
6.939826 0.141734 1.723321 12.000000
7.008652 0.187200 1.740670 1.000000
-11.414275 0.231125 1.789427 7.000000
-8.949805 0.267208 1.726017 0.666667
7.194901 0.305330 1.787897 4.000000
7.154337 0.416275 1.779223 2.000000
7.006041 0.673371 1.747416 0.000000
-16.471560 4.030514 1.753591 1.000000
-16.444380 4.188633 1.754825 0.000000
-19.234207 5.105638 1.708862 70.199997
-19.247208 5.258245 1.713345 76.000000
-19.265598 5.393579 1.717965 66.000000
-19.275387 5.527154 1.721901 62.500000
-19.284256 5.661052 1.725837 32.500000
-19.360907 6.137945 1.744089 78.333336
-19.376574 6.254724 1.748423 57.000000
-19.387135 6.325460 1.751161 33.000000
-19.413822 6.435575 1.756294 21.000000
-19.440952 6.580430 1.762455 5.500000
-19.472675 6.727833 1.769128 12.000000
-19.493450 6.883879 1.775231 39.333332
-19.514107 7.017839 1.780764 69.500000
-19.542585 7.167079 1.787437 73.000000
-19.571924 7.305999 1.793939 54.666668
2.786432 13.806723 1.705731 33.000000
3.038443 13.716859 1.701403 0.000000
2.860907 13.949613 1.724486 20.000000
4.218092 13.962187 1.766323 41.000000
2.251062 14.101125 1.729295 4.000000
2.429430 14.079550 1.730256 99.000000
3.302222 14.068051 1.749973 36.000000
4.117467 14.108055 1.779788 11.000000
3.380427 14.200539 1.767766 33.000000
3.938794 14.154856 1.779307 10.000000
4.461385 14.123915 1.793734 9.000000
5.505217 15.537633 1.704629 15.000000
5.235737 15.877872 1.728904 3.000000
5.433848 15.970958 1.744539 26.000000
5.367355 16.106701 1.755648 5.000000
5.227540 16.194437 1.759763 0.000000
5.630673 16.214638 1.774986 43.000000
5.600400 16.292450 1.781569 36.000000
3.630399 16.389212 1.735899 3.000000
5.728998 16.332031 1.789798 24.000000
1.683379 16.487186 1.713818 6.333333
1.821838 16.436096 1.710080 12.000000
1.992777 16.443359 1.712858 20.000000
2.763378 16.638140 1.744128 52.000000
2.354894 16.777193 1.751945 27.000000
2.734118 16.788113 1.758940 7.000000
8.636695 19.066017 1.797361 21.000000
8.706486 19.060543 1.799415 9.000000
16.648354 19.693693 1.763460 67.000000
16.759274 19.699045 1.768645 31.000000
16.547653 19.762730 1.762642 67.000000
16.490032 19.883512 1.766462 44.000000
16.281876 20.535254 1.792114 62.000000
16.376181 20.521433 1.795389 51.000000
16.238419 20.657656 1.796845 34.333332
13.436092 21.560812 1.737262 20.000000
13.554669 21.599619 1.743812 7.000000
13.656569 21.610909 1.748178 20.000000
13.120670 21.656273 1.731531 5.000000
13.298805 21.795496 1.745995 4.000000
13.363201 22.213747 1.772739 7.000000
13.022587 22.276560 1.764552 5.000000
13.291303 22.252192 1.772466 9.000000
12.084171 22.414618 1.741356 23.000000
12.183466 22.318342 1.738809 17.666666
12.992602 22.386391 1.770010 6.000000
12.008328 22.499044 1.743994 12.666667
-12.719843 22.947105 1.794161 76.000000
-12.576055 22.942101 1.789113 82.000000
-12.431679 22.934410 1.783928 82.500000
-12.257256 22.955744 1.779561 90.000000
-12.134033 22.985056 1.777378 90.000000
-12.048793 22.998323 1.775468 94.000000
-11.967283 23.018356 1.774103 97.000000
-11.850466 23.058489 1.772875 100.500000
-11.733547 23.098099 1.771647 84.000000
-11.686066 23.184740 1.775468 41.000000
7.859281 -34.817688 1.818782 1.000000
7.717765 -34.697926 1.811251 6.000000
7.540184 -34.669449 1.807892 17.000000
11.199179 -34.223484 1.834863 16.000000
11.296607 -34.157791 1.833235 9.000000
10.673869 -34.060360 1.818782 30.000000
10.767549 -33.984772 1.816543 27.000000
10.526601 -33.963989 1.811861 27.000000
10.804807 -33.733921 1.804940 4.000000
11.398529 -33.753071 1.815322 14.000000
-0.638851 -27.516304 1.882170 2.000000
3.339148 -27.392784 1.887083 12.000000
4.292886 -27.320194 1.891176 15.000000
4.387541 -27.361736 1.894997 15.000000
-4.345790 -27.222925 1.885172 1.000000
5.080332 -27.278147 1.897453 15.000000
-0.972293 -27.163124 1.858701 4.000000
-0.544472 -27.123178 1.855154 23.000000
-0.400272 -26.977989 1.845056 17.000000
-2.135139 -26.712221 1.832503 1.000000
-0.784301 -26.582323 1.818585 30.000000
-0.887262 -26.330166 1.801575 29.000000
-0.694055 -26.329342 1.801120 19.000000
10.857471 -25.504333 1.895542 42.500000
10.983877 -25.467571 1.896634 39.000000
11.445460 -25.219677 1.893905 36.000000
11.277732 -25.058998 1.879169 14.000000
11.886311 -25.032555 1.894997 12.000000
11.401750 -24.915068 1.873711 0.000000
11.072102 -24.810051 1.857883 35.000000
10.958576 -24.764429 1.851879 28.000000
12.087311 -24.749763 1.883535 8.000000
12.545060 -24.695612 1.894178 11.000000
12.111191 -24.217146 1.851606 15.000000
11.337783 -24.170626 1.825681 3.000000
12.377078 -24.176525 1.857337 4.000000
11.199512 -24.072247 1.815584 7.000000
12.072249 -23.950911 1.834141 8.000000
12.370634 -23.977930 1.845056 4.000000
12.442221 -23.931866 1.844511 5.000000
-7.316438 -20.649527 1.881206 5.000000
-6.949217 -20.637260 1.869913 0.000000
-8.118955 -20.433172 1.888051 16.000000
-6.842958 -19.907255 1.807628 1.000000
-8.963885 -19.788383 1.865464 29.666666
-9.061424 -19.673807 1.859988 4.000000
-8.274397 -19.559660 1.823713 15.000000
-9.078389 -19.389101 1.838428 8.000000
-9.410566 -18.999077 1.820633 14.000000
-9.444614 -18.844051 1.810024 1.500000
-12.476420 -17.706129 1.859988 9.000000
-8.856234 -15.944238 1.886077 6.000000
-1.278823 -15.390130 1.870196 1.000000
-0.163186 -15.327143 1.856251 5.000000
-2.844745 -15.069799 1.857212 1.000000
-0.633856 -15.060535 1.825473 10.000000
-2.191904 -14.933721 1.827878 17.000000
-1.335173 -14.930899 1.815374 3.000000
-1.148358 -14.958375 1.816817 2.000000
-3.191677 -14.849907 1.839419 25.000000
16.361576 -14.830572 1.896264 15.000000
16.403095 -14.727989 1.893013 38.000000
16.470846 -14.649223 1.892842 18.000000
16.539688 -14.571413 1.892842 14.000000
-1.797236 -13.398307 1.877023 4.000000
-1.632072 -13.447366 1.880874 10.000000
-1.543024 -13.417994 1.875373 2.000000
-2.363671 -13.310045 1.877023 12.000000
-2.022190 -13.324112 1.871247 68.500000
-1.921177 -13.365087 1.874822 9.000000
-2.766294 -13.264625 1.881424 6.000000
-1.943571 -13.225709 1.856118 29.000000
-0.685385 -13.254958 1.842915 13.000000
-2.748835 -12.976798 1.841815 11.000000
-4.016191 -12.847023 1.868955 7.333333
-2.014803 -12.866261 1.808258 2.000000
-5.003849 -12.703007 1.895727 2.000000
-4.841558 -12.728609 1.890914 5.250000
-3.807532 -12.739622 1.846216 25.000000
-2.788893 -12.769604 1.814859 2.000000
-4.619136 -12.527449 1.853918 1.000000
-4.442140 -12.530293 1.845941 8.000000
-3.616980 -12.531318 1.811008 1.000000
-3.290895 -12.579926 1.805507 13.000000
-4.242852 -12.463293 1.828062 1.000000
-4.326177 -12.325427 1.813759 10.500000
-1.752968 -11.928683 1.889769 7.000000
-0.767766 -11.937292 1.874904 9.000000
-12.741097 -11.860529 1.800085 22.000000
-0.796220 -11.800766 1.853844 3.000000
-12.815426 -11.780261 1.800085 6.000000
-0.978529 -11.751360 1.848270 29.000000
-2.998002 -11.608683 1.879239 7.000000
-0.935610 -11.679533 1.836501 20.000000
-1.934069 -11.520027 1.830927 11.000000
-13.251427 -11.434288 1.809959 7.000000
-2.008684 -11.415108 1.816681 28.000000
-1.920922 -11.442209 1.818539 14.000000
-3.091743 -11.379503 1.848270 10.000000
-2.995550 -11.258040 1.825972 12.000000
-14.563579 -10.906843 1.881551 10.000000
-14.543503 -10.820663 1.874557 17.000000
-10.296828 -10.801407 1.807199 1.000000
-14.819197 -10.703640 1.890397 6.000000
-14.679615 -10.779215 1.883334 8.666667
-14.988291 -10.541807 1.894923 2.500000
14.512448 -10.524633 1.853847 34.000000
-11.665678 -10.390003 1.891837 3.500000
-11.511621 -10.416065 1.880055 3.000000
-11.242567 -10.465538 1.860098 0.000000
14.496145 -10.420374 1.846167 33.000000
-11.784029 -10.297988 1.895203 1.000000
14.528859 -10.340403 1.844110 33.500000
14.608207 -10.259186 1.845961 46.500000
14.707033 -10.225462 1.852339 43.000000
14.814386 -10.231212 1.861802 36.000000
-11.578669 -10.182858 1.867311 5.000000
-11.709984 -9.976552 1.862983 3.000000
-19.693510 -9.848886 1.890789 7.000000
-19.695797 -9.772792 1.888051 20.000000
-11.319842 -9.705709 1.805757 3.000000
-9.715566 -9.507544 1.887475 2.000000
-19.706575 -9.395329 1.874704 1.000000
-9.584021 -9.437941 1.867671 0.000000
-19.682232 -9.194733 1.865464 1.000000
-11.712920 -9.240349 1.806718 9.000000
-15.117085 -9.140750 1.826829 2.500000
-19.685566 -9.083508 1.861700 1.000000
-15.199533 -8.963928 1.824772 29.000000
-15.255551 -8.868256 1.824772 13.000000
-15.331685 -8.784095 1.827240 0.000000
-12.897277 -8.712440 1.884864 8.000000
-10.461947 -8.685678 1.888026 4.000000
-15.365788 -8.675852 1.824772 0.000000
-15.681905 -8.532308 1.846167 12.000000
-15.314414 -8.551949 1.813868 17.500000
-9.834492 -8.509899 1.805782 7.500000
-12.732103 -8.398465 1.847113 0.000000
-12.639470 -8.451810 1.841343 9.000000
-9.851936 -8.444134 1.801656 4.000000
-15.903057 -8.363464 1.858099 4.000000
-6.533776 -8.291033 1.844235 2.000000
-6.490973 -8.317074 1.843202 1.000000
-12.836635 -8.237808 1.847113 25.000000
-10.683718 -8.263272 1.875373 4.000000
-12.775382 -8.141953 1.834610 61.000000
-13.695926 -7.563678 1.894722 2.000000
11.185522 -7.445738 1.865746 33.500000
11.368058 -7.388145 1.882524 1.000000
11.225471 -7.370943 1.864645 28.500000
11.202700 -6.983922 1.833013 4.000000
11.584094 -6.872664 1.870238 6.333333
11.686820 -6.810050 1.878123 12.000000
11.622667 -6.699537 1.862720 12.000000
11.600163 -6.589872 1.852451 22.666666
11.596818 -6.467986 1.843741 42.500000
11.670555 -6.437179 1.850617 21.000000
5.670057 -4.229421 1.890505 30.500000
5.708622 -4.070455 1.873809 20.666666
5.734895 -3.963629 1.863137 0.000000
6.911990 -3.029836 1.873678 4.000000
6.847357 -2.773465 1.834161 5.000000
7.396351 -1.398892 1.868858 1.000000
7.364418 -0.011568 1.828378 0.000000
-8.960060 0.211156 1.891646 9.000000
6.899076 0.137171 1.844202 34.500000
7.053717 0.160532 1.852194 3.250000
-8.967850 0.281854 1.893711 13.500000
7.087263 0.233870 1.895153 3.000000
7.064338 0.557529 1.835889 19.000000
7.242203 0.604326 1.804282 0.000000
6.943692 0.661878 1.864170 18.750000
-19.611115 7.473113 1.802153 34.000000
-19.652937 7.630801 1.810366 24.500000
-19.687256 7.751042 1.816868 23.000000
-19.703545 7.829047 1.820633 23.000000
-19.731091 7.947890 1.826622 18.500000
-3.348690 7.925441 1.815960 2.000000
-19.769091 8.071642 1.833637 19.000000
-19.935577 8.581487 1.863753 16.000000
-19.953320 8.700861 1.869228 33.500000
-19.999632 8.833405 1.877442 30.000000
-18.603329 11.920211 1.897291 2.000000
-18.434446 11.976002 1.887709 5.333333
-18.385502 12.109202 1.890446 6.000000
4.421445 14.204394 1.801589 27.000000
4.204462 14.406549 1.817458 30.000000
4.384931 14.351419 1.817298 31.000000
3.352912 14.488442 1.800948 39.000000
3.035129 14.566442 1.801909 26.000000
2.870875 14.700866 1.813932 27.000000
4.180052 14.664471 1.846633 75.000000
2.160189 14.717631 1.801429 26.000000
2.255492 14.722027 1.803673 14.333333
2.711929 14.747147 1.815855 44.500000
3.553601 14.722548 1.834129 5.000000
3.887461 14.729280 1.844829 39.500000
2.467138 14.854498 1.823550 32.000000
2.519096 14.877996 1.827397 27.000000
2.658504 14.849686 1.826916 44.000000
2.630402 14.963562 1.839900 44.000000
3.406291 14.932516 1.854808 7.000000
2.451098 15.050304 1.846633 39.000000
2.894320 15.072488 1.858655 96.000000
3.858476 15.049719 1.881497 11.000000
2.142258 15.332312 1.874813 27.200001
5.986974 16.404518 1.805845 26.000000
5.962454 16.498083 1.814074 26.000000
5.941428 16.602896 1.823537 41.000000
5.327929 16.684555 1.811194 14.000000
5.934419 16.748991 1.837526 0.000000
3.337119 17.088356 1.800496 1.000000
3.610062 17.057186 1.802965 26.000000
4.721361 17.175915 1.842052 3.000000
2.408688 17.561058 1.833000 1.000000
8.622479 19.194847 1.806944 14.000000
8.474766 19.351923 1.814130 6.000000
16.742178 20.317110 1.800301 37.000000
16.490549 20.532110 1.800847 2.000000
16.303322 21.377939 1.838507 5.000000
16.467598 21.453239 1.849423 1.000000
16.108894 22.115124 1.870982 24.000000
16.216047 22.115898 1.875348 14.000000
14.337782 22.222319 1.808488 17.000000
16.401567 22.222178 1.888720 2.000000
16.233315 22.483309 1.896361 11.000000
15.714382 22.601614 1.882443 7.000000
15.635273 22.792049 1.890085 3.000000
15.734013 22.782219 1.893359 12.000000
14.432559 22.838877 1.847512 3.000000
-13.009739 22.985222 1.806123 48.000000
-12.875615 22.972250 1.800847 73.000000
14.585650 22.921362 1.857883 11.000000
14.080355 23.076382 1.848604 4.000000
15.281959 23.044804 1.890903 2.000000
14.321670 23.143559 1.861157 5.000000
12.389627 23.508965 1.817221 3.000000
13.271754 23.893679 1.869071 14.000000
13.327266 23.817043 1.866342 1.000000
11.883750 24.087242 1.836733 44.500000
12.017632 24.072067 1.839871 18.000000
11.783232 24.169910 1.838780 8.000000
12.159564 24.166094 1.849969 4.000000
11.701168 24.291681 1.843828 17.000000
10.896235 -37.652203 1.997302 9.000000
10.511696 -37.197102 1.969618 3.000000
11.115306 -37.096283 1.973282 55.000000
11.221365 -37.026772 1.971450 67.000000
11.313052 -36.911133 1.967175 11.000000
10.675451 -36.459965 1.935828 13.000000
10.270523 -36.343678 1.924428 11.000000
10.363780 -36.238255 1.920561 18.000000
16.449219 -34.209503 1.934199 4.000000
16.537445 -34.118114 1.931960 18.000000
-0.262377 -28.909256 1.977002 9.500000
-0.126156 -28.912199 1.977139 11.000000
-0.035294 -28.888510 1.975501 2.000000
-0.488646 -28.860453 1.973864 8.000000
2.958967 -28.780724 1.978503 12.000000
3.407847 -28.706919 1.976866 12.000000
3.776112 -28.721178 1.980959 30.000000
4.421940 -28.729805 1.987782 1.000000
3.038856 -28.672073 1.971681 11.000000
3.130650 -28.678253 1.972772 31.000000
3.312148 -28.669910 1.973591 11.000000
-2.913740 -28.536640 1.961583 1.000000
3.210484 -28.577065 1.966496 34.000000
5.710784 -28.501583 1.987782 21.666666
4.735335 -28.388556 1.968133 28.000000
4.840553 -28.467962 1.974683 43.000000
6.499646 -28.401733 1.992421 27.000000
3.819454 -28.361135 1.956944 11.000000
6.250160 -28.333010 1.984097 9.000000
4.430408 -28.195387 1.951759 5.000000
5.910079 -28.265291 1.974683 41.000000
5.331692 -28.136412 1.958309 3.000000
5.423081 -28.135197 1.959400 16.000000
5.521417 -28.168934 1.962948 6.000000
6.047172 -28.040352 1.961583 16.000000
-3.474046 -27.931046 1.924742 2.000000
4.577193 -27.981892 1.938933 8.000000
5.930033 -27.922585 1.952032 38.000000
-3.729181 -27.837732 1.920649 5.000000
3.844220 -27.882507 1.924742 13.000000
-3.982306 -27.738146 1.916283 5.000000
-3.585689 -27.759975 1.914099 8.000000
3.718788 -27.613646 1.905367 2.000000
3.961507 -27.661812 1.910916 18.333334
4.077133 -27.643692 1.910825 8.000000
5.590561 -27.601753 1.925834 23.000000
5.693338 -27.662230 1.931292 31.000000
9.540349 -27.136631 1.967041 10.000000
10.864188 -26.319378 1.947120 11.000000
11.396545 -26.197756 1.953669 12.000000
12.370772 -26.158754 1.978776 7.000000
10.541165 -25.998800 1.918466 24.000000
10.645458 -26.020958 1.922559 11.000000
12.681428 -25.760715 1.963494 15.000000
13.257712 -25.500414 1.965404 15.000000
12.087152 -25.148933 1.908096 8.000000
12.965288 -25.130545 1.933748 15.000000
13.141447 -25.083937 1.936477 4.000000
12.352555 -24.894966 1.900455 16.000000
-2.046246 -22.099792 1.905846 1.000000
-7.815003 -21.002686 1.924327 1.000000
-9.458907 -20.368156 1.928433 26.000000
-9.533955 -20.196602 1.917824 6.000000
-9.809695 -20.121775 1.922273 2.000000
-13.481396 -18.879307 1.992087 5.000000
-12.768742 -18.488621 1.929460 10.000000
-13.270805 -18.461481 1.952389 4.000000
-13.286684 -18.361582 1.946229 1.000000
-13.000061 -18.326710 1.929460 0.000000
-13.276896 -18.107397 1.928091 1.000000
-13.029880 -17.888090 1.900371 0.000000
-7.407981 -17.822830 1.995934 2.000000
-7.451628 -17.770117 1.992642 19.000000
-7.908589 -17.313761 1.968367 2.000000
-7.962425 -16.731131 1.916113 4.000000
-8.893582 -16.373131 1.926811 3.000000
-9.546840 -16.213791 1.945737 18.000000
-2.890832 -16.147419 1.986573 3.000000
-9.551874 -16.048954 1.931337 49.500000
-2.102780 -16.080610 1.963971 0.000000
-9.620680 -15.935809 1.924959 44.500000
-9.742854 -15.827499 1.921976 41.250000
-0.268024 -15.830058 1.917324 10.000000
-10.418540 -15.710890 1.949440 55.000000
-9.985992 -15.692993 1.923519 53.000000
-9.875173 -15.736280 1.921187 43.666668
-3.223109 -15.715682 1.942811 4.000000
-10.327548 -15.680409 1.941623 66.000000
-10.171046 -15.655926 1.930651 62.000000
-10.035244 -15.661545 1.923519 46.000000
-2.997663 -15.610652 1.925018 0.000000
0.047574 -14.338345 1.990899 1.500000
-0.466882 -14.223806 1.976045 8.000000
-1.749236 -14.043707 1.965043 9.000000
-1.032955 -13.999273 1.949089 0.000000
-3.069964 -13.847708 1.969444 5.000000
-2.622447 -13.878908 1.961192 9.000000
-2.572321 -13.852020 1.956241 27.000000
-1.235039 -13.784012 1.921583 5.000000
-3.449592 -13.533287 1.939187 5.000000
-3.655506 -13.454494 1.935886 8.000000
-3.585672 -13.475990 1.936253 9.666667
-3.698306 -13.362629 1.925159 4.000000
-4.939652 -12.774845 1.901779 4.000000
-0.297201 -12.705362 1.991969 0.000000
-1.735096 -12.633716 1.998782 61.000000
-0.975616 -12.679261 1.993208 3.000000
-0.651984 -12.609005 1.978962 3.000000
-1.761579 -12.534284 1.983917 11.000000
-0.924146 -12.524623 1.968432 82.000000
-0.607960 -12.520207 1.964716 3.000000
-0.253764 -12.532392 1.964716 32.000000
-1.983798 -12.413004 1.970290 30.000000
-3.092654 -12.294206 1.987014 9.000000
-3.035927 -12.230989 1.975245 14.000000
-1.602838 -12.240782 1.934985 8.000000
-1.161971 -12.111836 1.907112 22.000000
-0.859736 -12.172690 1.912687 33.000000
-2.927866 -12.010672 1.937669 15.666667
-2.681916 -12.007915 1.928481 6.000000
-1.851384 -12.007736 1.904325 13.250000
-3.062137 -11.857471 1.919500 9.000000
-3.294084 -11.734856 1.910416 3.666667
-1.829885 -11.223562 1.986734 69.000000
-1.688118 -11.241774 1.986046 7.000000
-12.164576 -11.111676 1.995229 1.000000
-14.948760 -10.690432 1.900478 4.000000
-19.735620 -10.657663 1.926038 1.000000
-19.728306 -10.494145 1.918851 2.000000
-15.167192 -10.490521 1.907061 0.000000
-11.981230 -10.404116 1.921652 3.000000
-19.722836 -10.372313 1.913547 1.000000
-19.727459 -10.217020 1.907729 1.000000
-12.887356 -10.232718 1.992824 28.000000
-19.748810 -10.110328 1.905162 1.000000
-10.174830 -10.178404 1.998325 1.500000
-10.156570 -10.064810 1.985397 0.000000
-10.205319 -9.862047 1.970544 9.000000
-10.193384 -9.788776 1.962292 7.000000
-16.317266 -9.692339 1.962607 8.000000
-16.228693 -9.708823 1.955612 42.000000
-10.205816 -9.678190 1.952940 1.000000
-10.868093 -9.138822 1.971644 3.000000
-13.044700 -8.901830 1.912515 9.000000
-10.524793 -8.906743 1.914431 8.000000
-9.624248 -8.196669 1.981439 0.000000
4.450165 -8.125026 1.955252 10.000000
4.507484 -8.108262 1.958005 10.000000
-13.920812 -7.917762 1.939445 2.000000
-9.867521 -7.933693 1.984536 1.000000
-9.606009 -7.773242 1.936843 2.000000
-9.692703 -7.594587 1.930030 0.000000
11.760712 -7.590886 1.943588 2.000000
10.180103 -6.707445 1.910828 1.000000
-12.424391 -6.308704 1.934786 0.000000
-12.261259 -6.323087 1.915532 0.000000
-11.504129 -5.437978 1.994447 0.000000
6.327733 -3.898138 1.986296 7.000000
7.041491 -1.902555 1.949374 2.500000
7.026102 -1.862937 1.942661 2.000000
-19.332378 -0.310450 1.999431 6.000000
-19.321581 -0.158507 1.998128 23.333334
-19.316963 -0.006742 1.997580 26.000000
7.110223 0.055844 1.900317 14.000000
-19.311077 0.144919 1.997031 5.333333
-11.421309 0.195371 1.995684 1.000000
-19.295261 0.266064 1.995522 2.000000
-11.412760 0.231095 1.994307 11.000000
7.188142 0.305121 1.922831 4.800000
-19.269325 1.327162 1.997374 16.500000
-19.262897 1.478826 1.997854 23.000000
-19.254612 1.599931 1.997991 41.000000
-19.249491 1.660418 1.997991 48.000000
-19.251331 1.752012 1.999020 39.000000
-19.244867 1.842900 1.999225 36.000000
-18.465237 5.452127 1.990996 1.000000
-18.371769 5.487341 1.982767 1.000000
-18.319035 5.565759 1.979887 1.500000
-18.326841 5.662592 1.983590 1.000000
-18.373524 5.740306 1.990585 2.000000
-17.806862 7.368525 1.992848 0.500000
