# This PCD file was generated using the MATLAB® pcwrite function
# from Computer Vision Toolbox®.
# .PCD v.7 - Point Cloud Data file format
VERSION .7
FIELDS x y z intensity
SIZE 4 4 4 4
TYPE F F F F
COUNT 1 1 1 1
WIDTH 1216
HEIGHT 1
VIEWPOINT 0 0 0 1 0 0 0
POINTS 1216
DATA ascii
-6.029425 -8.509360 -1.286428 27.000000
8.120863 -8.498161 -1.242707 38.666668
8.111263 -8.355566 -1.231142 30.000000
8.100805 -8.240662 -1.221680 45.500000
-5.948446 -8.068277 -1.236479 7.000000
8.040174 -8.076831 -1.204858 35.500000
-5.916862 -7.869071 -1.214443 28.000000
-5.888594 -7.934784 -1.218850 20.000000
-5.977144 -7.785196 -1.210721 29.799999
-5.854096 -7.836733 -1.206608 30.000000
-6.606639 -7.675507 -1.249211 19.000000
-7.109065 -7.559801 -1.280062 9.000000
-7.031417 -7.548177 -1.272472 3.000000
-6.055464 -7.621309 -1.200731 30.000000
4.398927 -7.447305 -1.220385 60.400002
-6.430513 -7.392119 -1.208566 30.000000
-2.488861 -7.346914 -1.232761 33.400002
-2.377772 -7.344360 -1.226838 49.500000
-2.291051 -7.433330 -1.236151 0.000000
4.515741 -7.390543 -1.222006 56.200001
-7.137236 -7.262904 -1.256067 22.000000
-7.025281 -7.285045 -1.248395 11.666667
-7.047816 -7.217124 -1.244314 27.000000
-6.306237 -6.610668 -1.289047 33.000000
7.999272 -6.390329 -1.262923 25.333334
8.116238 -6.428240 -1.277124 101.000000
8.030241 -6.278548 -1.257373 45.333332
7.996555 -6.111662 -1.241498 51.750000
8.001833 -5.958000 -1.230603 56.750000
8.010242 -5.809127 -1.220564 48.250000
-6.812125 -5.665586 -1.250115 26.000000
7.974856 -5.650718 -1.205628 48.666668
-6.842784 -5.547112 -1.242850 25.000000
-6.098001 -5.336857 -1.287840 33.666668
8.212164 -5.255937 -1.202690 45.000000
-6.054308 -5.198333 -1.268169 44.833336
-6.209931 -5.099081 -1.276958 9.000000
-6.091499 -4.864465 -1.238871 29.000000
-6.024448 -4.775227 -1.221711 34.500000
-6.046406 -4.715480 -1.218572 32.000000
7.877954 -4.714828 -1.295381 52.000000
-6.134246 -4.600588 -1.218572 37.666668
-6.010335 -4.611925 -1.203976 38.000000
7.965186 -4.615431 -1.298893 51.571430
7.901031 -4.413927 -1.276939 36.000000
7.975888 -4.434048 -1.287557 38.000000
7.896681 -4.282196 -1.267439 48.000000
7.940552 -4.295370 -1.273772 38.333332
7.950217 -4.198836 -1.268557 49.250000
7.891590 -4.088864 -1.254027 34.000000
-6.108560 -3.994282 -1.291284 43.500000
7.994350 -4.031133 -1.263248 47.333332
8.068491 -3.957954 -1.267998 63.000000
8.219782 -4.000180 -1.289792 63.000000
8.158232 -3.922746 -1.277219 47.500000
-6.203060 -3.823614 -1.289194 33.000000
-6.065694 -3.831620 -1.269333 41.000000
8.028736 -3.798633 -1.253189 43.000000
7.994724 -3.685693 -1.242105 51.000000
8.060144 -3.736266 -1.253468 60.000000
-6.061830 -3.555159 -1.225184 44.428570
7.983831 -3.549666 -1.232791 54.400002
-6.353366 -3.462528 -1.280134 43.000000
-6.216619 -3.490032 -1.261319 40.000000
8.075173 -3.499461 -1.241732 52.000000
7.986532 -3.386939 -1.223989 42.500000
10.891128 -3.396380 -1.206120 16.000000
-6.122887 -3.262384 -1.227452 46.799999
7.923527 -3.257796 -1.208761 48.666668
8.174555 -3.271244 -1.242291 47.000000
8.241363 -3.328054 -1.254027 45.000000
-6.228474 -3.218915 -1.240413 55.500000
-6.104874 -3.118947 -1.212887 47.000000
8.008720 -3.114554 -1.212425 34.666668
8.367202 -2.960907 -1.252295 47.200001
-6.281979 -2.840232 -1.219740 65.333336
-6.578610 -2.818236 -1.266197 54.000000
-6.419281 -2.833968 -1.241459 45.000000
8.126278 -2.787001 -1.212114 27.000000
-6.261468 -2.674667 -1.204641 38.666668
-6.099766 -2.658549 -1.297641 47.142857
8.165337 -2.695567 -1.213232 36.666668
8.335710 -2.684330 -1.235585 93.000000
-6.149445 -2.538972 -1.297444 39.200001
-6.041609 -2.454472 -1.271719 42.000000
-6.028108 -2.361175 -1.262531 45.000000
7.855943 -2.153565 -1.294537 48.000000
-6.119338 -2.070227 -1.293625 48.571430
7.890105 -2.115031 -1.298178 27.200001
-6.428215 -1.754915 -1.299473 59.000000
7.918074 -1.826575 -1.291398 27.000000
7.853621 -1.738221 -1.278319 56.333332
7.831076 -1.613379 -1.270680 56.833332
-6.385604 -1.487152 -1.278609 61.000000
-6.041480 -1.507430 -1.214296 39.000000
7.842012 -1.461891 -1.267751 49.833332
-7.017288 -1.426407 -1.266894 12.000000
-6.735921 -1.347193 -1.215326 16.000000
-6.293058 -1.361757 -1.255640 51.000000
7.840327 -1.309122 -1.286989 45.833332
7.911909 -1.308390 -1.274447 50.000000
7.960119 -1.173059 -1.278716 47.200001
7.956885 -1.060337 -1.275703 55.000000
-6.125960 -0.994636 -1.210315 42.400002
7.876378 -0.974046 -1.261263 40.333332
-6.156034 -0.863035 -1.212286 46.750000
7.883800 -0.912174 -1.261263 42.000000
7.969598 -0.846004 -1.273662 46.000000
-6.166159 -0.697117 -1.210162 41.799999
7.959090 -0.711205 -1.269927 47.400002
-6.453220 -0.565718 -1.263297 58.000000
-6.257549 -0.603017 -1.225972 36.000000
-6.140331 -0.557860 -1.202429 42.750000
-6.241947 -0.409267 -1.219911 46.333332
-6.157024 -0.423035 -1.203577 43.000000
7.854954 -0.415783 -1.273736 45.500000
7.916706 -0.352573 -1.259380 3.000000
8.541598 -0.407294 -1.206526 0.000000
-6.398343 -0.338683 -1.249515 65.000000
-6.173980 -0.258735 -1.205108 43.000000
7.987347 -0.318028 -1.270366 22.000000
-6.171074 -0.087218 -1.203577 48.666668
7.744624 -0.101420 -1.230919 49.000000
7.749570 0.035536 -1.231599 48.375000
-6.160229 0.157987 -1.201740 50.400002
7.759402 0.203351 -1.233577 49.299999
-6.179443 0.314118 -1.206640 47.333332
7.794431 0.320515 -1.239761 48.500000
-6.461054 0.409892 -1.262531 47.000000
7.717470 0.426735 -1.228356 45.833336
-6.524802 0.558226 -1.277078 25.000000
-6.427461 0.461456 -1.295497 39.666668
-6.248039 0.488670 -1.222208 40.777779
-6.193106 0.471099 -1.211233 52.000000
-6.814968 0.647805 -1.211145 56.000000
-6.335613 0.629486 -1.241640 49.714287
7.919934 0.569098 -1.261891 55.000000
-7.168439 0.664313 -1.273688 17.000000
-6.947918 0.704520 -1.235535 50.000000
-6.743630 0.726640 -1.199995 73.000000
7.925148 0.744927 -1.265030 48.000000
8.075302 0.707918 -1.288259 40.000000
-6.280013 0.786782 -1.234298 48.625000
-6.349609 0.886731 -1.250281 30.000000
7.831161 0.960113 -1.282327 41.599998
-6.555311 0.999591 -1.293156 61.000000
7.805302 1.031746 -1.251218 29.000000
-6.226695 1.105296 -1.204659 45.250000
8.010284 1.135678 -1.285748 44.333332
7.936895 1.252822 -1.276958 10.000000
8.089028 1.198812 -1.299559 63.000000
-6.394797 1.265104 -1.271259 36.400002
7.862411 1.413885 -1.269550 31.600000
-6.644577 1.510830 -1.205570 48.000000
7.713488 1.517521 -1.249335 34.000000
7.870565 1.542040 -1.274604 40.750000
-6.590701 1.618813 -1.200692 4.500000
-6.372464 1.639728 -1.283203 38.000000
-7.009449 1.663422 -1.274559 45.000000
-6.188404 1.675553 -1.250281 39.000000
7.712306 1.681543 -1.254462 41.333332
-6.588756 1.783951 -1.207661 59.000000
-6.287989 1.840272 -1.299375 44.272728
7.702951 1.832203 -1.258333 39.833332
-7.320623 2.043949 -1.207900 10.500000
-6.567732 1.995951 -1.214455 35.750000
-6.298173 2.028126 -1.290349 41.666668
7.668614 1.990373 -1.259111 44.714287
-6.575931 2.114342 -1.222096 47.285713
-6.462691 2.103551 -1.202434 55.500000
7.679333 2.148603 -1.267290 48.000000
-6.765566 2.272922 -1.262713 80.000000
-6.403790 2.272795 -1.202225 34.799999
7.692388 2.296270 -1.275807 48.500000
7.598376 2.385556 -1.265658 44.000000
7.648547 2.418921 -1.274866 46.000000
-6.345873 2.493310 -1.206267 35.000000
-6.312590 2.603239 -1.208125 48.333332
-6.767669 2.732944 -1.291284 52.000000
-6.551136 2.669469 -1.251563 49.000000
-6.235474 2.678970 -1.200692 29.000000
-6.546947 2.861651 -1.264107 48.000000
-6.609516 3.114432 -1.292678 72.000000
-6.896990 3.249891 -1.211666 46.000000
7.906402 3.299215 -1.208761 8.000000
-7.247141 3.442746 -1.275075 51.000000
-7.061707 3.381886 -1.244312 49.000000
-6.916026 3.392619 -1.224223 46.000000
-6.784968 3.381380 -1.204761 41.000000
-7.186131 3.483120 -1.269111 44.000000
-6.884509 3.485322 -1.226315 47.333332
7.791917 3.513275 -1.205967 48.000000
8.016855 3.524161 -1.235585 21.000000
-6.362401 3.620253 -1.295117 39.000000
7.849348 3.568884 -1.216585 30.000000
-7.164141 3.719978 -1.282878 39.714287
-7.092251 3.759911 -1.275703 22.000000
-6.593302 3.765332 -1.206644 77.000000
7.714260 3.834428 -1.215467 34.000000
7.562280 3.908062 -1.201049 38.200001
7.811082 3.928596 -1.233629 49.000000
7.944551 3.886742 -1.247880 43.000000
8.065516 3.946021 -1.266880 41.000000
-6.441931 3.966306 -1.202249 53.000000
-6.548654 4.160716 -1.233012 50.000000
-6.473529 4.075008 -1.215643 42.333332
7.584635 4.118128 -1.217703 44.500000
7.688993 4.065958 -1.227203 36.000000
-6.792181 4.226114 -1.271308 39.000000
-6.536400 4.203673 -1.235052 41.250000
-6.458309 4.237504 -1.227571 32.333332
7.576637 4.206759 -1.222732 41.500000
7.672785 4.212918 -1.235026 58.000000
7.819908 4.182488 -1.251233 67.500000
7.658784 4.315471 -1.240335 40.500000
7.556952 4.368294 -1.231562 41.000000
-6.467421 4.489956 -1.251218 49.000000
7.565708 4.517256 -1.243269 52.750000
-7.511662 4.608566 -1.243409 3.000000
-6.768816 4.574223 -1.298304 25.000000
-6.589279 4.605298 -1.277586 61.000000
-6.444237 4.625541 -1.260635 83.000000
7.518291 4.650645 -1.247321 42.500000
7.580888 4.662106 -1.255703 38.666668
-6.452932 4.850342 -1.282922 44.500000
7.564537 4.828510 -1.266209 40.400002
-6.455668 4.948241 -1.292653 50.000000
7.554846 4.939994 -1.273586 36.000000
-7.521642 5.082966 -1.280851 4.000000
-6.799504 5.211790 -1.208761 51.000000
-6.706393 5.241494 -1.200938 53.000000
7.911677 5.664204 -1.200242 58.000000
-6.721608 5.857440 -1.257939 38.000000
-6.646595 5.828907 -1.247321 49.000000
-6.542506 5.801679 -1.233769 43.250000
7.810622 5.855859 -1.204159 53.000000
-6.815324 5.864174 -1.268557 122.000000
-6.694372 6.059476 -1.274005 34.000000
-6.553631 6.054871 -1.258917 40.500000
7.856007 6.006371 -1.219829 41.000000
7.980418 6.111487 -1.239907 49.250000
8.061539 6.083634 -1.245783 42.000000
-6.602843 6.206989 -1.278616 77.000000
7.861464 6.220034 -1.236549 31.285715
7.605679 6.283026 -1.216891 44.000000
7.639266 6.337793 -1.224400 44.000000
7.819314 6.350004 -1.242519 37.666668
8.083961 6.302260 -1.264392 39.000000
7.752620 6.528312 -1.250190 35.000000
8.022339 6.501000 -1.273696 32.000000
7.551551 6.648213 -1.241050 38.666668
7.579778 6.758083 -1.252639 30.000000
7.718032 6.709183 -1.261453 38.000000
7.856354 6.721937 -1.275410 37.000000
-6.799658 7.026510 -1.206118 22.000000
7.531555 7.040426 -1.271737 39.750000
7.660019 6.971341 -1.277613 35.750000
7.814137 7.055662 -1.298670 62.000000
-6.946333 7.133101 -1.228154 35.000000
-6.945657 7.294877 -1.242478 36.250000
-6.873111 7.329364 -1.239417 30.000000
-6.709646 7.278389 -1.221089 32.285713
7.584334 7.270587 -1.295977 38.500000
-6.719347 7.426013 -1.235336 31.333334
-6.604517 7.384246 -1.222033 34.500000
-6.628969 7.505916 -1.235255 40.000000
-6.646676 7.646125 -1.249701 47.000000
-6.581099 7.618901 -1.241866 27.000000
-6.754307 7.720821 -1.265371 76.000000
-6.616601 7.708824 -1.253129 60.000000
8.276671 7.909359 -1.210325 27.000000
7.583927 8.644767 -1.215792 25.000000
7.515091 8.730933 -1.217895 23.000000
7.616849 8.737514 -1.225465 19.000000
7.662288 8.845587 -1.237240 51.000000
7.455553 9.028240 -1.237871 29.000000
7.680292 9.008421 -1.251538 25.500000
7.469597 9.132567 -1.247333 27.000000
7.532356 9.150232 -1.253010 43.500000
7.687628 9.132538 -1.262052 39.500000
-7.667285 9.222182 -1.267940 1.000000
-6.845408 9.220755 -1.214110 29.500000
7.440447 9.273921 -1.257005 21.000000
7.512029 9.303113 -1.264155 31.000000
-6.739220 9.381964 -1.221259 35.250000
7.505211 9.517086 -1.281397 36.000000
7.518056 9.636663 -1.292191 48.333332
-7.384891 9.785860 -1.296116 6.000000
7.386289 11.461279 -1.201317 4.000000
7.440460 11.625381 -1.216062 56.000000
7.389855 11.740413 -1.222240 33.200001
7.402226 11.892092 -1.234141 43.000000
7.359588 12.033170 -1.242742 25.000000
7.360408 12.220668 -1.256901 24.333334
7.386011 12.380322 -1.270124 1.000000
-5.553916 21.981112 -1.206834 79.000000
-5.493524 22.033335 -1.208747 8.000000
-5.660585 22.110598 -1.214913 77.000000
-5.787175 22.313093 -1.227033 23.000000
-6.050107 -32.675282 -1.190638 11.000000
-6.105362 -32.404701 -1.181471 37.000000
-6.168760 -32.185135 -1.174167 6.000000
8.011374 -32.155773 -1.187344 22.000000
8.044833 -31.863014 -1.177461 40.000000
8.092386 -31.632326 -1.169870 21.000000
-6.028048 -31.450975 -1.147384 12.000000
8.100459 -31.254618 -1.156837 36.000000
-6.032748 -30.949286 -1.129767 10.000000
8.118413 -30.923569 -1.145522 44.000000
8.115886 -30.523180 -1.131629 20.000000
8.816245 -30.444849 -1.135639 7.000000
-6.029700 -30.424349 -1.111291 9.000000
8.146260 -30.254356 -1.122605 37.000000
8.156100 -29.916224 -1.111004 38.000000
8.185163 -29.655399 -1.102267 38.000000
-2.190535 -22.260817 -1.190675 1.000000
-2.083925 -22.252968 -1.189718 50.500000
-1.982762 -22.304344 -1.191950 1.000000
8.459090 -20.832226 -1.196841 39.000000
8.602025 -20.808195 -1.198542 21.000000
8.474521 -20.683575 -1.189824 26.000000
8.475368 -20.231384 -1.167605 30.500000
8.538672 -20.115850 -1.163247 30.000000
-5.787509 -19.868956 -1.101587 1.000000
8.525518 -19.739113 -1.144536 32.000000
8.428879 -19.685019 -1.139858 34.000000
8.405626 -19.294771 -1.120297 35.000000
8.437588 -19.121540 -1.112537 43.000000
8.443684 -18.893780 -1.101587 33.000000
-5.779496 -15.861804 -1.192639 15.000000
-5.707968 -15.819832 -1.188129 0.000000
-5.783833 -15.719996 -1.183337 23.000000
-5.808971 -15.561724 -1.173471 37.000000
-5.873970 -15.439157 -1.166988 30.500000
-5.887834 -15.258677 -1.155431 22.000000
-6.440850 -14.855464 -1.143874 2.000000
-5.835345 -14.913052 -1.131330 28.000000
-5.908556 -14.757503 -1.123015 35.000000
-5.879821 -14.820498 -1.126397 27.000000
8.277434 -14.804848 -1.198277 48.500000
-5.902575 -14.609385 -1.113149 34.000000
8.249022 -14.591976 -1.184183 38.000000
-6.086838 -14.494564 -1.110612 25.333334
8.237560 -14.465440 -1.176008 38.000000
-6.041000 -14.427327 -1.104974 23.000000
8.275781 -14.374563 -1.171780 42.500000
8.377542 -14.394056 -1.176572 2.000000
-6.076878 -12.188328 -1.199913 39.000000
-5.980572 -12.138206 -1.192190 33.500000
-6.073734 -11.899830 -1.177094 26.000000
-6.347160 -11.787952 -1.179552 13.000000
-6.085573 -11.831082 -1.172179 32.000000
-6.034341 -11.552453 -1.148308 64.000000
-6.366302 -11.391152 -1.149712 22.000000
-6.000082 -11.399451 -1.134967 56.000000
-6.197506 -11.338764 -1.138478 38.000000
-6.131453 -11.302140 -1.132861 20.000000
-6.294539 -11.180133 -1.130404 43.000000
-5.960976 -11.196969 -1.117590 17.000000
-6.106250 -11.061555 -1.113202 26.666666
8.090141 -10.861667 -1.193243 41.000000
8.139051 -10.785212 -1.190434 55.000000
8.264637 -10.739604 -1.193945 55.000000
8.122991 -10.670707 -1.181541 28.666666
8.144134 -10.446485 -1.167031 44.333332
8.030975 -10.168981 -1.141638 21.000000
8.073813 -10.124790 -1.140935 43.000000
8.097052 -9.991899 -1.133095 41.666668
8.136729 -9.862361 -1.126472 34.799999
8.126035 -9.711736 -1.115659 40.000000
-6.079993 -9.566128 -1.198340 27.000000
8.115139 -9.606352 -1.107936 33.000000
-6.062956 -9.473198 -1.189088 19.500000
-6.007356 -9.194205 -1.161121 44.000000
-6.008929 -9.102736 -1.153131 35.000000
-6.016617 -8.960599 -1.141076 25.000000
-6.154972 -8.934121 -1.146991 26.000000
-6.195537 -8.743794 -1.132945 79.000000
-6.188491 -8.821751 -1.139253 51.000000
8.006232 -7.917392 -1.190419 40.333332
8.011062 -7.774145 -1.180186 43.666668
-7.183197 -7.638633 -1.108554 4.000000
-5.994712 -7.601852 -1.194202 36.000000
7.960154 -7.604341 -1.163855 46.000000
-6.099500 -7.481524 -1.190693 41.000000
-6.043050 -7.483888 -1.186530 39.000000
-2.320724 -7.446410 -1.193162 27.000000
7.982519 -7.459480 -1.155066 43.400002
-6.296075 -7.361342 -1.194855 52.000000
8.046213 -7.354953 -1.152500 54.500000
-6.004091 -7.262802 -1.162372 28.000000
8.065691 -7.280265 -1.148715 60.000000
-6.409975 -7.214655 -1.190448 45.000000
-6.245174 -7.164024 -1.172329 73.000000
-6.050323 -7.210452 -1.161066 28.333334
8.050706 -7.152868 -1.138552 46.000000
8.152101 -7.129108 -1.144931 39.000000
-6.182339 -7.002625 -1.152251 18.000000
8.063856 -6.985131 -1.127899 36.000000
-6.517863 -6.873137 -1.168411 63.666668
-6.228784 -6.853149 -1.142360 30.200001
8.026898 -6.865414 -1.116684 41.000000
-6.189908 -6.836101 -1.137561 39.000000
8.126264 -6.827355 -1.122095 34.799999
8.383943 -6.769822 -1.139253 47.000000
-7.049981 -6.694860 -1.199262 13.000000
8.126016 -6.667565 -1.111287 43.250000
-6.286572 -6.387275 -1.105486 30.250000
-6.939874 -6.305950 -1.156659 8.000000
-6.642259 -6.189674 -1.119932 50.000000
-5.946819 -6.075330 -1.199501 29.285715
-6.013682 -5.988564 -1.197445 37.250000
-6.011783 -5.856477 -1.184172 34.333332
-6.242019 -5.745864 -1.197026 30.000000
-6.079146 -5.811388 -1.186594 38.666668
-6.056558 -5.681595 -1.171692 33.000000
-7.140188 -5.530516 -1.114055 9.000000
-6.343658 -5.446784 -1.179702 28.000000
-6.051276 -5.483314 -1.152179 31.250000
7.986336 -5.509482 -1.196814 49.599998
-6.104183 -5.358940 -1.146078 42.166668
-6.464243 -5.324925 -1.181658 54.500000
-6.246240 -5.329137 -1.158466 46.000000
7.965326 -5.330328 -1.182245 52.000000
8.145556 -5.249453 -1.195345 54.000000
-6.334292 -5.167966 -1.153437 15.000000
-6.182189 -5.218881 -1.141515 27.333334
7.959533 -5.200591 -1.172819 57.000000
-6.094815 -5.134132 -1.124377 25.000000
8.017131 -5.078081 -1.170615 48.500000
8.136877 -5.100296 -1.184571 53.000000
-6.407700 -5.003409 -1.147066 51.200001
-6.223543 -5.006392 -1.126948 27.600000
-6.700825 -4.927648 -1.173555 48.000000
-6.420288 -4.933310 -1.142419 35.000000
-6.268281 -4.888137 -1.121583 48.000000
8.003332 -4.929609 -1.159474 52.750000
7.943425 -4.772895 -1.143111 54.666668
-6.304484 -4.697506 -1.109288 40.000000
-6.287375 -4.654113 -1.103700 36.000000
7.901328 -4.646870 -1.130705 48.000000
7.938202 -4.593401 -1.131317 54.000000
7.946102 -4.457332 -1.123849 45.750000
-5.983467 -4.419448 -1.182159 18.333334
-5.990153 -4.324481 -1.174124 24.799999
7.899922 -4.269704 -1.107689 46.000000
7.946759 -4.321888 -1.115851 49.333332
15.270617 -4.240659 -1.119632 4.000000
15.426234 -4.336118 -1.132035 2.000000
-6.036494 -4.165275 -1.165567 43.071426
7.965022 -4.160563 -1.108473 53.400002
15.376215 -4.217997 -1.126397 1.000000
-6.077884 -4.056512 -1.161285 45.000000
-6.037756 -3.961539 -1.147630 40.000000
7.965052 -4.033922 -1.101323 60.000000
-6.349109 -3.913640 -1.185299 40.000000
-6.019384 -3.895624 -1.139469 41.666668
8.035058 -3.901619 -1.101813 45.333332
-6.283134 -3.832288 -1.169603 50.000000
-6.152184 -3.818976 -1.150769 43.000000
-6.046362 -3.779655 -1.133191 44.000000
-5.960206 -3.778056 -1.121472 41.333332
-7.148276 -3.637517 -1.131642 10.000000
-6.015045 -3.589018 -1.163691 41.599998
-6.048075 -3.428824 -1.146878 43.833336
8.527492 -3.046569 -1.116994 40.000000
-6.066946 -3.003776 -1.197731 48.500000
7.958321 -2.961192 -1.198081 34.444443
8.526756 -3.001099 -1.115035 23.500000
-6.012758 -2.883450 -1.179786 38.000000
-6.111446 -2.828358 -1.191434 42.714287
-6.174420 -2.691123 -1.191633 41.000000
8.019676 -2.694284 -1.193673 43.500000
8.102230 -2.558600 -1.198814 46.599998
-6.052331 -2.486765 -1.157661 22.250000
7.944855 -2.448711 -1.172996 56.000000
-6.238979 -2.398667 -1.182574 95.000000
-6.081345 -2.360296 -1.154142 45.599998
-5.992230 -2.361653 -1.178129 44.666668
7.944918 -2.407819 -1.171319 49.000000
7.769874 -2.295011 -1.143098 44.250000
7.829454 -2.239094 -1.148966 45.500000
-6.098834 -2.196397 -1.146894 51.400002
-6.001691 -2.178455 -1.129612 48.000000
7.928197 -2.200140 -1.160888 52.000000
-6.095469 -2.045156 -1.160563 45.000000
7.876328 -2.111374 -1.150530 27.200001
-6.032681 -2.030221 -1.126128 40.500000
-6.052307 -1.911917 -1.144591 47.125000
-6.084463 -1.759808 -1.165439 43.260868
7.816854 -1.742013 -1.129965 51.000000
12.502076 -1.828313 -1.113202 2.000000
-6.769176 -1.621388 -1.106195 75.000000
-6.087316 -1.598821 -1.157447 47.153847
7.805059 -1.607889 -1.124377 60.833332
-6.101096 -1.465108 -1.151425 47.272728
7.824262 -1.458585 -1.122980 52.833332
-6.138406 -1.340235 -1.179939 42.599998
-6.245853 -1.278780 -1.169822 38.090908
7.880496 -1.328595 -1.127590 45.250000
7.919034 -1.296798 -1.132201 51.000000
8.112925 -1.263198 -1.158466 42.000000
-7.293562 -1.221832 -1.175254 1.000000
-6.389602 -1.142794 -1.148427 76.000000
-6.290478 -1.186318 -1.197475 38.437500
7.973453 -1.164830 -1.136951 41.250000
8.073521 -1.179238 -1.151201 52.000000
-6.496012 -1.130231 -1.166546 52.000000
-6.262815 -1.054184 -1.180587 34.500000
-6.189914 -1.097019 -1.112191 11.000000
7.929274 -1.056566 -1.128661 32.666668
-7.192835 -0.962310 -1.153280 6.500000
7.873197 -0.998786 -1.119767 38.500000
7.895140 -0.926069 -1.121583 37.000000
7.949892 -0.850286 -1.128079 30.875000
-6.271057 -0.776830 -1.186171 54.599998
7.967183 -0.757380 -1.129183 22.400000
7.860201 -0.660043 -1.112921 44.500000
8.060195 -0.715099 -1.141701 3.000000
7.838811 -0.561400 -1.174725 41.411766
7.963737 -0.492673 -1.125774 40.000000
8.482842 -0.451203 -1.198562 22.750000
8.286200 -0.356006 -1.170202 5.500000
-6.279183 -0.260768 -1.165905 43.714287
7.805240 -0.239586 -1.175995 44.799999
-7.356131 -0.227321 -1.169603 18.000000
-6.262802 -0.142558 -1.199024 50.000000
7.807127 -0.119721 -1.161133 49.000000
-6.137142 0.032210 -1.196878 53.875000
-7.401708 0.143411 -1.176509 0.000000
-6.257559 0.229417 -1.164161 48.833332
-6.540366 0.322199 -1.158532 50.000000
-6.248561 0.297680 -1.181841 50.333332
-6.383492 0.361476 -1.150525 57.333332
-6.707021 0.489085 -1.189775 33.000000
-6.554330 0.471004 -1.162597 56.666668
-6.376183 0.535407 -1.132051 56.000000
7.806741 0.536254 -1.104073 49.000000
7.820980 0.646733 -1.147227 45.571430
-6.604852 0.690701 -1.174908 32.000000
7.909198 0.668325 -1.119906 39.000000
-6.552824 0.789592 -1.167741 41.857143
-6.438225 0.857900 -1.149124 51.000000
7.795958 0.802187 -1.161801 40.799999
-6.369153 0.869068 -1.137278 44.000000
-6.248030 0.910723 -1.189749 42.454544
-6.148553 0.952218 -1.156991 51.250000
7.808398 0.947536 -1.165631 40.200001
8.022121 0.917073 -1.139242 39.000000
8.111478 0.917016 -1.151760 56.000000
-6.166221 1.094630 -1.108010 47.000000
7.808940 1.119767 -1.113061 42.000000
8.029927 1.061438 -1.142819 44.000000
8.124677 1.099943 -1.156790 43.000000
-6.232027 1.212471 -1.161800 45.333332
-6.179315 1.207314 -1.113933 42.000000
7.958905 1.213717 -1.135926 49.333332
8.106349 1.279570 -1.157907 3.000000
-6.409032 1.362238 -1.159229 48.000000
-6.270990 1.394756 -1.136581 44.000000
7.892437 1.449957 -1.132201 20.000000
7.974457 1.377036 -1.141813 28.000000
8.192662 1.412193 -1.172996 36.500000
-6.493952 1.498054 -1.179089 24.000000
-6.366486 1.489729 -1.156790 36.000000
7.875804 1.523761 -1.131828 42.000000
8.316107 1.554815 -1.193673 34.000000
-6.261307 1.583185 -1.142620 37.000000
7.946366 1.589283 -1.143377 44.000000
8.046131 1.635542 -1.158466 42.000000
-6.819610 1.701473 -1.159349 22.666666
-6.790145 1.701787 -1.112473 36.000000
-6.294621 1.662046 -1.151834 37.666668
7.762060 1.701545 -1.121195 41.277779
-6.738569 1.839919 -1.152374 77.333336
-6.368649 1.853881 -1.173515 43.000000
-6.263686 1.791390 -1.152609 39.000000
7.713153 1.821978 -1.118230 38.799999
-7.012361 1.957867 -1.157047 49.000000
-6.694244 1.948631 -1.170692 61.500000
-6.459195 1.990811 -1.195814 51.000000
7.728499 1.980110 -1.125681 46.666668
7.809733 2.001017 -1.137510 46.250000
12.469874 1.986241 -1.112500 1.500000
7.705754 2.077730 -1.126054 49.000000
7.790892 2.126963 -1.139466 13.000000
8.032627 2.233685 -1.176349 49.000000
-6.666856 2.345162 -1.123146 42.500000
-6.584253 2.304774 -1.171044 51.000000
-6.305263 2.303870 -1.187684 38.333332
7.711411 2.262281 -1.133877 51.000000
7.850461 2.285157 -1.153623 62.000000
8.071564 2.285544 -1.183614 51.000000
-6.298343 2.406480 -1.192887 42.599998
7.698138 2.430113 -1.139000 37.166668
7.803445 2.369380 -1.150642 49.000000
7.992939 2.399518 -1.177466 58.000000
-6.655021 2.614775 -1.136330 60.000000
-6.591689 2.613829 -1.126912 70.000000
-6.406021 2.586865 -1.191126 50.250000
-6.531575 2.709476 -1.123773 55.000000
-6.393656 2.742961 -1.126347 44.333332
-6.409842 2.900160 -1.178885 42.080002
-6.352447 2.968945 -1.114356 44.000000
-7.293372 3.201491 -1.123818 25.000000
7.666560 3.246279 -1.174672 20.666666
7.732967 3.312756 -1.186967 40.000000
-7.402331 3.374997 -1.147848 2.000000
7.806146 3.373170 -1.199820 48.000000
-7.348120 3.519051 -1.149525 17.000000
-6.958206 3.481551 -1.166855 44.000000
7.680647 3.477746 -1.189621 36.250000
7.601245 3.659866 -1.190320 42.000000
7.639549 3.604698 -1.191856 52.500000
-7.186800 3.666601 -1.138348 28.000000
-7.084077 3.727112 -1.129407 9.000000
-6.923671 3.712456 -1.108450 39.000000
-6.428421 3.741742 -1.182081 50.125000
-6.291851 3.798283 -1.167989 37.857143
-7.199164 3.948048 -1.158466 30.000000
-6.863036 3.948015 -1.117112 56.000000
8.198935 3.945880 -1.122380 2.000000
8.297272 3.961152 -1.134133 52.000000
8.363494 3.960551 -1.141478 23.000000
-7.374414 3.998983 -1.183614 24.000000
-6.960264 4.033099 -1.134995 44.000000
-7.402211 4.104801 -1.194232 1.000000
-7.253685 4.117151 -1.176814 28.500000
-6.941615 4.080768 -1.136113 44.000000
-7.396983 4.162886 -1.197585 11.000000
-7.142541 4.168750 -1.166849 43.000000
-6.478629 4.348537 -1.100906 28.000000
-6.425400 4.525151 -1.168751 42.857143
-6.416583 4.687581 -1.121210 37.666668
-6.747488 4.843208 -1.171878 104.000000
-6.594192 4.764634 -1.147848 60.000000
-6.391596 4.772830 -1.125495 41.000000
7.573915 4.866121 -1.110464 42.333332
-6.588845 5.006688 -1.167594 49.000000
-6.460047 5.016343 -1.153995 39.000000
7.519885 4.965930 -1.111607 35.799999
-6.680347 5.087217 -1.184731 39.000000
7.512919 5.115369 -1.121156 45.000000
-6.551084 5.169904 -1.177466 43.500000
-6.478188 5.178892 -1.170202 41.500000
7.531633 5.250354 -1.132501 38.333332
-6.529761 5.350165 -1.191065 28.333334
-6.424590 5.311985 -1.176209 36.500000
-6.337614 5.350015 -1.170202 13.000000
-7.203815 5.381302 -1.109158 0.000000
-6.583381 5.382683 -1.199820 18.000000
7.452197 5.496253 -1.142213 37.000000
7.625290 5.531968 -1.162045 34.000000
7.568777 5.582153 -1.160087 28.000000
7.803836 5.562344 -1.182123 41.000000
-6.810909 5.937351 -1.114545 79.000000
-7.512395 5.988484 -1.185061 11.000000
-6.978478 6.025881 -1.137316 47.000000
-6.738722 6.025112 -1.115035 54.000000
-6.574506 6.105135 -1.106710 32.000000
-7.308280 6.171465 -1.179919 24.500000
-6.817555 6.251519 -1.140989 18.000000
-6.587275 6.207649 -1.116504 40.666668
-6.967101 6.429054 -1.169391 53.000000
-6.796303 6.391085 -1.150782 67.000000
-6.692764 6.373432 -1.140009 67.000000
-6.552578 6.378721 -1.128012 35.500000
-6.605318 6.531947 -1.145885 35.000000
-6.864748 6.578460 -1.172819 56.000000
-6.617415 6.626679 -1.155190 36.666668
-6.645366 6.738806 -1.167432 13.000000
-6.629719 6.765323 -1.168411 38.000000
7.638116 7.072974 -1.100563 37.000000
7.692858 7.305355 -1.121590 79.000000
7.577652 7.379245 -1.118226 50.000000
7.624671 7.363121 -1.120609 30.333334
7.491026 7.551429 -1.124534 41.500000
7.670916 7.517163 -1.135468 40.000000
7.486045 7.617855 -1.129160 47.000000
7.693355 7.658584 -1.147664 43.500000
7.442459 7.693593 -1.131683 42.250000
7.831364 7.722773 -1.162804 29.000000
8.204696 7.742536 -1.192662 32.000000
7.466964 7.841084 -1.144720 47.000000
7.422166 7.905291 -1.146402 35.500000
-7.018106 7.971687 -1.122852 56.000000
7.467993 8.042146 -1.160280 28.000000
-7.214574 8.143131 -1.150187 57.000000
-6.568512 8.157914 -1.107292 45.000000
7.485853 8.112341 -1.167009 33.000000
7.523138 8.256179 -1.180887 30.500000
-6.644735 8.305861 -1.124534 55.000000
7.450067 8.306208 -1.179626 27.000000
7.616919 8.359154 -1.195606 39.000000
-6.609674 8.369299 -1.127478 36.000000
7.487372 8.454124 -1.193924 28.500000
-6.757217 8.501078 -1.148085 61.000000
-6.762606 8.618470 -1.158178 44.000000
-6.723194 8.736613 -1.165495 33.400002
-6.682823 8.855536 -1.172897 17.000000
-6.781437 9.045168 -1.195186 30.000000
-6.714737 9.134319 -1.198550 67.000000
7.784846 9.956984 -1.113553 58.000000
7.488969 10.124430 -1.109516 27.500000
7.870634 10.198117 -1.134967 19.000000
7.527109 10.276961 -1.122329 28.000000
7.406707 10.383605 -1.123734 31.333334
7.511407 10.391868 -1.129702 48.000000
7.284654 10.489055 -1.125138 26.000000
7.376278 10.514978 -1.131632 30.000000
7.621379 10.474544 -1.141286 60.000000
7.275154 10.689004 -1.139180 19.000000
7.363827 10.710396 -1.145148 31.000000
8.204663 10.700257 -1.187977 11.000000
7.420065 10.975889 -1.167265 31.000000
-7.407865 11.065736 -1.173233 4.000000
7.436634 11.075229 -1.175339 41.000000
7.457075 11.181412 -1.184115 36.000000
7.372375 11.283423 -1.187509 36.333332
7.459317 11.261255 -1.190083 35.000000
8.299013 13.665532 -1.129498 16.000000
-7.242073 19.390421 -1.101799 24.000000
-7.300291 19.735256 -1.120085 24.000000
-7.312456 19.960625 -1.131566 25.000000
2.494336 20.672583 -1.108390 0.000000
2.599456 20.722002 -1.111686 0.500000
2.727535 20.689415 -1.110836 13.500000
2.862914 20.711441 -1.112962 2.500000
2.977154 20.814394 -1.119234 0.000000
-6.095673 -29.774933 -1.088947 3.000000
-5.992628 -29.746914 -1.087229 20.000000
-5.781129 -29.658422 -1.082645 2.000000
-5.856402 -29.549927 -1.079351 11.000000
8.193311 -29.325390 -1.090953 33.000000
8.279962 -29.280272 -1.090236 39.000000
8.578027 -29.277658 -1.093101 25.000000
8.392547 -29.210735 -1.088947 26.666666
-5.861563 -28.631399 -1.047125 17.000000
8.309401 -28.360813 -1.058870 3.000000
8.343931 -28.150602 -1.051995 34.000000
-5.900862 -27.929121 -1.022777 17.000000
8.353115 -27.860048 -1.042112 27.000000
8.373317 -27.611794 -1.033805 33.000000
8.442437 -27.222652 -1.021201 15.000000
-5.774878 -19.483383 -1.081707 31.500000
-5.811918 -19.274307 -1.071607 27.000000
-5.836321 -19.137512 -1.065016 25.000000
-5.796352 -18.794643 -1.046943 25.000000
8.412730 -18.666874 -1.089893 36.000000
8.410186 -18.505804 -1.082026 31.000000
-5.734250 -18.286871 -1.020153 25.500000
8.608102 -18.326351 -1.077773 9.000000
8.398963 -18.177021 -1.065866 30.000000
8.424076 -18.231310 -1.069056 25.000000
8.520324 -17.992365 -1.059700 19.000000
8.480439 -17.763651 -1.047794 31.000000
8.487703 -17.636143 -1.041840 30.000000
8.410562 -17.336264 -1.025681 34.000000
8.605997 -17.253447 -1.026319 35.000000
8.401810 -17.180582 -1.018027 33.000000
8.404529 -17.050201 -1.011861 34.000000
-2.318222 -14.769899 -1.056209 7.000000
-2.232171 -14.777094 -1.055786 9.000000
-5.839989 -14.324743 -1.092853 33.000000
-5.850048 -14.221456 -1.086370 38.000000
-6.531792 -14.084417 -1.096800 0.000000
-6.033221 -14.096972 -1.083269 35.500000
-6.532364 -13.744741 -1.075095 6.000000
-6.044651 -13.822506 -1.065793 49.000000
-5.905964 -13.621779 -1.048880 22.000000
-6.262864 -13.285182 -1.037605 64.000000
-5.942591 -13.303679 -1.029360 25.500000
8.167295 -13.255006 -1.099900 9.000000
8.194325 -13.144347 -1.094263 32.000000
-6.068992 -12.979493 -1.012235 33.000000
-5.961521 -12.982635 -1.009247 28.200001
8.047477 -12.789077 -1.067484 34.000000
8.121786 -12.817658 -1.071994 37.000000
8.101921 -12.697897 -1.064101 28.000000
8.136719 -12.594898 -1.059309 33.200001
8.991184 -12.558751 -1.091162 0.000000
-6.957104 -12.448268 -1.007443 2.000000
8.157992 -12.438272 -1.050853 39.000000
8.208022 -12.429230 -1.052262 42.000000
8.132866 -12.107641 -1.030417 38.000000
8.273944 -12.110977 -1.036195 33.000000
8.232811 -11.969861 -1.026329 40.000000
8.190050 -11.788399 -1.014068 7.000000
8.166479 -11.636985 -1.004343 18.000000
-5.989288 -10.508889 -1.065692 29.666666
-5.926866 -10.261417 -1.044044 28.000000
-6.065187 -10.166373 -1.042990 27.000000
-5.950672 -10.118359 -1.034214 30.500000
-5.966688 -10.037057 -1.028773 40.500000
-5.988641 -9.861303 -1.016486 32.500000
-6.006955 -9.787116 -1.011746 31.000000
8.057945 -9.388130 -1.090032 34.250000
8.104128 -9.263794 -1.084415 35.000000
8.045034 -9.196293 -1.076516 33.000000
8.015588 -8.961738 -1.059315 36.000000
7.905868 -8.923397 -1.050363 31.000000
7.992287 -8.851449 -1.050714 49.000000
8.113841 -8.929510 -1.063001 33.000000
8.109864 -8.797257 -1.054174 35.142857
8.214940 -8.760270 -1.058086 29.000000
-6.031249 -8.455501 -1.098040 28.000000
8.066050 -8.483212 -1.031335 30.200001
8.124225 -8.360275 -1.027076 50.333332
-5.985860 -8.336346 -1.085003 28.000000
-6.014605 -8.158013 -1.071546 37.000000
8.084605 -8.198291 -1.014438 39.333332
-5.955408 -8.092791 -1.062294 31.285715
-5.839582 -8.078935 -1.053883 28.000000
-6.057184 -8.029480 -1.063345 39.500000
8.024304 -8.035516 -1.000513 36.000000
-6.055952 -7.897936 -1.052201 36.000000
9.030819 -7.922602 -1.058437 10.000000
-6.423822 -7.803813 -1.068602 28.000000
-6.040704 -7.814251 -1.044210 35.750000
-6.042972 -7.580717 -1.024935 39.833336
4.389285 -7.541546 -1.076349 38.000000
-6.050821 -7.457463 -1.015298 40.750000
-7.045700 -7.352324 -1.076592 6.000000
-2.489464 -7.346634 -1.025692 32.299999
-2.358771 -7.370267 -1.016320 40.650002
-2.286912 -7.417603 -1.026370 0.000000
4.403785 -7.431684 -1.065576 67.500000
4.513386 -7.389577 -1.068098 51.750000
-6.044812 -7.296544 -1.001735 34.000000
8.002507 -6.399879 -1.083321 46.000000
7.970133 -6.251677 -1.070915 37.500000
-6.197029 -6.227386 -1.083694 47.000000
7.991961 -6.108159 -1.063450 51.750000
-6.030501 -5.965611 -1.046355 32.750000
7.986155 -5.965784 -1.053883 41.666668
-6.384321 -5.862447 -1.069167 39.666668
-6.037467 -5.842633 -1.036357 38.333332
-6.227658 -5.766875 -1.046967 39.000000
-6.086165 -5.779587 -1.035312 31.400000
7.966857 -5.816100 -1.042844 45.000000
-6.135742 -5.664161 -1.030073 12.000000
7.969702 -5.684753 -1.034958 48.333332
-6.084067 -5.458804 -1.008281 54.500000
7.865425 -5.536119 -1.016875 41.000000
7.929021 -5.488341 -1.019503 52.250000
7.935354 -5.364623 -1.012670 58.000000
7.885989 -5.331191 -1.006361 50.000000
-6.273092 -5.215182 -1.006323 60.500000
7.956027 -5.216177 -1.005801 56.833332
8.091181 -5.178505 -1.015613 58.000000
-7.211222 -5.128537 -1.091529 3.000000
8.035703 -5.060424 -1.003978 52.666668
-6.363893 -5.025900 -1.000283 37.333332
8.071142 -5.023858 -1.005100 48.500000
-6.235830 -4.676888 -1.099788 35.000000
-6.009464 -4.390215 -1.050052 82.000000
-6.023195 -4.313707 -1.045302 37.166664
-6.029119 -4.152983 -1.032961 41.166664
-6.197354 -3.983213 -1.039434 57.000000
-6.040766 -4.004569 -1.022599 45.625000
7.975173 -3.960652 -1.098385 62.000000
-6.062681 -3.852131 -1.013479 36.777779
8.008826 -3.837270 -1.095447 56.000000
7.954272 -3.704108 -1.082348 56.250000
7.959959 -3.570796 -1.076153 56.400002
-6.387859 -3.520518 -1.029096 37.500000
-6.266860 -3.518000 -1.014007 40.000000
-5.968459 -3.521898 -1.012908 44.714287
-6.586696 -3.430329 -1.047817 39.666668
-6.006761 -3.421971 -1.098661 47.500000
7.963272 -3.423069 -1.069199 49.000000
7.968076 -3.253145 -1.061658 50.666668
8.064717 -3.258357 -1.072921 37.000000
-6.404053 -3.233778 -1.012237 56.666668
-5.947479 -3.225076 -1.075223 46.333332
-5.858868 -3.204969 -1.061307 37.000000
8.022402 -3.139121 -1.062637 44.000000
-5.996381 -3.126249 -1.074715 45.571430
8.096383 -3.124134 -1.070472 39.000000
-6.010390 -2.963963 -1.065029 47.000000
7.928956 -3.002430 -1.045825 36.000000
8.093411 -2.958775 -1.062964 51.333332
8.237599 -3.030846 -1.082715 13.000000
-6.030368 -2.800289 -1.056661 47.900002
7.948179 -2.755411 -1.037663 47.000000
8.115694 -2.756486 -1.057251 74.000000
-6.091439 -2.684249 -1.040696 45.857143
7.943117 -2.684100 -1.034235 41.500000
8.082921 -2.717063 -1.051864 31.000000
7.894613 -2.584924 -1.024686 44.500000
-7.171484 -2.463732 -1.069890 4.500000
-6.057904 -2.483338 -1.040485 49.666668
-5.960038 -2.516241 -1.028138 47.000000
-5.883236 -2.498498 -1.015791 41.000000
7.952367 -2.507477 -1.028555 35.400002
-7.194323 -2.421173 -1.071008 25.000000
-6.995872 -2.358316 -1.041669 26.666666
-6.062493 -2.407696 -1.036665 43.250000
7.945737 -2.409579 -1.024196 53.500000
-6.032376 -2.319277 -1.027091 39.000000
7.850335 -2.326908 -1.009995 48.000000
-7.178798 -2.204374 -1.059552 8.000000
-6.078219 -2.152323 -1.024737 42.750000
-5.992154 -2.231849 -1.016209 42.666668
7.881424 -2.228673 -1.010322 44.666668
-6.217453 -2.059838 -1.040903 40.000000
-6.098090 -2.084250 -1.024162 45.333332
7.885754 -2.136601 -1.007792 56.000000
7.907767 -2.115922 -1.009750 26.000000
-6.050421 -1.890969 -1.007420 45.333336
-6.362617 -1.758531 -1.049065 45.000000
-6.102103 -1.781773 -1.010266 47.400002
-6.249940 -1.689526 -1.028912 46.000000
-6.121812 -1.588705 -1.005118 37.500000
-6.508957 -1.537452 -1.062876 70.000000
-6.422203 -1.474455 -1.047181 53.333332
-6.292562 -1.403096 -1.024580 21.000000
-6.244736 -1.324944 -1.014535 41.428570
-6.335267 -1.179377 -1.024109 38.500000
8.117853 -1.205677 -1.012339 39.000000
-6.658568 -1.040341 -1.071038 52.500000
11.423558 -1.069790 -1.010869 28.500000
-6.832148 -0.946822 -1.096150 22.000000
-6.550191 -0.991654 -1.052831 61.000000
-6.343584 -1.021700 -1.021127 67.500000
-6.082131 -1.009200 -1.035119 46.000000
-6.276346 -0.869853 -1.007002 67.333336
-6.109302 -0.856390 -1.091459 50.500000
8.674435 -0.908658 -1.075859 32.000000
8.834056 -0.869300 -1.094957 4.000000
-7.212728 -0.792471 -1.023787 11.000000
-6.652652 -0.794458 -1.064760 65.000000
-6.512886 -0.798527 -1.042786 41.000000
-6.455472 -0.812082 -1.033997 45.000000
8.167749 -0.829650 -1.012689 29.000000
-7.202923 -0.734189 -1.021551 4.500000
-6.648854 -0.646067 -1.061621 42.000000
-6.568550 -0.674721 -1.049378 32.500000
-6.363081 -0.719395 -1.017674 15.333333
-6.125343 -0.695303 -1.090688 40.714287
8.148130 -0.698541 -1.008771 40.000000
-6.267227 -0.569258 -1.000096 69.000000
-6.126162 -0.546293 -1.051307 48.857143
-6.000226 -0.469067 -1.064804 42.000000
-6.195550 -0.386535 -1.098253 47.000000
-6.090496 -0.406032 -1.017213 46.428570
-7.281652 -0.179231 -1.027699 11.000000
-6.137014 -0.213717 -1.031218 37.625000
8.437218 -0.217989 -1.041091 55.000000
-6.121375 -0.118045 -1.039174 44.400002
-6.107280 0.031985 -1.033317 47.000000
7.766639 0.024636 -1.069870 47.687500
-6.163471 0.141631 -1.075018 33.285713
-6.223413 0.193831 -1.003480 43.250000
7.740269 0.197494 -1.051373 53.349998
7.726731 0.331581 -1.017420 53.307693
-7.138796 0.385374 -1.008698 3.000000
-6.397157 0.365497 -1.018302 45.000000
7.761420 0.386387 -1.096435 53.000000
7.764600 0.472177 -1.097553 53.000000
-6.518394 0.598958 -1.040275 66.000000
-7.426351 0.729467 -1.052846 1.000000
-6.661027 0.823774 -1.066643 59.000000
-6.517322 0.826797 -1.044042 55.000000
-6.483353 0.843190 -1.039020 53.000000
7.746727 0.789616 -1.098671 43.500000
-6.496335 0.865643 -1.041531 57.000000
-6.474569 0.893793 -1.038706 45.500000
-6.127081 0.953926 -1.064970 44.428570
8.070062 0.885241 -1.001426 64.000000
8.242549 0.877964 -1.022482 38.000000
-6.238714 0.963311 -1.003235 42.599998
-6.157783 1.048095 -1.048616 56.500000
8.106726 1.031234 -1.008036 33.000000
-6.224235 1.085715 -1.004114 47.599998
-6.374917 1.226422 -1.031695 36.666668
-6.284586 1.253350 -1.018459 49.000000
8.105400 1.217426 -1.011056 26.333334
-6.369764 1.364397 -1.035253 49.000000
-6.254975 1.375729 -1.017831 46.500000
-6.169540 1.409644 -1.005746 46.666668
8.447603 1.413486 -1.056516 18.500000
-6.176384 1.476008 -1.009199 42.000000
7.999130 1.520128 -1.004364 80.000000
8.058500 1.505196 -1.011220 45.000000
8.285757 1.520721 -1.039132 20.000000
8.424148 1.491469 -1.055292 18.000000
8.710404 1.513943 -1.090550 11.000000
-6.405403 1.562653 -1.047809 44.000000
-6.574555 1.691598 -1.078885 45.000000
7.995555 1.689246 -1.008036 48.000000
-7.537385 1.939479 -1.098112 5.000000
-6.363588 1.895745 -1.055238 42.333336
-7.219503 1.979097 -1.056199 10.000000
-6.375631 1.986917 -1.061307 61.500000
-6.246611 1.962905 -1.040589 40.250000
-6.310466 2.097995 -1.056849 42.799999
-6.371397 2.162730 -1.009135 62.500000
-6.837295 2.320948 -1.018757 46.000000
-6.421844 2.285322 -1.042680 52.333332
-6.307995 2.319614 -1.068108 48.333332
-6.321438 2.403904 -1.074805 38.750000
-6.892251 2.596090 -1.039155 20.500000
-6.728208 2.570806 -1.016242 69.500000
-6.601588 2.617754 -1.001992 68.000000
-6.373784 2.602427 -1.094127 36.333332
-6.959991 2.734599 -1.055081 39.000000
-6.853882 2.726203 -1.040738 44.666668
-6.646315 2.708252 -1.012610 69.000000
-6.641397 2.853368 -1.019875 60.000000
-6.810474 2.951391 -1.047258 72.000000
-6.420556 3.025446 -1.001433 67.000000
-6.516057 3.196733 -1.024066 65.500000
-6.450713 3.172801 -1.014286 41.666668
7.666770 3.254350 -1.027379 13.000000
-6.481373 3.358188 -1.029934 61.000000
7.640584 3.328570 -1.028032 45.666668
7.758693 3.322175 -1.041091 69.000000
-6.724803 3.377814 -1.061787 75.000000
7.595790 3.452009 -1.029175 39.666668
-6.999933 3.489551 -1.033854 36.000000
-6.852520 3.469434 -1.015225 61.500000
-6.628492 3.478599 -1.056199 82.666664
7.626812 3.495190 -1.034888 34.000000
7.966769 3.530386 -1.074880 67.000000
7.862059 3.692903 -1.071452 80.000000
-7.214255 3.826204 -1.007302 32.000000
-6.465251 3.828111 -1.060111 43.000000
7.569445 3.810316 -1.045335 40.000000
7.658578 3.767775 -1.052844 42.000000
-6.585842 3.946844 -1.037500 50.000000
-6.360566 3.918162 -1.054044 37.428570
7.557437 3.934201 -1.050983 47.599998
-7.360685 4.023180 -1.034725 22.000000
-7.055868 4.060632 -1.004200 42.666668
-6.635614 4.013924 -1.094200 99.000000
-6.329677 4.007684 -1.057037 50.250000
-7.415105 4.113644 -1.045988 8.000000
7.537066 4.090558 -1.057822 44.500000
-7.372553 4.181386 -1.045498 12.000000
-6.420504 4.218489 -1.064351 43.571430
7.528260 4.255902 -1.066751 45.400002
-6.329525 4.335539 -1.082464 47.000000
7.557523 4.398607 -1.078634 55.666668
7.548939 4.537685 -1.086469 38.166668
-7.529964 4.752891 -1.098385 4.000000
7.543316 4.713552 -1.097210 37.400002
-6.636990 4.809693 -1.011080 42.785713
-6.859975 4.991387 -1.046477 40.000000
-6.551183 5.007017 -1.017096 59.000000
-6.436353 5.032249 -1.007792 37.000000
-6.921018 5.136256 -1.063127 22.000000
-6.628127 5.115411 -1.032766 36.000000
-6.437518 5.082158 -1.011709 43.500000
8.011850 5.147467 -1.006782 16.000000
7.880322 5.239639 -1.000474 41.000000
7.920016 5.301989 -1.007623 52.000000
-6.969432 5.413840 -1.088591 42.000000
-6.700514 5.424484 -1.063421 33.000000
8.326106 5.411146 -1.049818 25.333334
-6.496893 5.486416 -1.048926 39.000000
-6.465312 5.529706 -1.049416 28.000000
8.219981 5.540274 -1.047995 39.000000
-6.730605 5.576149 -1.078144 30.666666
-6.568255 5.780557 -1.079287 53.500000
7.499818 5.846874 -1.005380 40.666668
7.538840 5.763784 -1.003277 33.000000
-6.556135 5.880733 -1.086388 34.000000
-6.599203 5.975343 -1.098140 49.500000
7.543127 6.053963 -1.022552 36.000000
7.648059 6.059547 -1.031594 21.500000
-7.484413 6.160903 -1.024865 2.000000
7.531005 6.181746 -1.030080 35.400002
7.566598 6.351368 -1.044420 41.000000
7.539132 6.512223 -1.053252 48.000000
7.611822 6.491925 -1.057668 53.000000
7.517851 6.639625 -1.060401 36.000000
7.648740 6.565031 -1.065658 49.000000
7.509600 6.759381 -1.068181 38.250000
-6.915478 6.838663 -1.028230 36.000000
-6.591534 6.790049 -1.000474 37.000000
-6.908916 6.918567 -1.033697 26.000000
-6.606334 6.869796 -1.007623 44.000000
7.473661 6.935251 -1.077924 42.333336
-6.708390 7.019928 -1.026547 26.000000
7.475646 7.054553 -1.086685 2.000000
-7.142925 7.228092 -1.074349 40.333332
-6.888999 7.254421 -1.057668 53.000000
-6.579247 7.217911 -1.032540 40.750000
-7.191418 7.338511 -1.086265 29.000000
-6.580214 7.333767 -1.041687 38.000000
-6.897011 7.377954 -1.067761 45.750000
-6.747739 7.568179 -1.071966 121.000000
-6.828021 7.805083 -1.096358 29.000000
-6.731178 7.792594 -1.088648 41.000000
-6.629068 7.822372 -1.084022 39.333332
8.335917 7.817004 -1.006832 30.000000
-6.585403 7.977494 -1.093648 37.111111
-6.546525 8.078521 -1.099302 35.000000
7.497375 8.600679 -1.005252 33.500000
7.451397 8.712299 -1.010050 33.666664
7.481349 8.915925 -1.025438 45.000000
-6.997833 9.034567 -1.006832 49.000000
7.463217 9.008760 -1.030704 39.500000
7.453465 9.171487 -1.041235 62.000000
-6.677860 9.327536 -1.010693 36.000000
-6.706258 9.429646 -1.019470 97.000000
7.444006 9.398736 -1.056331 15.000000
7.572307 9.377763 -1.061948 67.000000
7.577813 9.506166 -1.071075 5.000000
7.669976 9.560010 -1.079852 56.000000
-6.844433 9.688238 -1.045097 63.000000
-6.713758 9.728439 -1.041411 33.000000
-6.630725 9.705719 -1.035618 30.000000
7.531089 9.695039 -1.081607 33.000000
7.646067 9.716417 -1.089330 109.000000
-6.808490 9.767009 -1.048958 21.000000
-6.628385 9.801241 -1.042464 30.500000
7.452429 9.804044 -1.085000 23.333334
7.511243 9.795920 -1.087575 7.000000
-6.638705 9.916780 -1.051416 16.000000
7.434540 9.909094 -1.091436 28.000000
-7.061163 10.061941 -1.083011 61.000000
-6.663259 10.090208 -1.065341 47.000000
-6.655138 10.251928 -1.076868 41.000000
-6.665991 10.375376 -1.086522 47.000000
-6.710517 10.517195 -1.099160 35.000000
7.363174 12.254379 -1.009980 14.000000
8.322391 12.227654 -1.044934 7.000000
7.269764 12.272938 -1.007725 9.000000
7.378653 12.279909 -1.012094 10.500000
7.473249 12.262389 -1.014490 12.000000
-7.302783 12.457258 -1.020128 6.000000
-6.937812 12.363036 -1.001524 89.000000
-6.972726 12.517227 -1.012235 38.000000
-6.778823 12.537172 -1.006880 39.000000
-7.359953 12.645666 -1.033658 19.000000
-6.964630 12.642567 -1.019705 32.000000
-6.884982 12.638452 -1.016745 31.000000
-6.771481 12.618175 -1.011672 33.000000
-6.832554 12.877270 -1.029853 33.000000
-6.840132 13.089731 -1.043383 30.000000
-6.835422 13.283194 -1.055363 27.500000
-6.817990 13.404181 -1.062410 16.000000
-6.709498 13.398518 -1.058605 5.500000
-6.742566 13.464595 -1.063820 3.000000
-3.343528 15.062871 -1.090034 7.750000
-3.267389 15.112282 -1.092290 3.000000
-7.218392 19.143328 -1.089042 30.000000
-7.328229 19.251213 -1.096484 20.000000
8.345860 26.746141 -1.003871 2.000000
7.345885 26.925995 -1.000004 40.500000
7.521919 26.904331 -1.000935 40.500000
8.023964 26.898703 -1.005733 17.000000
8.245472 26.869228 -1.007022 2.000000
7.865983 26.986965 -1.007165 38.000000
7.955248 26.977457 -1.007738 13.000000
8.141915 26.984346 -1.009887 2.000000
-7.758207 27.109629 -1.010316 31.000000
7.820998 27.149828 -1.012321 16.000000
7.245273 27.172571 -1.007595 27.333334
7.741138 27.193489 -1.013038 37.000000
-7.849209 27.757021 -1.033519 18.000000
-5.834270 -27.191286 -0.996423 28.000000
-5.892437 -27.047834 -0.991840 15.000000
8.410366 -26.528900 -0.997140 25.000000
-5.911691 -26.339411 -0.967205 35.000000
8.265982 -26.360661 -0.989835 16.000000
8.449749 -26.365303 -0.991983 34.000000
-5.809067 -26.268080 -0.963911 13.000000
8.486955 -26.197922 -0.986684 44.000000
-5.935825 -26.063463 -0.957752 37.000000
-5.998779 -25.962894 -0.954745 15.000000
8.958378 -25.972841 -0.984392 10.000000
9.059660 -26.001190 -0.986541 4.000000
8.330382 -25.441729 -0.959185 45.000000
8.357526 -25.256041 -0.953169 37.000000
-5.801700 -25.109930 -0.923378 6.000000
8.396263 -25.108347 -0.948586 31.000000
8.453348 -25.017462 -0.946151 29.000000
-5.822181 -24.842493 -0.914212 30.000000
8.490573 -24.869724 -0.941568 31.000000
-5.853055 -24.625734 -0.906907 31.000000
8.442225 -24.476370 -0.927675 14.000000
8.315039 -23.743977 -0.901393 9.000000
8.436875 -23.732811 -0.902467 11.000000
8.370481 -16.585114 -0.988898 28.000000
8.357716 -16.367588 -0.978267 37.000000
-6.529561 -16.308554 -0.935105 8.000000
-5.978459 -16.301706 -0.924261 24.333334
8.372423 -16.207388 -0.971038 44.000000
8.307103 -15.957794 -0.957643 45.000000
8.294109 -15.811354 -0.950413 44.000000
8.308271 -15.718123 -0.946374 43.000000
8.248706 -15.487467 -0.934042 30.000000
8.259256 -15.275450 -0.924367 35.000000
8.188170 -15.143703 -0.916394 25.000000
8.290844 -15.105964 -0.917245 38.000000
8.297918 -14.951478 -0.910228 26.500000
-4.192803 -13.371096 -0.989967 37.000000
-3.470620 -13.391066 -0.977282 22.500000
-3.564351 -13.320966 -0.974181 54.333332
-4.736526 -13.159642 -0.988064 32.500000
-3.850520 -13.167685 -0.969202 2.666667
-3.621607 -13.202151 -0.967134 40.000000
-4.631802 -13.094326 -0.981228 59.000000
-4.538966 -13.092968 -0.978973 53.333332
-3.712431 -13.128098 -0.963822 40.250000
-6.034676 -12.561523 -0.984517 25.333332
-6.102607 -12.385765 -0.975450 44.000000
-6.015363 -12.355207 -0.970799 31.000000
-6.934183 -12.271186 -0.995745 2.500000
-6.090592 -12.215836 -0.964316 51.000000
-5.971279 -11.882902 -0.939510 25.000000
-5.931064 -11.711022 -0.927389 35.000000
-6.134416 -11.610291 -0.927671 24.000000
