# This PCD file was generated using the MATLAB® pcwrite function
# from Computer Vision Toolbox®.
# .PCD v.7 - Point Cloud Data file format
VERSION .7
FIELDS x y z intensity
SIZE 4 4 4 4
TYPE F F F F
COUNT 1 1 1 1
WIDTH 1216
HEIGHT 1
VIEWPOINT 0 0 0 1 0 0 0
POINTS 1216
DATA ascii
8.005809 -1.362769 -1.583715 68.500000
7.944703 -1.236970 -1.568019 72.800003
7.808669 -1.072900 -1.516534 55.714287
7.686605 -1.048747 -1.512893 47.000000
-6.412218 -0.919114 -1.500787 39.500000
7.827629 -0.953086 -1.509038 46.000000
7.997041 -0.895422 -1.569295 66.333336
-6.560889 -0.779286 -1.506297 38.200001
-6.450299 -0.832024 -1.506768 27.000000
7.860260 -0.821985 -1.541222 50.000000
7.932018 -0.772915 -1.590465 63.500000
8.053718 -0.740033 -1.577207 82.000000
7.828411 -0.657348 -1.532034 46.000000
8.005380 -0.558387 -1.564957 98.000000
8.137720 -0.606211 -1.591371 80.500000
-6.469686 -0.477220 -1.502976 39.000000
7.951871 -0.504562 -1.553855 77.000000
8.110601 -0.514540 -1.584863 91.000000
-7.282629 -0.328177 -1.554863 54.000000
-7.122771 -0.354591 -1.521071 53.000000
7.808584 -0.355877 -1.524378 37.333332
8.187665 -0.313107 -1.597879 72.000000
-7.208126 -0.171561 -1.504782 39.250000
7.879471 -0.251752 -1.537394 56.000000
8.020507 -0.079794 -1.564191 40.000000
-7.170439 -0.052729 -1.529415 64.000000
8.118946 -0.017208 -1.583332 67.000000
-6.480208 0.044111 -1.501351 70.000000
8.173560 0.085621 -1.594051 36.500000
-7.120814 0.205123 -1.519403 71.000000
8.486223 0.182206 -1.501736 7.000000
8.143840 0.328514 -1.589457 55.000000
7.824852 0.394445 -1.527900 34.599998
-6.518003 0.537018 -1.515194 34.333332
7.905789 0.518172 -1.545050 29.000000
8.151878 0.482883 -1.592520 67.000000
8.051362 0.565904 -1.574017 58.666664
7.982115 0.725019 -1.563043 42.500000
-6.456735 0.788254 -1.506994 39.500000
8.142289 0.842860 -1.596348 79.000000
7.726748 0.996656 -1.519325 42.799999
7.736582 1.196304 -1.526675 56.000000
7.803704 1.161426 -1.538619 45.400002
7.759032 1.317374 -1.534791 52.599998
7.754255 1.469172 -1.524768 48.066666
7.976907 1.491397 -1.582566 41.000000
7.730872 1.695260 -1.525544 43.625000
7.831738 1.798037 -1.567062 37.500000
7.750324 1.895079 -1.555960 37.750000
7.930949 2.018667 -1.595965 61.500000
8.490858 2.005589 -1.543548 55.000000
8.273902 2.064450 -1.508705 40.000000
7.773969 3.388283 -1.500343 35.333332
7.824754 3.567539 -1.521481 37.000000
7.937325 3.564049 -1.539367 36.000000
8.028830 3.620096 -1.558182 26.000000
7.810064 3.706183 -1.529471 43.200001
7.762559 3.797800 -1.528914 43.000000
7.906930 3.807048 -1.552607 76.000000
7.689869 3.897827 -1.525313 46.500000
7.860101 3.876173 -1.550517 58.000000
7.586834 4.032318 -1.520087 37.000000
7.612266 3.964383 -1.518461 39.000000
7.661783 4.230305 -1.548426 43.750000
7.793600 4.231541 -1.568983 37.000000
7.935404 4.196261 -1.588147 63.000000
7.769726 4.499358 -1.588495 38.750000
7.742069 4.589582 -1.592328 38.500000
8.066496 5.086507 -1.515525 34.750000
7.794956 5.327317 -1.500457 40.000000
8.052553 5.247390 -1.527453 29.000000
7.854123 5.587826 -1.531848 52.000000
7.958573 5.699880 -1.555704 41.000000
7.775481 5.802999 -1.541893 42.000000
8.007748 5.811749 -1.572446 51.000000
7.342446 -26.262299 -1.451560 36.000000
-6.660985 -26.208506 -1.439441 7.000000
7.377063 -26.069990 -1.442205 38.000000
-6.689497 -25.978571 -1.427959 14.000000
7.405046 -25.858526 -1.431786 35.000000
7.482913 -25.823626 -1.431148 39.000000
7.542653 -25.727163 -1.427109 35.000000
7.624571 -25.707170 -1.427321 17.000000
-6.684373 -25.625034 -1.409674 13.000000
8.478740 -19.133362 -1.478467 17.000000
7.946450 -18.802887 -1.442104 31.000000
8.280551 -18.845747 -1.454225 6.000000
8.092224 -18.575369 -1.431393 29.000000
7.915674 -18.486465 -1.420681 45.000000
7.927827 -18.355282 -1.412507 31.000000
10.724582 -16.808315 -1.408560 26.000000
10.840816 -16.757349 -1.409970 36.000000
8.175164 -14.784882 -1.488482 65.000000
7.990614 -14.667999 -1.471631 18.000000
8.009812 -14.593923 -1.466716 46.000000
8.031546 -14.417994 -1.454078 25.000000
8.030565 -14.240380 -1.440387 30.666666
8.142876 -14.221200 -1.443810 38.250000
8.249763 -14.174511 -1.444951 28.000000
8.291792 -13.992698 -1.433015 43.000000
8.378092 -13.987687 -1.436525 37.000000
8.580414 -13.974474 -1.444775 36.500000
8.852080 -14.018877 -1.460748 6.000000
8.159237 -13.918217 -1.421430 54.000000
8.685906 -13.949063 -1.447759 32.500000
8.396836 -13.853872 -1.427281 41.000000
8.865826 -13.847237 -1.448637 6.000000
8.870098 -13.524000 -1.424941 6.000000
4.255119 -13.305254 -1.476845 45.500000
4.360503 -13.262401 -1.475969 45.000000
-2.420955 -13.087795 -1.407140 18.000000
-2.493414 -13.021404 -1.401673 33.000000
-6.146008 -12.523425 -1.474847 3.000000
-6.117309 -12.317986 -1.454030 25.000000
-6.206331 -12.159617 -1.443306 35.000000
-6.206293 -12.065776 -1.434475 37.000000
-6.122949 -12.137231 -1.437209 30.500000
-6.374195 -12.018462 -1.438260 38.000000
-6.241755 -11.903908 -1.421018 34.500000
-6.192911 -11.947334 -1.422700 34.000000
-6.350608 -11.706111 -1.407981 95.000000
-6.847724 -11.478050 -1.413027 4.000000
8.037735 -10.616245 -1.407770 27.500000
9.961704 -9.913138 -1.485781 5.000000
9.187107 -9.553489 -1.401252 3.000000
9.781479 -9.552013 -1.445409 4.000000
8.040016 -9.074810 -1.495528 44.000000
8.123362 -8.996500 -1.495201 58.000000
8.126719 -8.943682 -1.490631 57.000000
8.211398 -8.811812 -1.485734 23.000000
8.147743 -8.743530 -1.474226 35.000000
8.270772 -8.600563 -1.471859 39.333332
8.408720 -8.634806 -1.486713 38.000000
-6.234052 -8.552195 -1.493208 30.666666
-6.128610 -8.481915 -1.476443 33.000000
8.126198 -8.539348 -1.454067 31.333334
-6.231774 -8.455663 -1.482032 8.000000
8.125904 -8.449965 -1.446068 64.000000
8.210737 -8.378678 -1.447048 29.000000
7.969421 -8.081480 -1.400037 21.000000
8.328580 -7.931201 -1.418645 37.000000
8.954102 -7.230211 -1.419625 5.000000
-7.304452 -7.026777 -1.430060 2.000000
-7.206245 -6.888844 -1.406589 15.000000
-6.435368 -6.759953 -1.483297 33.000000
-6.303863 -6.812325 -1.475031 31.500000
8.047620 -6.793547 -1.485944 35.000000
-6.477748 -6.677519 -1.478484 34.000000
8.090748 -6.743266 -1.486055 35.200001
-6.538264 -6.634909 -1.480368 33.500000
-6.491497 -6.525574 -1.462789 30.000000
-6.549361 -6.450477 -1.460906 36.500000
7.863453 -6.394992 -1.430060 27.000000
8.055193 -6.377604 -1.449619 33.000000
-6.513998 -6.305893 -1.440816 43.000000
-2.307439 -6.274814 -1.425952 7.000000
-2.220612 -6.281034 -1.420946 5.000000
-2.070776 -6.294372 -1.413317 1.142857
-1.956104 -6.299459 -1.447137 3.333333
7.909022 -6.322746 -1.428663 52.000000
-6.504946 -6.218433 -1.430143 31.000000
-6.493918 -6.247055 -1.432027 27.000000
-3.841377 -6.166120 -1.463466 18.000000
-3.793963 -6.219010 -1.473737 24.000000
-2.310800 -6.223525 -1.415940 0.000000
7.958056 -6.199799 -1.423354 47.750000
-6.944603 -6.154877 -1.474717 12.000000
-4.656398 -5.957776 -1.474612 0.000000
-1.920364 -6.028594 -1.465841 14.333333
7.914489 -6.027073 -1.403609 54.000000
-6.668742 -5.947898 -1.420098 58.000000
-4.768222 -5.858490 -1.473081 7.142857
-4.684030 -5.897209 -1.468678 13.000000
8.029712 -5.898406 -1.405751 20.000000
-6.752828 -5.724789 -1.406914 53.000000
-2.224584 -5.688026 -1.415021 12.000000
-2.072811 -5.719694 -1.409492 12.125000
-6.268445 -5.545591 -1.480731 24.571428
-6.384658 -5.209058 -1.457834 48.000000
-6.243169 -5.225652 -1.440413 41.333332
-6.730490 -5.081004 -1.491980 46.000000
-6.561136 -5.150290 -1.475720 53.333332
-6.349481 -5.141727 -1.445523 38.166668
7.883572 -5.125535 -1.494389 42.333332
-6.752556 -4.965690 -1.482921 43.000000
-6.592103 -5.025533 -1.466545 33.000000
7.992089 -5.019242 -1.499830 45.666668
-6.719868 -4.876894 -1.468984 33.000000
-6.567750 -4.798072 -1.439019 42.000000
7.961507 -4.857082 -1.482125 45.599998
-6.357998 -4.737380 -1.402782 12.000000
7.966320 -4.683105 -1.468596 21.500000
8.099305 -4.704422 -1.488529 39.333332
7.984186 -4.509907 -1.457296 44.000000
7.953958 -4.378287 -1.442908 46.333332
7.882477 -4.242502 -1.422609 47.000000
7.954804 -4.249479 -1.433282 48.333332
-6.404002 -4.066491 -1.479397 44.750000
-6.298279 -4.121833 -1.467912 25.500000
7.857307 -4.112838 -1.409425 50.333332
-6.371877 -3.983151 -1.465424 42.500000
7.940784 -4.019880 -1.414448 52.000000
-6.554703 -3.955611 -1.492987 48.000000
7.997707 -3.954270 -1.417901 53.000000
-6.510563 -3.845739 -1.474612 47.000000
-6.433265 -3.790824 -1.456237 35.666668
-6.435703 -3.663168 -1.444157 36.444443
-6.671604 -3.608829 -1.479206 48.000000
-6.399229 -3.461492 -1.418848 46.833332
-6.527345 -3.347499 -1.430588 37.500000
7.774865 -3.225225 -1.489193 48.000000
-6.704031 -3.120435 -1.442072 39.500000
7.735419 -3.116802 -1.475488 47.750000
-6.333234 -3.033036 -1.497709 26.666666
7.831653 -3.048689 -1.486870 48.666668
7.907090 -3.021005 -1.497555 43.000000
7.803331 -2.889735 -1.472215 43.818180
7.912257 -2.825211 -1.486405 38.000000
-6.378205 -2.685080 -1.476015 42.000000
-6.293147 -2.721728 -1.462415 37.900002
7.881061 -2.675260 -1.472468 44.000000
7.920945 -2.744540 -1.483153 46.333332
-6.340135 -2.572302 -1.459348 48.875000
7.983285 -2.598223 -1.485360 43.000000
7.889145 -2.485924 -1.463409 40.000000
8.034573 -2.462560 -1.486754 35.500000
-6.340636 -2.437802 -1.448897 40.000000
-6.616998 -2.284941 -1.493119 34.000000
-6.274692 -2.294981 -1.425025 39.888889
7.785406 -2.289120 -1.435734 50.000000
-6.528363 -2.162841 -1.466837 54.000000
-6.438179 -2.245790 -1.454321 36.000000
7.724175 -2.235308 -1.422642 39.000000
7.980264 -2.160713 -1.462712 42.000000
-6.413529 -2.140965 -1.442163 43.571430
7.725930 -2.157115 -1.419158 32.500000
7.803393 -2.095257 -1.429495 50.000000
-6.582914 -2.044049 -1.470174 83.000000
-6.368046 -2.025699 -1.425285 43.000000
7.859657 -2.004750 -1.435070 48.000000
7.951987 -1.993009 -1.450401 42.333332
8.108574 -1.978157 -1.476649 69.000000
8.634830 -1.934860 -1.406286 10.000000
-6.557526 -1.849366 -1.453208 65.666664
7.819582 -1.816965 -1.420320 32.500000
8.656419 -1.797385 -1.405031 41.000000
-7.330645 -1.755874 -1.470018 11.000000
-6.505890 -1.732300 -1.435965 48.000000
-6.451681 -1.692760 -1.443087 46.333332
7.867638 -1.692283 -1.423815 47.363636
8.029387 -1.667191 -1.450865 33.000000
-6.424250 -1.532164 -1.446091 37.384617
7.818415 -1.521182 -1.409193 43.799999
-6.570870 -1.400017 -1.494391 48.000000
7.820994 -1.375442 -1.404960 32.125000
-6.521493 -1.283014 -1.417608 44.000000
-6.426338 -1.348381 -1.400504 60.500000
7.946977 -1.314189 -1.425081 63.000000
8.059933 -1.306868 -1.444594 45.000000
13.760480 -1.354076 -1.461810 4.000000
-6.525336 -1.088488 -1.438154 47.888889
-6.436378 -1.057675 -1.480881 36.750000
7.971326 -1.011253 -1.421597 54.000000
11.739636 -1.006442 -1.453414 2.000000
13.512454 -0.987551 -1.432372 11.000000
13.850389 -1.056003 -1.468539 19.000000
-6.503219 -0.922072 -1.400921 38.000000
13.677153 -0.913230 -1.449194 21.000000
13.799047 -0.877835 -1.461810 2.000000
-6.669318 -0.764559 -1.431793 43.000000
7.934811 -0.771033 -1.410447 35.333332
13.718355 -0.829438 -1.452979 8.000000
8.948159 -0.723124 -1.426690 11.500000
13.500863 -0.731181 -1.429428 14.000000
-6.681538 -0.649243 -1.431793 58.000000
-6.596793 -0.645626 -1.467973 41.111111
-6.395542 -0.651960 -1.489389 33.250000
7.911804 -0.576841 -1.403479 48.000000
8.899007 -0.592565 -1.417378 12.000000
-7.191733 -0.524339 -1.406215 35.333332
-6.588355 -0.506015 -1.443794 34.428570
8.859571 -0.478416 -1.410053 6.000000
-6.732746 -0.455237 -1.439302 57.333332
-6.664767 -0.384243 -1.423866 45.000000
-6.420321 -0.360174 -1.489796 31.799999
7.822517 -0.432091 -1.499195 37.000000
13.279105 -0.426593 -1.404616 1.000000
-6.882354 -0.327917 -1.469618 50.000000
-6.288871 -0.283399 -1.458469 40.500000
8.003648 -0.356445 -1.417416 0.000000
-6.945053 -0.192781 -1.481855 50.000000
-6.407138 -0.197958 -1.485101 42.333332
-6.320299 -0.195112 -1.465014 37.750000
7.685943 -0.197249 -1.499367 41.333332
7.962296 -0.179299 -1.409054 55.000000
8.403887 -0.162830 -1.487102 15.000000
8.868977 -0.255479 -1.410053 8.000000
-7.292917 -0.064828 -1.422293 18.000000
-6.721077 -0.070094 -1.494846 59.000000
-6.539629 -0.126762 -1.474960 33.000000
-6.601113 -0.048336 -1.468556 47.000000
-6.402380 -0.006720 -1.483295 30.750000
8.088964 -0.029619 -1.431121 18.333334
-6.801483 0.142470 -1.450983 53.500000
-6.650546 0.092517 -1.418651 62.250000
7.932071 0.095653 -1.403479 28.500000
-6.893354 0.220245 -1.471009 30.000000
-6.738919 0.268396 -1.438468 48.000000
-6.572531 0.313402 -1.403424 40.000000
-6.706666 0.435996 -1.433461 64.500000
-6.570729 0.406477 -1.434348 38.000000
-6.457539 0.440194 -1.499546 31.250000
8.837232 0.370408 -1.405659 21.000000
-7.316488 0.556575 -1.430971 8.000000
-6.760780 0.599815 -1.447646 109.000000
-6.963284 0.661903 -1.491868 40.000000
-6.708034 0.733403 -1.439302 44.000000
-6.610982 0.707990 -1.491644 49.599998
-6.839271 0.758688 -1.467671 47.000000
-6.688112 0.805797 -1.436799 36.000000
-6.542619 0.874273 -1.434668 35.777779
7.807153 0.913767 -1.497093 38.250000
-6.581456 1.035135 -1.461755 54.166668
7.821856 1.021240 -1.466780 52.000000
8.780313 0.964703 -1.403775 9.000000
-6.743026 1.136866 -1.458493 50.000000
-6.843520 1.175930 -1.481021 75.000000
-6.573874 1.300471 -1.429290 107.000000
-6.462444 1.352341 -1.489163 32.666668
-6.540764 1.476544 -1.460885 53.000000
-6.444673 1.451139 -1.408986 46.666668
7.943979 1.511084 -1.430656 36.000000
7.760856 1.594516 -1.497302 42.333332
8.194422 1.585414 -1.476649 151.000000
-6.392861 1.738105 -1.473911 37.000000
7.791321 1.737334 -1.412306 44.666668
-6.587053 1.761427 -1.454321 83.500000
7.975398 1.857401 -1.448775 57.000000
7.995818 2.039442 -1.459925 52.000000
-6.638880 2.080675 -1.483941 35.000000
7.748645 2.141609 -1.422294 24.000000
7.857539 2.092231 -1.438621 42.857143
-6.899732 2.162286 -1.475908 34.500000
-6.595397 2.146794 -1.479352 37.000000
7.740821 2.207814 -1.424152 21.166666
-6.974207 2.416399 -1.439393 50.000000
-6.844955 2.407767 -1.481126 46.500000
7.754976 2.367949 -1.434559 19.000000
8.784118 2.368493 -1.445838 1.000000
8.803311 2.403360 -1.450233 0.000000
-6.842396 2.528332 -1.422549 55.500000
7.863862 2.496114 -1.459692 38.333332
-6.742023 2.628025 -1.448872 62.714287
7.797909 2.615992 -1.455186 36.599998
7.999177 2.594460 -1.487799 63.000000
8.591988 2.608807 -1.427004 33.000000
-6.972923 2.790381 -1.464658 100.000000
-6.700326 2.903657 -1.424080 78.000000
8.583313 2.888600 -1.439246 6.000000
-6.605992 2.961923 -1.411830 40.000000
7.682968 3.133366 -1.467988 43.428570
7.760824 3.238468 -1.487799 42.000000
7.729398 3.282590 -1.485708 40.000000
7.957643 3.924275 -1.410053 24.000000
7.861176 4.109734 -1.409739 41.500000
8.050781 4.064979 -1.433282 48.000000
8.120024 4.067977 -1.443327 62.000000
8.242426 4.096957 -1.462789 79.000000
7.665087 4.313728 -1.450134 36.333332
7.637159 4.414649 -1.401892 23.000000
7.719758 4.576441 -1.426219 37.000000
7.845156 4.567823 -1.442699 34.000000
7.757074 4.714470 -1.442595 36.666664
7.775320 4.962970 -1.465928 39.000000
7.974681 4.950294 -1.491668 30.000000
7.724612 5.120583 -1.472834 39.500000
7.834768 5.053176 -1.481623 50.500000
7.743083 5.185500 -1.480995 41.000000
7.820149 5.201345 -1.492610 37.000000
7.728186 5.389267 -1.497318 34.000000
7.707108 5.446846 -1.499830 35.000000
8.094190 6.231115 -1.441237 75.000000
8.127134 6.420727 -1.461355 105.000000
7.828724 6.573843 -1.442354 36.500000
7.914490 6.582413 -1.452413 30.000000
7.891377 6.690007 -1.459678 53.000000
7.600162 7.129541 -1.470296 41.000000
7.736480 7.099061 -1.481473 39.000000
7.644002 7.170902 -1.478818 41.000000
7.563124 7.321455 -1.485198 39.000000
7.609931 7.274751 -1.485385 45.000000
7.566000 7.416938 -1.494885 37.000000
7.760653 8.331041 -1.404444 35.000000
7.966839 8.261438 -1.415707 63.000000
7.718064 8.496977 -1.415952 48.000000
7.843932 8.717687 -1.446558 37.000000
7.715440 8.794676 -1.443130 23.000000
7.569439 8.850165 -1.436519 45.500000
7.580248 9.005053 -1.451945 42.500000
7.707258 8.954227 -1.457331 45.500000
7.543879 9.106077 -1.458637 44.000000
7.473626 9.196295 -1.461739 38.000000
6.002319 -37.348480 -1.355348 40.000000
6.098218 -35.788868 -1.300779 13.000000
-6.706686 -25.383785 -1.397554 34.000000
-6.712061 -25.084770 -1.382246 31.000000
7.543272 -24.953167 -1.387632 34.333332
7.641524 -24.901001 -1.386498 14.000000
-6.683243 -24.666460 -1.360346 29.000000
-6.705750 -24.445036 -1.349290 8.000000
7.534474 -24.145935 -1.346419 29.000000
7.628273 -24.047365 -1.342911 9.000000
-6.534566 -23.821007 -1.314845 13.000000
-6.540968 -23.554043 -1.301237 30.000000
8.052916 -23.216198 -1.308041 2.500000
-6.269814 -18.459698 -1.377271 31.000000
-6.315719 -18.311119 -1.368392 24.000000
-6.382851 -18.226559 -1.364305 33.000000
-6.358915 -17.976955 -1.347110 28.000000
-6.342866 -17.753988 -1.331889 24.000000
-6.363402 -17.636391 -1.324560 22.000000
7.864653 -17.524227 -1.356976 30.500000
-6.360040 -17.455107 -1.312439 27.000000
7.805199 -17.174587 -1.332734 27.000000
7.752733 -16.917833 -1.314694 25.000000
7.839949 -16.897362 -1.315962 34.000000
7.922076 -16.797272 -1.312016 35.000000
7.960783 -16.675146 -1.305392 50.000000
8.189453 -16.746340 -1.316949 9.000000
10.114326 -16.530975 -1.369097 8.000000
10.339325 -16.546547 -1.378399 7.500000
-6.176800 -14.246448 -1.368069 21.000000
-6.148088 -14.059037 -1.351921 39.000000
-6.160067 -13.966739 -1.344900 41.000000
-6.246793 -13.949078 -1.346585 34.799999
-6.317081 -13.734317 -1.331910 27.000000
-6.199488 -13.590961 -1.316113 24.000000
-2.508967 -12.992200 -1.398939 52.500000
-2.314210 -12.965691 -1.392421 9.000000
-6.286921 -11.610424 -1.395890 30.750000
-6.231019 -11.231806 -1.357936 3.000000
-6.371666 -11.152620 -1.357936 36.000000
-6.262332 -11.106690 -1.348011 25.200001
-6.265299 -10.834460 -1.323171 19.666666
-6.281454 -10.680722 -1.309994 29.333334
7.997087 -10.459758 -1.392000 30.000000
8.025595 -10.395197 -1.388425 34.000000
7.983763 -10.196785 -1.369151 33.666668
8.013577 -10.114226 -1.364244 49.000000
8.116361 -10.093234 -1.369291 48.599998
8.136230 -9.943974 -1.358356 9.000000
8.061357 -9.758370 -1.338170 41.000000
8.069088 -9.705467 -1.334386 28.000000
7.997447 -9.497384 -1.312657 41.333332
-6.385422 -8.604252 -1.321686 38.000000
-6.158538 -8.565441 -1.301315 27.200001
8.872259 -8.609835 -1.307050 4.000000
-7.315516 -8.130408 -1.349109 2.000000
7.981619 -7.952763 -1.389851 24.799999
8.066734 -7.902285 -1.392936 21.500000
8.030628 -7.768637 -1.378246 40.000000
8.122411 -7.698541 -1.380449 32.750000
10.762592 -7.625981 -1.394523 13.000000
8.014283 -7.489145 -1.353026 30.000000
7.988172 -7.371359 -1.340784 42.000000
-6.331029 -7.265071 -1.359647 34.000000
10.897996 -7.317629 -1.387795 1.000000
7.966471 -7.236366 -1.327562 45.000000
-6.167082 -7.076898 -1.324440 23.500000
7.979749 -7.134625 -1.320380 45.000000
8.089490 -7.105772 -1.328150 49.200001
-6.180636 -6.973638 -1.314754 23.333334
-6.215944 -6.954598 -1.316058 30.000000
8.056512 -6.918820 -1.309968 40.857143
8.244680 -6.903304 -1.326420 53.333332
-6.651909 -6.857051 -1.347911 53.000000
-6.259963 -6.786233 -1.302646 16.000000
8.333854 -6.816325 -1.328052 32.000000
-7.291644 -6.669881 -1.394295 2.500000
-6.487393 -6.729634 -1.318852 58.000000
8.173618 -6.756986 -1.308138 28.000000
-6.993592 -6.397226 -1.337293 34.000000
9.126208 -6.380751 -1.373593 10.000000
-6.283864 -5.969420 -1.377407 42.000000
-4.980577 -5.975755 -1.376301 4.000000
-4.658032 -5.972746 -1.340064 7.333333
-3.928222 -6.018142 -1.325480 12.500000
-7.107729 -5.873757 -1.300969 8.000000
-6.297953 -5.889600 -1.370344 40.500000
-4.921584 -5.942834 -1.365151 6.000000
-4.669926 -5.879379 -1.328392 12.500000
-4.005695 -5.927448 -1.330297 19.125000
7.864221 -5.880214 -1.385465 46.599998
-6.393781 -5.775198 -1.369246 2.000000
-4.755338 -5.834670 -1.331702 8.500000
-7.241693 -5.739696 -1.303763 7.000000
-6.270851 -5.736161 -1.350621 40.000000
7.897619 -5.706428 -1.374735 0.000000
7.956926 -5.749378 -1.385074 47.000000
7.872045 -5.613003 -1.364118 44.000000
7.959580 -5.581719 -1.371662 37.000000
-6.720697 -5.553918 -1.385569 27.000000
-6.689262 -5.492667 -1.375524 30.000000
-6.524078 -5.460794 -1.352086 43.666668
-6.398220 -5.458803 -1.336600 31.000000
-2.723974 -5.509120 -1.310808 1.000000
-2.582237 -5.538103 -1.303299 8.571428
-6.827071 -5.358881 -1.379291 37.000000
-6.277349 -5.435720 -1.319649 29.666666
7.888155 -5.403199 -1.349029 48.000000
7.917624 -5.423340 -1.354058 48.000000
-6.549749 -5.279394 -1.336949 35.111111
7.871870 -5.283746 -1.337666 42.000000
-18.285599 -5.236402 -1.343728 8.000000
-6.652112 -5.255409 -1.347273 33.000000
7.998579 -5.248048 -1.349774 34.333332
-18.256264 -5.135078 -1.339781 13.500000
-6.752044 -5.130692 -1.347691 18.333334
-6.594664 -5.143056 -1.329066 41.000000
7.860001 -5.122013 -1.323695 51.333332
-18.247776 -5.009151 -1.336822 11.500000
-6.810731 -5.041518 -1.346645 28.000000
-6.473390 -5.015847 -1.301443 43.000000
7.868178 -4.981790 -1.313962 53.250000
8.145104 -4.962042 -1.345676 44.000000
-6.718330 -4.940522 -1.325299 25.000000
-6.620633 -4.933070 -1.312115 35.000000
7.879517 -4.868455 -1.306837 44.500000
8.101422 -4.865901 -1.333382 35.000000
7.963519 -4.851370 -1.315685 46.333332
-6.450783 -4.674038 -1.301458 43.750000
7.989788 -4.663096 -1.305254 46.000000
8.311488 -4.683279 -1.346048 29.666666
8.226604 -4.561957 -1.327234 17.000000
-6.364910 -4.513449 -1.380482 38.750000
-7.295782 -4.371624 -1.351667 1.000000
-6.387356 -4.454224 -1.377695 23.000000
-6.310603 -4.298351 -1.350866 40.000000
-6.366943 -4.234988 -1.352887 34.799999
-6.402234 -4.114805 -1.346476 35.599998
7.855396 -4.038857 -1.324748 61.000000
-6.269888 -3.903693 -1.306715 36.285713
7.831416 -3.923517 -1.392056 44.000000
-6.352904 -3.813207 -1.310912 36.958336
7.844558 -3.779648 -1.383842 37.000000
7.831112 -3.630164 -1.371757 48.200001
7.796187 -3.466299 -1.355936 48.000000
-6.648809 -3.383355 -1.319855 24.000000
-6.577414 -3.364275 -1.307080 52.000000
-6.976388 -3.278380 -1.363758 42.000000
-6.413297 -3.340085 -1.331216 36.200001
7.775244 -3.326167 -1.343977 46.500000
7.980692 -3.340032 -1.374896 42.000000
7.739369 -3.210501 -1.331577 36.000000
-6.375031 -3.155380 -1.337494 36.000000
7.778946 -3.155523 -1.334089 46.750000
-6.390828 -3.030653 -1.379386 39.750000
7.775652 -3.041038 -1.326869 46.000000
7.768117 -2.905048 -1.318048 46.150002
-6.279457 -2.855098 -1.345220 32.000000
7.930675 -2.817746 -1.337542 18.500000
-6.260231 -2.740577 -1.332714 37.166668
7.795812 -2.682827 -1.310232 30.000000
-6.398917 -2.576183 -1.345220 37.666668
-6.273124 -2.614996 -1.325398 43.222221
7.783283 -2.580946 -1.303169 34.000000
8.090211 -2.493512 -1.345389 35.000000
-6.360231 -2.410963 -1.326462 47.500000
-6.248515 -2.436146 -1.307895 39.750000
7.829646 -2.440162 -1.303326 30.000000
7.905251 -2.382220 -1.312115 50.000000
-7.115160 -2.332467 -1.324733 31.000000
-6.598433 -2.301691 -1.362829 74.000000
-6.285426 -2.292741 -1.304769 40.833332
8.036690 -2.284763 -1.327811 44.000000
-6.392677 -2.229874 -1.320336 39.500000
-6.396732 -2.119211 -1.314157 38.000000
-6.502661 -2.041548 -1.329141 69.000000
-6.375041 -1.962141 -1.300813 31.000000
7.964061 -2.022435 -1.305837 37.000000
8.095608 -1.992948 -1.324986 37.000000
8.002533 -1.899094 -1.307093 45.000000
-6.747948 -1.781640 -1.361043 37.000000
-6.566439 -1.781537 -1.326844 52.000000
8.181819 -1.806377 -1.331577 55.000000
8.258675 -1.768999 -1.342250 48.000000
-7.338117 -1.745460 -1.334490 7.500000
-6.753670 -1.741566 -1.360149 43.500000
8.138171 -1.734112 -1.322370 48.000000
-6.957856 -1.643484 -1.394220 18.000000
8.100960 -1.563036 -1.311174 21.500000
-7.252742 -1.474267 -1.309403 11.000000
-6.641793 -1.546816 -1.329907 23.000000
-6.391466 -1.535746 -1.335114 26.777779
-6.399542 -1.389900 -1.316923 41.809525
8.231840 -1.334742 -1.325299 31.000000
-6.699472 -1.252650 -1.329141 54.500000
-6.560441 -1.183957 -1.300047 69.000000
-6.411330 -1.231520 -1.335741 45.047619
7.797708 -1.193983 -1.366967 42.200001
-7.337493 -1.134591 -1.313584 7.000000
-6.456828 -1.088696 -1.300855 40.133335
7.755975 -1.132857 -1.386754 40.000000
7.655704 -1.044643 -1.367010 49.000000
-6.438532 -0.926884 -1.355987 43.266666
7.748527 -0.914907 -1.380424 51.583336
12.662340 -0.885437 -1.341955 3.000000
-6.433974 -0.811850 -1.338589 43.125000
7.802789 -0.797308 -1.352174 37.750000
8.329454 -0.791766 -1.329694 25.000000
-6.681293 -0.585771 -1.307959 39.333332
-6.571236 -0.631478 -1.307354 28.916666
-6.437948 -0.564379 -1.378393 17.000000
7.802111 -0.645894 -1.367313 38.750000
13.109769 -0.586140 -1.387374 3.000000
-7.105093 -0.488115 -1.388861 26.000000
-6.902368 -0.489428 -1.349485 34.285713
-6.494262 -0.548764 -1.390074 12.000000
7.851755 -0.482617 -1.338577 27.875000
13.112370 -0.524343 -1.387374 16.500000
-6.760378 -0.368558 -1.320336 41.500000
-7.101226 -0.264114 -1.385798 36.000000
-7.075892 -0.307704 -1.381204 27.000000
-6.845437 -0.304858 -1.336287 33.666668
7.744988 -0.320549 -1.371423 14.000000
7.823321 -0.348766 -1.350100 26.750000
-6.886916 -0.212821 -1.343688 16.000000
7.694001 -0.185505 -1.361667 41.500000
7.922717 -0.178359 -1.330594 35.500000
-7.069172 -0.151782 -1.378907 41.000000
7.705801 -0.088734 -1.363409 39.500000
-7.027499 -0.040477 -1.370486 34.000000
-6.482155 0.023757 -1.382564 19.000000
7.897328 0.020675 -1.397207 42.000000
-6.528820 0.064953 -1.392577 47.000000
7.817986 0.094167 -1.383270 54.000000
7.746308 0.227208 -1.371075 48.500000
7.793343 0.307461 -1.379885 35.285713
8.746609 0.311574 -1.390905 19.500000
-6.710440 0.383396 -1.310766 56.000000
-6.562401 0.402537 -1.322096 45.333332
-6.431756 0.428218 -1.324267 33.142857
7.753484 0.428357 -1.373862 44.766666
-7.514400 0.500422 -1.332399 10.000000
-7.398006 0.469332 -1.311493 24.000000
7.742882 0.507495 -1.372817 42.000000
-6.903835 0.546982 -1.350579 47.666668
-6.719471 0.567606 -1.315105 26.666666
7.772350 0.592207 -1.379089 34.625000
7.741127 0.727663 -1.375604 39.000000
-6.949872 0.837335 -1.365126 13.000000
-6.784798 0.795831 -1.332204 64.000000
-6.452366 0.820647 -1.315937 33.299999
7.798232 0.744160 -1.354421 24.888889
7.761752 0.856496 -1.381562 34.950001
-6.485444 0.988976 -1.339210 37.000000
7.671668 1.001790 -1.368810 40.250000
7.783816 1.091164 -1.390587 50.500000
-6.868194 1.202398 -1.359767 58.000000
-6.724754 1.144723 -1.330290 51.500000
7.722594 1.169351 -1.381876 46.200001
-6.947288 1.255627 -1.344809 41.750000
-6.714983 1.248140 -1.331949 30.333334
-6.426614 1.313243 -1.339019 29.000000
7.709624 1.303980 -1.383386 46.500000
-6.444782 1.412320 -1.346587 45.500000
7.806297 1.421551 -1.331888 49.500000
-6.817210 1.482653 -1.360532 49.000000
-6.557884 1.491190 -1.311532 41.666668
7.717463 1.442956 -1.341808 50.000000
8.066820 1.455811 -1.302698 0.000000
8.207498 1.454589 -1.324672 4.000000
-6.788054 1.610883 -1.360532 36.000000
-6.643992 1.554664 -1.330673 36.000000
7.697248 1.597062 -1.350122 39.142857
-6.496858 1.722627 -1.310766 26.000000
-6.561455 1.754659 -1.324548 42.000000
-7.358597 1.844256 -1.342155 15.000000
-6.834728 1.896710 -1.383246 46.666668
-6.749511 1.985069 -1.372017 43.125000
-6.569500 2.024868 -1.340626 50.333332
-6.636919 2.177548 -1.362191 32.833336
8.031476 2.274193 -1.326555 21.000000
8.285863 2.318131 -1.367362 37.000000
8.388296 2.318400 -1.383058 7.000000
-6.708184 2.399520 -1.330936 48.000000
8.040010 2.358682 -1.331577 38.000000
8.105753 2.350374 -1.341246 36.799999
-6.980729 2.517348 -1.312887 42.000000
-6.676003 2.502697 -1.390392 38.000000
-6.594132 2.519372 -1.376611 36.000000
8.149891 2.446635 -1.352295 8.000000
8.011766 2.584596 -1.337855 15.000000
8.315625 2.553455 -1.382430 25.000000
-7.092736 2.735439 -1.344942 38.000000
-6.510582 2.676823 -1.372782 17.000000
-6.483950 2.713639 -1.370741 38.333332
8.287854 2.673661 -1.383999 28.500000
8.389088 2.662787 -1.398753 29.000000
-6.554156 2.832174 -1.306156 61.333332
-6.475102 2.814234 -1.376866 34.333332
8.268697 2.826172 -1.388708 16.000000
-6.526741 2.951119 -1.396900 34.500000
-7.101628 3.077566 -1.369333 51.000000
7.651125 3.136366 -1.314138 40.777779
-6.709991 3.187573 -1.314281 64.000000
-6.646658 3.183117 -1.303828 43.000000
-6.431679 3.276825 -1.322696 38.117645
7.661572 3.267958 -1.323730 49.750000
7.673590 3.416527 -1.334926 41.333332
-6.551040 3.552486 -1.318462 33.000000
-6.449191 3.549905 -1.302434 44.333332
7.662534 3.557025 -1.342564 44.000000
7.770182 3.606795 -1.361398 36.000000
7.689834 3.702575 -1.356376 41.500000
7.777154 3.744563 -1.371757 46.000000
7.774717 3.971670 -1.387452 37.500000
7.677050 4.090558 -1.382430 36.000000
7.695799 4.178589 -1.391690 45.750000
-6.996984 4.323113 -1.307093 4.000000
7.663419 4.310320 -1.357775 42.750000
7.579037 4.349343 -1.388708 43.000000
8.090729 4.699529 -1.320156 42.000000
7.699870 5.191723 -1.310283 34.333332
-6.884236 5.311152 -1.381802 12.000000
-6.662651 5.380818 -1.361032 39.166664
7.695928 5.348762 -1.322345 43.750000
7.844818 5.361409 -1.340646 40.000000
7.687244 5.542156 -1.337107 48.666668
7.768754 5.508773 -1.343720 36.500000
7.677819 5.664815 -1.346235 39.500000
7.682761 5.812632 -1.359274 32.666668
-7.168949 5.899126 -1.309910 44.000000
7.575345 5.888744 -1.353779 24.000000
7.764511 5.938564 -1.379206 31.000000
7.664350 6.016101 -1.374735 4.000000
7.644658 6.104761 -1.380324 19.666666
7.726953 6.223740 -1.399883 30.000000
-6.701118 6.459903 -1.313263 27.000000
-6.820094 6.616056 -1.340646 87.000000
-6.655112 6.704078 -1.332823 64.000000
-6.486989 6.828698 -1.328911 22.000000
-6.563152 6.996415 -1.353500 37.000000
-7.585701 7.454445 -1.311892 4.000000
7.564082 7.459379 -1.310423 41.666668
7.561676 7.598720 -1.322339 31.666666
7.555382 7.736853 -1.333928 41.000000
-7.265841 8.046913 -1.337356 2.000000
7.776041 8.114449 -1.386326 43.000000
7.755243 8.208163 -1.392936 38.750000
7.650378 8.316814 -1.393916 36.000000
7.470397 9.838355 -1.305999 24.500000
7.500621 10.018990 -1.323171 31.666666
6.314600 -34.439415 -1.254517 6.000000
-4.143762 -34.292385 -1.237616 21.000000
-4.035072 -34.297295 -1.237329 1.000000
6.397834 -34.285801 -1.249647 23.000000
6.477928 -34.120220 -1.244348 9.000000
6.507020 -33.695435 -1.229595 12.000000
6.509621 -33.149208 -1.210403 18.000000
6.565994 -32.889473 -1.201666 10.000000
-6.579572 -23.267338 -1.287098 31.500000
-6.745950 -23.159357 -1.284015 24.000000
-6.627858 -23.023058 -1.275298 32.000000
7.597137 -22.944757 -1.286566 9.000000
7.642568 -22.841230 -1.282101 29.000000
7.622179 -22.544664 -1.266793 61.000000
-6.579953 -22.414389 -1.243475 25.666666
7.623244 -22.316494 -1.255311 40.000000
-7.226391 -22.187832 -1.242129 2.000000
7.654219 -22.179161 -1.248933 22.000000
-6.587790 -22.098301 -1.227458 29.000000
7.642334 -21.921158 -1.235750 23.000000
-6.559164 -21.752432 -1.209385 30.000000
7.583796 -21.535355 -1.215339 39.000000
7.613934 -21.406050 -1.209385 31.000000
-6.363304 -17.211618 -1.296372 37.000000
-6.396770 -16.973400 -1.281432 32.000000
-6.814343 -16.866087 -1.285096 3.000000
-6.419723 -16.794001 -1.270157 30.000000
8.004512 -16.565590 -1.299754 33.000000
-6.285719 -16.289820 -1.233512 31.000000
8.145757 -16.139851 -1.277204 23.000000
-6.248531 -16.043194 -1.216317 21.000000
7.896254 -16.019068 -1.261700 26.000000
8.392705 -15.999310 -1.276358 4.000000
-6.256565 -15.915794 -1.208143 28.000000
7.954773 -15.947716 -1.259022 37.500000
7.982960 -15.694522 -1.243942 25.000000
7.977855 -15.483385 -1.230505 24.333334
7.956889 -15.402995 -1.224774 26.000000
7.973812 -15.200759 -1.212653 18.000000
4.225277 -13.319762 -1.231157 28.000000
4.272701 -13.252285 -1.226769 54.500000
4.356259 -13.249525 -1.228817 41.333332
8.027386 -12.365814 -1.298911 9.500000
-6.103924 -12.339504 -1.212902 12.000000
-6.122206 -12.183413 -1.201317 32.666668
8.005697 -12.122853 -1.279954 6.000000
-7.011835 -12.008941 -1.225189 1.000000
8.015063 -12.054507 -1.275390 24.000000
8.032858 -11.945126 -1.268252 35.666668
8.019262 -11.777920 -1.255380 38.500000
8.500557 -11.717206 -1.275390 13.000000
8.867977 -11.712669 -1.294347 5.500000
7.993422 -11.621807 -1.242742 36.000000
8.068456 -11.652327 -1.248710 33.000000
8.359053 -11.611254 -1.260529 27.833332
8.505569 -11.570461 -1.265210 12.000000
8.033044 -11.485199 -1.234843 38.000000
8.207314 -11.540277 -1.247657 13.000000
8.074455 -11.429321 -1.232912 39.000000
-6.208282 -10.186785 -1.261211 34.000000
-6.152239 -10.224405 -1.261547 28.200001
-6.249096 -10.110350 -1.256585 22.666666
9.944225 -9.410363 -1.206232 6.000000
7.976661 -9.322882 -1.297167 45.500000
-6.764596 -9.235881 -1.210325 2.000000
7.938559 -9.190418 -1.283920 44.000000
7.962586 -9.073144 -1.276245 44.500000
8.098856 -9.054792 -1.284341 37.000000
8.044693 -8.881443 -1.266888 41.000000
8.103060 -8.833624 -1.267309 50.000000
8.304456 -8.855728 -1.283500 22.000000
8.115113 -8.735882 -1.260580 39.000000
10.923832 -8.707903 -1.230806 0.000000
8.086528 -8.569220 -1.245651 28.000000
8.033972 -8.460125 -1.233455 38.000000
-6.262309 -8.456608 -1.298017 25.000000
-6.125762 -8.391155 -1.281531 39.000000
8.088540 -8.446545 -1.236399 39.666668
8.470127 -8.428834 -1.263314 3.000000
8.027596 -8.295417 -1.220418 41.000000
10.803757 -8.338053 -1.202370 6.000000
7.973940 -8.111500 -1.202545 40.000000
8.172567 -8.132824 -1.218946 34.000000
8.176782 -8.035302 -1.212007 26.000000
-6.159142 -6.783127 -1.292726 38.250000
-6.260201 -6.576090 -1.281037 35.000000
-6.141596 -6.574498 -1.269395 35.000000
-6.115919 -6.547055 -1.264086 37.000000
8.075689 -6.479107 -1.277124 51.000000
-6.209459 -6.281401 -1.246203 35.000000
-6.158982 -6.289376 -1.242012 36.000000
-3.766103 -6.270329 -1.294072 3.000000
7.997946 -6.334566 -1.258515 50.333332
-6.217878 -6.191927 -1.238100 36.500000
-6.176089 -6.208510 -1.235585 39.000000
-3.776139 -6.176691 -1.280831 15.750000
7.939408 -6.187414 -1.241621 51.000000
8.052387 -6.174350 -1.251660 35.000000
8.220809 -6.221860 -1.271737 29.000000
-4.705514 -6.138999 -1.229245 2.000000
-3.848570 -6.123830 -1.279637 12.714286
7.856954 -6.063788 -1.224237 48.000000
8.110221 -6.098184 -1.251660 29.000000
-6.265468 -6.032095 -1.227133 31.375000
-6.149346 -6.047206 -1.216864 37.000000
-4.621017 -5.989691 -1.202249 4.000000
-3.962718 -5.964370 -1.266894 18.500000
7.950602 -6.017367 -1.229950 45.000000
-6.273578 -5.903785 -1.215467 37.500000
-4.108685 -5.944749 -1.278508 14.333333
-7.034457 -5.813128 -1.287557 6.500000
-6.267141 -5.759994 -1.201007 32.375000
-4.910882 -5.780338 -1.205388 43.666668
7.886546 -5.833647 -1.210036 43.000000
7.938525 -5.738206 -1.208273 44.200001
-7.265625 -5.593265 -1.293704 6.000000
-6.746792 -5.599364 -1.237076 42.000000
-6.561317 -5.527102 -1.210438 16.000000
-2.648123 -5.485159 -1.299127 11.000000
8.079042 -5.535978 -1.208077 38.000000
-7.192751 -5.394581 -1.268557 3.000000
-6.800193 -5.442137 -1.228879 9.000000
-6.675892 -5.394442 -1.210997 35.000000
-6.850170 -5.171353 -1.210997 10.000000
-7.235643 -5.113648 -1.250115 22.000000
-7.028492 -5.100735 -1.225340 24.000000
8.434092 -5.140180 -1.218360 19.666666
-7.280259 -5.042973 -1.249556 10.000000
-7.166916 -4.997851 -1.232791 13.000000
-7.027000 -4.966153 -1.214070 47.500000
-6.510293 -4.882736 -1.293281 26.000000
-6.370163 -4.903915 -1.277586 13.000000
-6.535793 -4.680895 -1.277586 82.000000
7.889313 -4.688049 -1.294822 43.500000
7.965105 -4.581987 -1.296498 25.000000
-6.393399 -4.533536 -1.245568 29.000000
-6.312511 -4.387430 -1.221711 29.500000
-6.857009 -4.286401 -1.285120 4.000000
-6.746530 -4.276522 -1.269425 55.000000
-6.592966 -4.296260 -1.250590 35.000000
-6.529936 -4.168044 -1.231128 12.000000
-6.394905 -4.208117 -1.216599 36.571430
-6.278867 -4.247898 -1.204761 33.000000
7.702742 -4.224171 -1.239497 35.500000
7.839588 -4.187610 -1.254027 52.500000
-6.871522 -4.088126 -1.270680 61.000000
-6.544825 -4.062716 -1.224223 23.750000
7.842401 -4.094676 -1.248252 50.666668
-6.530590 -3.857569 -1.205388 35.000000
7.808407 -3.922285 -1.232903 50.400002
7.796493 -3.779139 -1.222453 49.250000
7.961268 -3.751382 -1.241732 24.000000
-6.714242 -3.595647 -1.210411 23.333334
-6.317953 -3.625737 -1.288775 40.599998
7.821747 -3.636902 -1.217074 43.250000
-6.880015 -3.473838 -1.224850 31.000000
-6.718029 -3.465295 -1.201308 34.750000
-6.304087 -3.474373 -1.273514 37.000000
-6.399621 -3.409906 -1.282922 36.000000
-6.343763 -3.405772 -1.273863 37.000000
7.808376 -3.456888 -1.204849 53.750000
-6.334743 -3.148727 -1.251563 27.000000
-6.564941 -3.051578 -1.280831 50.666668
-6.659118 -2.914790 -1.286058 20.500000
-6.425225 -2.897106 -1.288979 44.666668
-6.459269 -2.723963 -1.240274 33.000000
-6.302971 -2.681356 -1.211842 35.799999
7.736889 -2.585724 -1.296420 40.500000
-6.444181 -2.472722 -1.221180 45.200001
-6.302490 -2.548930 -1.202783 37.500000
7.735087 -2.464128 -1.290142 37.000000
-6.567153 -2.424680 -1.206758 43.500000
-6.512074 -2.271566 -1.220204 29.000000
-6.432810 -2.300707 -1.208706 41.250000
7.708547 -2.267310 -1.276958 45.444443
-6.745116 -2.234651 -1.257138 48.000000
7.735766 -2.172969 -1.276958 47.000000
7.816254 -2.112883 -1.286768 38.000000
-6.779151 -1.965678 -1.248776 65.000000
7.863270 -2.049695 -1.291398 45.000000
-6.981753 -1.929651 -1.281528 37.000000
-6.808012 -1.950879 -1.252957 25.000000
-6.813124 -1.814106 -1.247382 20.000000
-6.358095 -1.821968 -1.289839 40.833336
7.861594 -1.813534 -1.282190 58.666668
-6.583841 -1.694361 -1.202783 49.666668
7.938252 -1.622272 -1.287631 32.000000
7.858627 -1.516185 -1.271936 49.000000
7.912807 -1.505197 -1.280097 44.666668
-6.733519 -1.368386 -1.215675 50.500000
7.768671 -1.371030 -1.262566 39.000000
14.212038 -1.398511 -1.258188 2.000000
7.951185 -1.263612 -1.279469 38.000000
8.056116 -1.332237 -1.297676 40.000000
8.504603 -1.269505 -1.213232 8.000000
-6.841517 -1.234683 -1.229960 44.000000
-6.711821 -1.223971 -1.207103 51.599998
-6.724211 -1.115670 -1.205919 44.500000
-6.543361 -1.075036 -1.293156 63.000000
-6.528959 -0.936222 -1.286266 52.500000
7.714798 -0.932936 -1.215136 54.285713
-6.540377 -0.768775 -1.284275 44.599998
7.955546 -0.819328 -1.270994 41.500000
8.106761 -0.796303 -1.294537 56.000000
-6.818164 -0.694949 -1.212539 20.500000
-7.319648 -0.572213 -1.298950 10.000000
-7.109743 -0.578280 -1.262016 25.000000
7.744163 -0.589083 -1.234267 33.000000
7.748518 -0.467133 -1.233640 25.000000
-7.313405 -0.433217 -1.296162 13.000000
-7.013292 -0.282909 -1.241807 37.000000
-6.876124 -0.309749 -1.217765 20.500000
7.733714 -0.332261 -1.230187 26.500000
7.835153 -0.283175 -1.245987 31.000000
-6.544941 -0.171636 -1.276823 28.333334
7.832051 -0.190703 -1.268369 41.166664
-6.528749 -0.058115 -1.273250 53.000000
7.774230 -0.039022 -1.235523 38.000000
7.944252 -0.029117 -1.262519 88.000000
-7.215319 0.094455 -1.276650 27.000000
-6.436358 0.074154 -1.284866 51.500000
-6.298883 0.115391 -1.228588 37.666668
8.022388 0.121824 -1.275075 59.000000
8.159373 0.059834 -1.296734 15.000000
-7.311375 0.210612 -1.294072 25.000000
-6.961560 0.178647 -1.232051 52.000000
-6.800636 0.153141 -1.203480 40.000000
-6.651882 0.191615 -1.297750 56.000000
7.684070 0.146658 -1.221397 50.500000
7.761212 0.227670 -1.233953 14.500000
-6.525355 0.269992 -1.273633 59.000000
-6.423303 0.280122 -1.230521 44.333336
-6.868666 0.414091 -1.217417 17.000000
8.006711 0.373385 -1.273819 38.000000
7.698078 0.498540 -1.225975 40.375000
-7.313797 0.544756 -1.297556 17.750000
-6.570462 0.589770 -1.286521 59.666668
-6.415684 0.630193 -1.257172 47.000000
-6.577308 0.708719 -1.290094 34.000000
-6.456434 0.698867 -1.266469 51.285713
7.742893 0.654272 -1.234895 26.000000
-6.740395 0.790623 -1.200692 52.000000
7.922791 0.769856 -1.265030 13.000000
-6.536917 0.926770 -1.287542 31.333334
8.083251 0.845333 -1.291607 14.000000
8.500695 0.852978 -1.205408 36.000000
-6.967949 0.995409 -1.245291 46.000000
-6.732417 1.026597 -1.204873 26.000000
-6.565223 1.016430 -1.295593 38.000000
7.674647 1.002322 -1.230030 49.250000
7.779503 0.995293 -1.200022 51.000000
-7.146304 1.055324 -1.278044 36.500000
-6.810888 1.060470 -1.219507 60.000000
7.752207 1.099162 -1.244312 36.000000
-7.529930 1.220930 -1.212294 1.000000
-6.717999 1.154468 -1.205988 43.799999
7.704633 1.183676 -1.228119 48.461540
-6.919751 1.323755 -1.246453 37.666668
-6.721759 1.285527 -1.210797 40.500000
-6.541126 1.272647 -1.299537 35.666668
-6.278790 1.324247 -1.212269 42.000000
-6.177545 1.262449 -1.229609 43.000000
7.939590 1.381397 -1.280725 18.000000
-6.450091 1.590281 -1.295538 43.444443
7.782661 1.671325 -1.265030 38.500000
7.828731 1.719826 -1.273819 30.000000
7.679103 1.783345 -1.281198 46.200001
7.704587 1.916123 -1.261734 42.750000
11.361813 1.901315 -1.217895 1.000000
7.748472 1.993644 -1.271517 37.333336
7.801651 2.051091 -1.281981 11.000000
-7.411347 2.220702 -1.229559 12.000000
-7.343431 2.313967 -1.223595 22.000000
-7.241292 2.256797 -1.205388 59.000000
-6.877743 2.401052 -1.288845 39.000000
-6.491211 2.433422 -1.226476 48.000000
-7.489035 2.542183 -1.256868 1.000000
-6.816379 2.530927 -1.286406 48.000000
-6.458775 2.504789 -1.200677 31.500000
10.082478 2.530586 -1.282265 2.500000
8.157490 2.617513 -1.208761 29.000000
8.244685 2.569350 -1.218448 30.333334
8.393622 2.606289 -1.240056 10.000000
8.638347 2.563715 -1.271351 16.000000
-6.737108 2.671492 -1.282225 86.000000
-6.431684 2.679955 -1.232748 38.500000
8.239212 2.651018 -1.221195 23.250000
8.774029 2.649061 -1.293145 1.500000
-6.321221 2.834266 -1.225640 47.799999
8.353676 2.782137 -1.242291 28.000000
-7.153894 2.888911 -1.226106 22.000000
-6.309098 2.924550 -1.230309 38.000000
11.099390 2.916011 -1.213269 3.000000
-7.330690 3.040970 -1.261263 20.000000
-7.194979 3.037801 -1.241173 20.000000
-6.976122 2.997178 -1.206644 18.000000
-6.389525 2.961854 -1.245988 28.000000
11.313130 3.010191 -1.237660 8.000000
-7.218111 3.074320 -1.246824 7.000000
-6.491934 3.059026 -1.269681 40.000000
-7.013457 3.224345 -1.226734 26.000000
-6.598192 3.211028 -1.298253 51.000000
-7.150413 3.328151 -1.253416 19.000000
11.251843 3.260446 -1.238502 13.000000
-6.847427 3.394636 -1.214596 35.666668
-6.430529 3.401898 -1.287103 38.857143
-6.347408 3.390624 -1.273166 38.000000
-6.849459 3.530703 -1.224641 17.333334
-6.990579 3.622022 -1.251218 46.000000
7.679398 3.727334 -1.204402 38.400002
11.019006 3.648455 -1.227147 3.000000
-6.589486 3.859815 -1.213655 49.000000
7.690700 3.868050 -1.214629 29.500000
-6.455981 4.033005 -1.209783 34.142857
7.728906 3.963596 -1.225526 27.000000
7.852510 3.977184 -1.241956 47.799999
7.941609 4.104238 -1.261292 13.000000
-6.768703 4.211505 -1.266913 56.000000
-6.595117 4.161108 -1.239290 24.000000
-6.400968 4.171112 -1.214178 42.666668
7.731509 4.229363 -1.243409 29.500000
7.875426 4.196259 -1.259056 16.000000
-6.691433 4.340489 -1.267541 25.000000
-6.432980 4.296999 -1.209556 37.000000
7.673963 4.292392 -1.240615 44.500000
7.852389 4.247542 -1.259615 29.000000
-6.466990 4.399916 -1.243057 7.000000
-7.313005 4.455122 -1.208202 1.000000
7.690594 4.624773 -1.266182 38.750000
7.944427 4.625623 -1.297057 16.000000
7.576906 4.736415 -1.260733 40.000000
7.864053 4.645232 -1.288675 59.000000
7.648838 4.761503 -1.271239 40.400002
7.590092 4.878366 -1.273027 34.000000
7.613031 4.915766 -1.278616 36.333332
-7.459280 5.040766 -1.270233 0.500000
7.674657 5.070158 -1.297802 42.000000
-6.568351 5.509238 -1.209599 47.000000
-6.525884 5.668974 -1.219658 42.000000
-6.460404 5.719675 -1.217423 43.500000
-6.432045 5.831334 -1.224967 45.500000
-6.510982 5.856346 -1.235585 54.000000
7.714397 5.936596 -1.200731 38.000000
-6.509661 6.004838 -1.249556 37.000000
-6.453025 5.990230 -1.242291 47.000000
7.912268 6.128542 -1.234520 44.000000
-6.612559 6.196621 -1.278616 37.500000
7.952463 6.199746 -1.243824 51.000000
7.756611 6.275543 -1.230725 39.000000
8.009933 6.325863 -1.259005 37.000000
7.699656 6.381083 -1.233541 44.250000
8.076387 6.405956 -1.271574 49.333332
-7.392064 6.484948 -1.212974 1.000000
7.631144 6.633653 -1.247252 43.000000
7.770015 6.595306 -1.257169 32.250000
7.574208 6.710492 -1.248232 33.500000
7.610266 6.657594 -1.247252 31.000000
7.761550 6.683134 -1.263412 51.500000
7.578221 6.756771 -1.252394 43.000000
7.655940 6.934640 -1.274185 39.000000
7.641128 7.031301 -1.280878 42.000000
7.672056 7.194383 -1.297364 43.000000
-6.551206 7.301437 -1.210035 67.000000
-6.434897 7.320964 -1.202323 45.000000
7.566398 7.299188 -1.296834 44.750000
7.631483 7.247071 -1.298181 43.000000
-7.429571 7.347044 -1.288876 1.000000
-6.450503 7.611615 -1.230725 38.750000
-6.638189 7.684996 -1.252639 11.000000
-6.591134 7.777503 -1.257536 96.000000
-6.474396 7.787380 -1.249211 35.000000
7.840619 8.207540 -1.200022 53.500000
7.611953 8.513624 -1.207381 38.666668
8.406387 8.447569 -1.259949 4.000000
7.540102 8.594919 -1.208783 42.166664
-7.447820 8.788387 -1.217895 2.000000
-7.371493 8.753929 -1.209905 2.000000
7.491838 8.787423 -1.220839 38.000000
7.527515 8.970943 -1.238081 42.000000
7.498217 9.109033 -1.247333 40.000000
7.590999 9.104535 -1.253221 36.000000
7.445887 9.162162 -1.248174 39.000000
7.459985 9.268408 -1.257847 35.500000
7.491846 9.428836 -1.273196 37.500000
7.480859 9.568305 -1.284060 35.000000
7.481800 9.715298 -1.296396 30.000000
7.470470 11.591901 -1.215008 30.000000
7.427412 11.685688 -1.219923 11.000000
7.525637 11.677145 -1.223960 37.500000
7.433201 11.776355 -1.226944 32.000000
-7.265974 11.875591 -1.226593 2.000000
-6.737591 11.918364 -1.206232 39.000000
-6.834667 12.179233 -1.230455 18.000000
-6.767097 12.753971 -1.272055 22.500000
7.259592 15.589714 -1.214908 36.000000
7.269484 15.804993 -1.229002 42.000000
7.287687 15.976590 -1.240559 40.000000
3.718626 16.581793 -1.200532 49.000000
3.461718 16.657616 -1.201941 1.500000
-3.804752 16.828247 -1.218854 3.000000
-3.299776 16.928387 -1.218431 1.500000
3.391682 16.851223 -1.214344 2.000000
-3.391602 16.973322 -1.222801 7.000000
-3.611189 17.225681 -1.243378 1.000000
6.588208 -32.469086 -1.187057 18.000000
6.652242 -32.264217 -1.180326 41.000000
6.707679 -32.024059 -1.172305 18.000000
6.655196 -31.283401 -1.145951 17.000000
6.758509 -31.285782 -1.146811 39.000000
-7.096005 -31.157669 -1.144949 6.000000
-7.195656 -31.143011 -1.145235 16.000000
6.823366 -31.112114 -1.141225 21.000000
6.818580 -30.630096 -1.124324 12.000000
-7.160288 -30.552023 -1.124324 10.000000
6.884825 -30.475952 -1.119455 21.000000
6.941232 -30.282732 -1.113153 18.000000
6.977488 -30.007696 -1.103843 10.000000
3.924337 -21.898291 -1.184225 14.333333
4.019885 -21.902636 -1.185359 2.000000
-6.542412 -21.452810 -1.193864 12.000000
7.640778 -21.165154 -1.197797 32.500000
7.705418 -21.033293 -1.192376 32.000000
-6.383756 -20.699299 -1.153041 11.000000
7.700007 -20.715939 -1.176429 38.000000
-6.269763 -20.558786 -1.144111 10.000000
-6.402378 -20.530426 -1.144749 31.000000
7.741612 -20.433681 -1.163140 33.000000
-6.541682 -20.301895 -1.135393 90.000000
-6.430884 -20.284863 -1.132735 32.500000
7.786979 -20.264629 -1.155592 28.000000
8.289765 -20.232647 -1.163884 5.000000
7.791381 -20.087381 -1.146875 34.000000
8.166051 -20.110558 -1.155380 4.000000
7.848626 -20.047926 -1.146024 30.000000
8.273936 -20.014553 -1.152828 5.000000
7.826436 -19.807705 -1.133692 31.000000
7.873827 -19.745922 -1.131566 34.000000
7.916438 -19.672913 -1.128802 36.000000
8.659017 -19.707098 -1.145812 3.000000
7.883529 -19.414791 -1.115407 18.000000
7.938218 -19.202454 -1.106052 22.000000
7.847563 -19.153374 -1.101799 13.000000
-6.289706 -15.709480 -1.195458 23.000000
-6.242737 -15.639372 -1.189633 27.666666
-6.299416 -15.451658 -1.178827 44.000000
-6.223540 -14.995339 -1.146975 25.000000
-6.193097 -15.055408 -1.150075 28.000000
7.920835 -14.985147 -1.197431 33.000000
-6.280184 -14.932734 -1.144438 37.000000
7.907853 -14.847493 -1.188411 38.000000
7.918611 -14.755776 -1.183055 34.000000
7.885222 -14.583412 -1.171216 43.000000
-6.170635 -14.480852 -1.112021 33.000000
7.925274 -14.548058 -1.170371 43.000000
7.919101 -14.428645 -1.162760 33.000000
8.810730 -14.400363 -1.192639 10.000000
-6.210707 -14.324651 -1.103001 34.000000
7.933499 -14.347827 -1.158250 45.000000
7.846498 -14.085802 -1.139082 39.000000
7.979572 -14.149942 -1.147632 35.000000
8.799053 -14.130899 -1.176008 18.500000
8.850035 -13.966968 -1.168116 7.000000
7.974504 -13.935615 -1.134290 22.000000
