# This PCD file was generated using the MATLAB® pcwrite function
# from Computer Vision Toolbox®.
# .PCD v.7 - Point Cloud Data file format
VERSION .7
FIELDS x y z intensity
SIZE 4 4 4 4
TYPE F F F F
COUNT 1 1 1 1
WIDTH 1242
HEIGHT 1
VIEWPOINT 0 0 0 1 0 0 0
POINTS 1242
DATA ascii
-2.674493 -5.614755 1.544049 44.000000
4.401909 -5.620021 1.506709 1.000000
4.795097 -5.614323 1.558336 38.500000
-17.675423 -5.474838 1.588947 62.000000
-17.456568 -5.467207 1.570809 61.000000
-2.894264 -5.487140 1.540194 2.000000
-2.680912 -5.450607 1.508066 3.333333
-2.557639 -5.502414 1.506460 34.000000
4.636269 -5.515508 1.520751 34.000000
4.921287 -5.511918 1.559576 24.500000
-17.653473 -5.346717 1.583928 48.666668
-2.703876 -5.351202 1.537139 21.142857
-3.624287 -5.243906 1.582602 7.000000
2.198451 -5.284039 1.529549 0.000000
2.701284 -5.281044 1.585319 50.000000
14.452620 -5.300345 1.591892 6.500000
17.761776 -5.244422 1.590316 19.000000
-17.663105 -5.198512 1.581076 32.000000
2.370160 -5.141274 1.513024 18.000000
2.745182 -5.191830 1.550878 19.666666
2.939727 -5.153807 1.574466 6.100000
14.390978 -5.166959 1.581194 44.666668
17.854677 -5.210926 1.597160 55.000000
2.437379 -5.072482 1.504073 30.583334
3.012937 -5.064338 1.532364 55.333332
14.398419 -5.050725 1.577903 71.333336
-3.633018 -4.934879 1.521399 5.000000
2.581713 -5.020774 1.508893 19.666666
3.011915 -4.932221 1.544524 29.000000
4.036537 -5.006104 1.596578 5.000000
4.186934 -4.897089 1.599630 15.000000
4.728272 -4.863889 1.558083 50.000000
14.409458 -4.927779 1.574817 7.000000
3.065892 -4.814340 1.525417 68.000000
-3.481544 -4.682779 1.559499 2.000000
4.585412 -4.687376 1.506147 66.000000
-3.468006 -4.609884 1.541735 30.000000
-3.413513 -4.472774 1.503729 1.000000
-4.404425 -4.418283 1.548868 3.000000
4.559259 -4.404382 1.514999 20.500000
-4.466908 -4.288104 1.537302 2.000000
-4.123299 -4.254912 1.555484 17.500000
9.169420 -4.148710 1.577471 34.000000
-4.948731 -4.054819 1.588385 23.000000
5.846977 -4.068297 1.503404 4.000000
-5.095170 -3.939414 1.598987 33.000000
9.163122 -3.997480 1.566962 45.833332
9.298214 -3.935371 1.582550 41.000000
-5.104416 -3.908285 1.596096 7.000000
-4.720016 -3.917243 1.522845 0.000000
4.104601 -3.848290 1.503729 16.750000
9.357904 -3.926016 1.590602 4.000000
4.222381 -3.821812 1.522147 20.000000
-4.653317 -3.715947 1.591515 14.000000
-4.519555 -3.703167 1.561565 2.000000
-4.338941 -3.670272 1.518876 7.333333
4.513687 -3.706248 1.560876 26.000000
-4.746072 -3.551807 1.584286 8.000000
-4.691880 -3.569084 1.575507 7.500000
4.502046 -3.587512 1.538499 32.333332
-4.768762 -3.362774 1.559499 13.000000
-4.773965 -3.321701 1.554335 23.000000
12.846290 -2.666262 1.588873 7.000000
12.837775 -2.548934 1.585026 1.000000
-8.338447 -2.523878 1.522062 25.000000
9.605782 -2.464568 1.554368 20.000000
12.873001 -2.513918 1.588393 12.000000
18.193920 -2.437284 1.576285 5.000000
9.469757 -2.382153 1.530521 2.000000
18.191917 -2.340132 1.575030 33.000000
9.381310 -2.328592 1.515036 12.000000
-8.436618 -2.125394 1.519996 4.000000
12.430438 -1.744771 1.520106 0.000000
8.707973 -1.724157 1.550898 30.333334
-15.055439 -1.571754 1.565354 34.500000
-11.394457 -1.623720 1.598110 50.000000
-15.019730 -1.448953 1.560416 21.500000
-14.772286 -1.425010 1.534701 12.000000
-14.832543 -1.289967 1.539638 7.000000
-7.830009 -1.315905 1.530550 8.500000
-11.349214 -1.128793 1.583624 10.000000
-9.653870 -1.159696 1.524017 5.500000
9.670420 -0.973776 1.523398 61.500000
9.730581 -1.026160 1.533618 22.000000
-9.708530 -0.842557 1.527424 168.000000
-9.539736 -0.888277 1.501719 29.000000
9.648579 -0.864510 1.518381 65.599998
-12.467414 -0.729781 1.512411 6.000000
9.677679 -0.759928 1.521540 58.500000
9.772917 -0.705641 1.535786 49.000000
-8.925751 -0.352254 1.560612 15.000000
-8.832308 -0.320780 1.544091 11.000000
-9.890224 -0.141556 1.550342 7.000000
-9.695544 -0.199709 1.519991 6.000000
-8.995182 -0.100479 1.571627 11.000000
10.070843 -0.061443 1.578524 41.000000
10.954261 -0.118541 1.521093 2.000000
-9.835812 0.044636 1.541670 79.000000
-9.129706 0.012747 1.595032 26.000000
10.082577 0.057234 1.580382 70.750000
-12.527755 0.133380 1.517220 7.000000
-12.432812 0.093309 1.505679 2.000000
9.958096 0.079950 1.560871 110.000000
10.068035 0.144101 1.578214 13.000000
-12.398895 0.248898 1.501832 10.000000
-10.896454 0.254887 1.513391 27.000000
-10.194031 0.174377 1.598035 18.000000
7.236157 0.250083 1.528186 8.500000
7.385920 0.220499 1.559576 0.000000
10.862122 0.189599 1.508440 9.000000
10.948618 0.225518 1.520543 9.000000
11.058760 0.262545 1.535946 8.000000
-12.414346 0.346717 1.503996 13.250000
7.224050 0.352063 1.526534 4.500000
8.923850 0.296034 1.559924 31.000000
10.107979 0.303530 1.585028 0.000000
10.950945 0.294411 1.521093 9.000000
7.522637 0.413996 1.590139 3.000000
7.873529 0.383702 1.519572 25.000000
8.051363 0.443093 1.554400 17.000000
8.685825 0.383772 1.518964 7.500000
9.633534 0.410502 1.511320 13.000000
10.886251 0.421039 1.512703 5.750000
10.910750 0.430591 1.516142 5.000000
-12.467570 0.511777 1.511129 4.333333
-10.900087 0.494972 1.515041 5.000000
7.348939 0.485656 1.554482 10.833333
7.945275 0.474860 1.534336 5.500000
9.629844 0.561999 1.511939 26.000000
9.966950 0.550259 1.564588 12.000000
-12.493995 0.604500 1.514816 9.000000
6.885495 0.632777 1.588230 9.666667
7.369268 0.666058 1.561723 12.400000
7.460986 0.575401 1.579401 11.000000
9.588588 0.589822 1.505745 24.000000
10.888831 0.635474 1.514491 3.000000
6.788474 0.717092 1.567933 15.000000
7.495975 0.756089 1.590139 9.000000
8.106072 0.676411 1.568028 1.000000
10.808849 0.767203 1.504589 3.000000
10.956185 0.717099 1.524531 5.250000
-10.848832 0.869065 1.511191 8.000000
6.885718 0.814924 1.592648 19.400000
7.437845 0.785687 1.578575 19.000000
8.235106 0.856814 1.596042 23.500000
6.848403 0.876086 1.585842 5.000000
6.766942 1.060910 1.573306 0.000000
10.056078 1.048074 1.584718 10.000000
10.103971 0.972902 1.591015 5.000000
6.514813 1.105407 1.517788 21.000000
6.760183 1.265352 1.579753 9.600000
6.712081 1.346086 1.572410 6.500000
-18.055990 1.414675 1.555238 0.000000
6.667258 1.413459 1.565471 3.500000
10.108053 1.391821 1.599274 11.000000
-17.812832 1.480128 1.534875 15.000000
6.659625 1.576780 1.571963 3.750000
-17.837275 1.821282 1.539667 11.000000
-18.077198 1.903178 1.560884 18.000000
8.600882 2.166752 1.549598 4.500000
8.599174 2.252743 1.553040 2.000000
8.606804 2.575616 1.569561 0.000000
18.199667 2.918373 1.582787 6.000000
18.090557 3.017585 1.574916 0.000000
-14.590631 3.231997 1.545398 13.000000
-14.909447 3.847518 1.592303 26.000000
17.590643 4.611537 1.561569 38.000000
17.528267 4.683569 1.557976 66.000000
17.549047 4.797619 1.562253 34.666668
-16.411289 6.047990 1.501908 11.666667
-16.508114 6.231347 1.515198 18.500000
-12.510917 7.366550 1.501373 27.000000
-13.171254 7.397288 1.562165 12.750000
-12.937503 7.400387 1.541284 16.000000
-8.613870 7.531595 1.588758 18.500000
-8.538960 7.625281 1.589583 23.416668
-8.352982 7.597974 1.567853 25.000000
-7.886535 7.592009 1.519993 27.000000
-12.518456 7.746655 1.522357 10.000000
-8.361674 7.726808 1.580836 28.799999
-8.296824 7.764030 1.577756 28.000000
-7.969182 7.671669 1.535946 34.500000
-12.487306 7.781734 1.521534 4.000000
-12.236647 7.813646 1.501373 0.500000
-8.268787 7.811182 1.579406 28.500000
-7.937152 7.810735 1.546215 29.333334
-7.742122 7.861974 1.532095 30.500000
3.870544 7.810833 1.522979 10.333334
-7.613328 7.961154 1.529528 30.333334
-3.577617 7.952983 1.523576 7.200000
4.289010 7.952250 1.578511 5.000000
-7.980185 7.977424 1.566753 34.000000
-7.749933 7.989419 1.545518 32.200001
-7.471395 8.003529 1.520268 30.000000
-3.470230 7.981012 1.520455 5.000000
-7.490035 8.151063 1.537046 39.000000
4.140014 8.097265 1.588837 5.000000
-7.549883 8.268177 1.554650 28.000000
-7.495051 8.312531 1.554100 30.666666
-7.603463 8.539943 1.587658 37.000000
-4.929812 8.483883 1.537954 2.000000
2.373976 8.525602 1.546156 6.000000
-4.943912 8.632346 1.559220 32.000000
-4.838351 8.572694 1.542909 20.000000
2.550024 8.630857 1.572315 11.000000
9.653549 8.734980 1.576611 9.500000
-12.663649 8.863888 1.598475 10.000000
2.161243 8.825598 1.587460 14.000000
9.704686 8.864703 1.591759 9.000000
-12.648746 8.912798 1.600121 10.000000
-4.254215 8.927383 1.550032 25.500000
-4.331385 9.040155 1.571194 25.666666
-4.237569 9.038025 1.564588 14.000000
-4.589176 9.108718 1.598654 29.000000
-4.439684 9.094641 1.586266 2.000000
-4.287469 9.219707 1.593699 4.000000
3.466297 9.239477 1.546749 54.400002
2.974469 9.309023 1.531760 24.000000
3.134201 9.302347 1.538573 1.000000
3.422254 9.326647 1.557155 18.000000
3.390404 9.376113 1.562729 12.000000
3.594799 9.384349 1.575117 13.000000
3.722188 9.449326 1.591841 10.000000
12.001430 9.467959 1.580783 1.000000
3.428870 9.576462 1.594319 0.000000
-5.491295 9.801400 1.559968 42.666668
-5.457065 9.885458 1.567853 14.000000
-5.381980 9.933217 1.568679 32.750000
-5.205859 9.966401 1.561252 9.000000
11.284699 9.924325 1.554039 35.000000
-5.326222 10.055292 1.579956 22.000000
4.412195 10.070355 1.526594 8.000000
-5.164279 10.170547 1.583807 4.000000
11.415247 10.167040 1.580783 17.000000
-5.193765 10.228829 1.592884 1.500000
-5.075394 10.193053 1.581056 32.500000
5.326719 10.180417 1.595360 7.000000
-5.086794 10.337732 1.599761 6.000000
3.306468 10.292198 1.501013 32.500000
10.731267 10.308907 1.538815 22.000000
-4.735866 10.396544 1.586282 15.500000
-4.634354 10.433395 1.585182 12.000000
3.267258 10.394039 1.512841 17.500000
10.644245 10.387319 1.537992 37.500000
-4.614626 10.522298 1.595360 5.500000
3.065453 10.496630 1.518342 57.000000
3.588252 10.540445 1.546032 45.333332
3.506769 10.741668 1.568954 2.000000
10.432755 10.672194 1.543341 9.000000
2.635779 10.837057 1.548599 10.500000
-10.446350 11.328544 1.593538 7.000000
6.384223 11.325548 1.574447 0.000000
9.222034 11.408605 1.517008 4.000000
10.196774 11.428591 1.583869 4.000000
-14.325953 11.654843 1.585867 1.000000
-10.113460 11.587613 1.590493 32.799999
-9.964226 11.639813 1.584486 28.000000
-13.233850 11.770232 1.520844 28.000000
-9.904723 11.737424 1.588189 27.000000
-14.233876 11.804612 1.587920 2.000000
9.171450 11.793979 1.544987 5.000000
4.791958 12.060038 1.571561 0.000000
5.211068 12.053846 1.590316 3.000000
12.742124 12.087598 1.508182 3.000000
9.188457 12.206785 1.579960 8.000000
-13.343383 12.325858 1.559858 19.000000
9.080737 12.343955 1.584692 3.000000
9.181039 12.277015 1.585309 3.000000
12.489797 12.342447 1.507840 3.000000
-13.760761 12.394598 1.590316 1.000000
3.575678 12.396345 1.562424 7.000000
3.768969 12.546258 1.586469 8.000000
12.381390 12.507363 1.511262 15.000000
3.154378 12.632992 1.576851 4.000000
-13.192412 12.735314 1.574573 14.000000
-13.036648 12.704117 1.563109 77.500000
2.988243 12.730445 1.583584 8.000000
-12.866773 12.777225 1.557120 78.000000
2.337716 12.825443 1.578775 10.000000
2.718275 12.843581 1.589835 28.000000
2.883808 12.827781 1.592240 22.000000
-12.782221 12.934875 1.561569 58.000000
2.264648 12.882898 1.584064 32.000000
2.686013 12.890933 1.594644 20.000000
-12.772483 13.074813 1.569554 34.000000
17.323343 13.490712 1.501479 1.000000
17.507019 13.722322 1.521128 5.000000
17.592276 13.878593 1.532317 27.000000
16.842270 14.167442 1.505027 1.000000
16.765343 14.329086 1.508165 11.000000
9.990800 14.662451 1.523582 59.000000
10.085740 14.603696 1.524038 68.000000
10.249795 14.594711 1.531453 55.500000
10.403737 14.666570 1.544116 3.000000
9.942731 14.740755 1.526833 53.500000
9.910327 14.876827 1.534989 32.666668
17.276505 15.050024 1.566838 6.500000
17.138365 15.168078 1.565064 3.000000
16.843521 15.192612 1.551146 22.000000
17.326777 15.238028 1.577890 2.000000
16.021284 15.390719 1.519217 7.000000
15.541878 15.503947 1.501206 6.000000
15.806718 15.571225 1.517307 2.000000
16.393913 15.502936 1.542959 11.500000
15.954988 16.016367 1.545961 2.000000
-13.977605 16.938107 1.501752 28.000000
-14.176075 17.069103 1.517307 18.000000
-13.813675 17.174608 1.507210 33.000000
-13.844359 17.323912 1.516488 27.000000
-13.827085 17.414204 1.520582 25.000000
-13.843990 17.548414 1.528496 23.000000
-14.130984 18.028400 1.566429 31.000000
-14.253274 18.302546 1.586350 40.000000
-12.559943 19.437021 1.582530 24.000000
-12.494511 19.469666 1.581984 28.000000
-12.385500 19.501348 1.579801 33.000000
-12.280724 19.539259 1.578163 1.000000
3.987313 21.875650 1.520582 6.000000
3.923270 22.114204 1.535864 2.500000
2.320698 22.728474 1.562335 1.000000
2.983014 22.812059 1.573251 19.000000
1.997704 23.159712 1.589625 2.000000
2.662569 23.189131 1.596174 5.000000
-2.324177 -33.071419 1.689320 8.000000
-7.600617 -32.405396 1.696037 5.000000
-7.353357 -32.261665 1.686063 6.000000
14.168087 -20.347296 1.695509 9.000000
13.671255 -20.237991 1.670130 28.500000
13.770996 -20.179956 1.670675 10.000000
-14.079258 -19.716551 1.656758 22.000000
-13.977998 -19.705347 1.652118 1.000000
-14.117109 -19.573917 1.650344 18.500000
-14.191618 -19.482983 1.648298 30.000000
-4.582279 -19.249290 1.699143 11.000000
-13.513759 -19.178286 1.604361 7.000000
14.815989 -19.148918 1.655666 21.000000
-2.552109 -19.051081 1.650547 23.000000
14.792708 -18.995228 1.646387 56.000000
14.862293 -18.920502 1.645296 47.666668
15.002830 -18.773550 1.643386 9.000000
-2.660753 -18.533072 1.607769 5.000000
-2.397233 -18.558926 1.606914 10.500000
14.909165 -18.536634 1.626739 39.000000
15.022563 -18.557945 1.632743 27.000000
-4.343279 -18.503138 1.632067 25.000000
-2.829265 -18.467777 1.604347 18.000000
-2.598084 -18.509766 1.605031 46.000000
15.040461 -18.461157 1.628376 32.000000
15.133810 -18.457018 1.632197 33.000000
15.110440 -18.310886 1.623464 22.000000
-17.304155 -17.701302 1.692780 2.000000
-17.212315 -17.718361 1.689232 1.000000
-17.244938 -17.530210 1.681591 2.000000
-17.536530 -17.493727 1.693871 2.000000
-17.404627 -17.526634 1.689096 1.000000
8.499542 -13.063178 1.611642 2.000000
9.019353 -12.953014 1.632214 4.000000
9.198639 -12.948524 1.642500 13.000000
5.550726 -12.650907 1.673030 34.000000
5.716970 -12.703046 1.686976 1.000000
9.245726 -12.674406 1.622339 15.000000
5.700834 -12.457444 1.659084 6.000000
5.581873 -12.402341 1.647062 7.000000
5.436181 -12.284799 1.626864 36.000000
5.953413 -11.998328 1.622055 1.000000
-4.186685 -11.063037 1.642434 12.571428
8.954425 -10.645030 1.684571 40.000000
-17.563362 -8.509377 1.675872 0.000000
8.493051 -8.201645 1.639369 31.000000
8.606001 -8.181091 1.648722 35.000000
16.898386 -8.172637 1.611876 0.000000
6.941874 -8.078666 1.669513 18.000000
7.032629 -8.050302 1.675459 27.000000
8.271390 -8.078391 1.605372 34.799999
8.387277 -8.048732 1.614064 35.000000
8.602320 -8.075369 1.638269 30.500000
16.888226 -8.037189 1.606058 3.000000
16.913198 -8.114336 1.610849 8.000000
7.013529 -7.977714 1.664929 43.000000
8.649689 -7.931843 1.629546 34.428574
7.467086 -7.824790 1.695280 4.000000
8.647729 -7.791918 1.616264 25.000000
8.725193 -7.775167 1.622728 23.000000
7.427882 -7.662353 1.672672 38.500000
-17.056032 -7.547514 1.601609 1.000000
7.476996 -7.624587 1.673807 26.000000
4.725134 -7.419892 1.695732 8.666667
8.832916 -7.422211 1.601961 31.000000
-17.708908 -7.244904 1.643018 7.000000
4.714256 -7.251003 1.667213 16.000000
7.814059 -7.266181 1.672486 27.200001
4.464578 -7.171209 1.628410 24.750000
7.761137 -7.194444 1.658735 41.000000
-17.600807 -6.626232 1.614956 3.000000
2.920822 -6.496092 1.635987 1.000000
2.733270 -6.262043 1.696334 7.000000
2.368189 -6.173354 1.641588 9.300000
-3.616287 -5.992447 1.607631 21.000000
-2.877089 -5.967518 1.644769 14.500000
-3.474111 -5.874390 1.694406 4.000000
-3.049849 -5.826390 1.632721 13.000000
-2.977843 -5.732591 1.603806 10.000000
-2.371047 -5.753712 1.663208 22.083334
-2.273978 -5.743404 1.650900 9.500000
-2.721335 -5.650134 1.676074 7.625000
-2.443007 -5.661628 1.647974 2.333333
-2.762970 -5.617572 1.673105 11.000000
-2.536655 -5.532530 1.626630 0.333333
-2.838285 -5.442966 1.640572 22.000000
-2.743562 -5.394936 1.617593 11.500000
3.278114 -5.219621 1.647285 11.500000
3.527851 -5.138816 1.665876 8.000000
17.909252 -5.165855 1.600582 11.000000
3.526400 -5.102276 1.657613 19.000000
3.694406 -5.101747 1.683433 12.000000
3.820136 -5.071332 1.696859 22.000000
19.130180 -5.033010 1.698630 12.500000
19.136353 -4.938307 1.697090 12.000000
3.987272 -4.866293 1.681367 5.000000
4.289340 -4.873011 1.611758 24.750000
4.323089 -4.847017 1.612481 20.000000
4.361807 -4.808692 1.611838 9.000000
5.347430 -4.751873 1.643151 4.000000
-4.668545 -4.727701 1.649588 3.000000
-4.320009 -4.471938 1.661744 30.000000
4.709748 -4.492775 1.616015 13.333333
4.823351 -4.352939 1.613059 37.200001
4.982674 -4.351261 1.642359 0.000000
-4.523381 -4.274547 1.663294 7.000000
-4.222371 -4.302711 1.611138 13.500000
-5.183398 -4.059922 1.634649 6.000000
-5.125659 -3.988782 1.612481 21.000000
-4.685231 -3.765730 1.606491 16.000000
4.692810 -3.771769 1.609073 106.000000
8.900015 -3.029813 1.642532 3.000000
8.837435 -2.931351 1.626699 45.250000
8.877379 -2.821103 1.627387 44.500000
8.970819 -2.773501 1.640467 0.000000
-8.905794 -2.634633 1.622569 0.000000
-9.022249 -2.485141 1.634960 9.000000
18.848860 -2.344409 1.631040 27.000000
-9.317244 -2.145901 1.670413 23.500000
-11.609162 -2.084632 1.637719 8.000000
-8.497642 -2.040079 1.684627 7.500000
-11.538833 -2.015928 1.626441 33.000000
-11.462215 -1.905214 1.613376 35.875000
-15.590264 -1.751482 1.622339 5.000000
-11.479976 -1.801824 1.613514 27.000000
-11.407450 -1.717082 1.601778 47.666668
9.036795 -1.707520 1.606735 66.000000
-11.455473 -1.559014 1.605262 52.500000
-11.507650 -1.447909 1.610449 46.000000
-11.570002 -1.359144 1.617548 37.333332
-8.532765 -1.337723 1.664942 7.000000
-8.408094 -1.358817 1.641849 5.000000
-11.642639 -1.287470 1.626441 26.500000
-8.603117 -1.293429 1.677056 9.000000
-9.266898 -1.216722 1.632895 11.000000
-11.751361 -1.057049 1.638269 14.000000
-11.688807 -1.088455 1.630017 16.000000
-11.696978 -0.996660 1.630017 24.500000
-10.767336 -1.002651 1.694970 41.500000
-8.607581 -0.991366 1.670242 9.000000
9.642673 -0.980209 1.693336 46.000000
13.438726 -0.968003 1.631673 53.000000
-11.638694 -0.881234 1.620665 15.500000
-10.673377 -0.875661 1.678556 91.500000
-9.292701 -0.924261 1.631518 16.000000
9.612810 -0.861288 1.686177 61.000000
13.474850 -0.906811 1.635520 20.000000
9.658035 -0.743104 1.692327 58.666668
-11.826227 -0.690178 1.644871 10.000000
-11.654274 -0.643414 1.620665 8.000000
-10.728074 -0.727607 1.685369 84.000000
-10.659020 -0.722977 1.674530 1.000000
12.218171 -0.670324 1.699058 8.500000
-11.701617 -0.572303 1.626717 17.000000
12.225086 -0.574357 1.699333 17.500000
-11.868807 -0.468401 1.649272 6.000000
-12.224108 -0.251792 1.697683 5.000000
-11.966623 -0.114895 1.661649 0.500000
-11.858094 -0.057952 1.646521 7.000000
-10.365079 -0.083259 1.624669 40.333332
-10.809855 0.049134 1.694350 29.000000
-10.353577 -0.018069 1.622811 4.000000
-9.283292 0.042129 1.621880 31.000000
7.104976 0.000003 1.631958 7.000000
10.444358 0.051041 1.637057 82.000000
-9.582569 0.073591 1.674199 31.000000
-9.385286 0.101561 1.639779 23.000000
-9.697648 0.257328 1.694851 1.000000
8.697718 0.191304 1.677056 2.500000
6.336641 0.407022 1.697031 5.583333
6.755721 0.446352 1.680912 6.500000
6.658631 0.524036 1.658262 15.000000
6.928365 0.523687 1.659889 7.000000
7.044808 0.521047 1.622556 5.000000
6.606052 0.634908 1.647660 2.000000
7.716622 0.619509 1.633920 9.000000
6.092482 0.701691 1.639023 11.000000
6.992841 0.672102 1.613601 7.000000
15.592652 1.060267 1.616167 34.000000
11.937731 1.149473 1.665225 7.000000
12.005832 1.079822 1.673752 9.500000
15.525955 1.129248 1.609790 71.000000
10.235255 1.239329 1.615997 31.400000
15.524500 1.227276 1.610407 90.500000
15.589934 1.306384 1.617813 11.000000
10.245536 1.377968 1.620333 8.000000
10.602446 1.392073 1.676078 38.000000
6.424680 1.671109 1.648142 3.500000
10.617310 1.598136 1.682892 0.000000
11.656542 1.623641 1.634143 10.000000
8.097294 2.031549 1.609292 2.000000
8.115079 2.097191 1.615728 8.000000
8.283482 2.224387 1.653395 6.000000
-15.605300 2.340583 1.631802 10.000000
16.229431 2.289539 1.694919 74.599998
-15.609670 2.391402 1.633037 0.000000
16.248722 2.413923 1.698731 38.666668
18.711290 3.424038 1.633436 8.000000
-15.822998 3.609418 1.678296 5.000000
-15.859971 3.749127 1.685291 6.000000
18.504860 4.265406 1.630698 0.500000
18.488462 4.353454 1.631040 7.000000
18.343460 4.400441 1.619861 15.666667
18.547243 4.552207 1.639938 8.000000
18.610201 4.629696 1.646783 2.000000
18.719225 4.719313 1.657734 2.000000
-15.375107 4.856688 1.667393 7.500000
18.243704 5.214072 1.629329 2.000000
9.985366 6.251683 1.635794 54.000000
10.045979 6.180269 1.637719 44.666668
10.234531 6.193309 1.661008 21.666666
9.952066 6.340224 1.638453 42.000000
9.977545 6.444887 1.649272 19.000000
10.023675 6.519403 1.660274 32.000000
-11.648496 6.801306 1.633516 27.333334
-11.608132 6.933572 1.637444 10.000000
-11.573044 6.945594 1.634558 16.333334
-11.555831 7.050939 1.639367 0.000000
-7.626422 7.599681 1.687537 34.500000
-7.598422 7.691746 1.694660 31.000000
-7.497332 7.733925 1.688311 29.500000
-7.419352 7.799296 1.687227 28.500000
3.907736 8.551002 1.642532 5.000000
-4.317443 8.613883 1.683378 26.000000
-4.229781 8.664657 1.684525 10.000000
-7.680078 8.722093 1.613651 18.500000
-4.332074 8.699768 1.697949 38.000000
-4.108507 8.727157 1.685213 17.500000
10.955602 8.755100 1.698357 55.666668
-7.690343 8.859210 1.628917 2.000000
-4.085649 8.785718 1.692786 6.000000
10.882903 8.809656 1.695632 54.000000
5.300993 8.934992 1.628385 8.000000
-12.672609 8.989321 1.606704 12.000000
5.151160 9.067680 1.634579 14.000000
9.799576 9.008017 1.611956 3.000000
2.770670 9.165339 1.672822 20.000000
3.348891 9.082269 1.691180 15.000000
4.941596 9.093717 1.622191 10.000000
-12.848394 9.205366 1.634477 41.500000
-12.722666 9.267331 1.627688 14.000000
-12.629316 9.219651 1.616990 22.333334
-4.778063 9.265258 1.633960 0.000000
-4.664289 9.185865 1.614758 11.000000
-4.543255 9.233116 1.612900 44.000000
9.781963 9.221137 1.627986 4.666667
-12.699403 9.373072 1.632214 26.000000
-4.675838 9.427670 1.649444 26.000000
-12.733275 9.491001 1.642294 6.000000
3.684122 9.527814 1.601132 24.000000
3.791897 9.625681 1.621572 23.500000
3.927685 9.666689 1.635446 22.200001
-4.028004 9.741299 1.652232 0.750000
4.068600 9.697674 1.648360 24.000000
4.158524 9.740101 1.659974 13.000000
3.498627 9.968170 1.655845 72.000000
4.402691 9.879324 1.695280 12.000000
-5.781824 10.132502 1.619840 15.500000
3.489482 10.145696 1.681653 85.000000
5.322096 10.249845 1.603611 27.000000
5.455637 10.269208 1.614614 4.000000
-5.317062 10.310443 1.610763 1.000000
5.585103 10.433656 1.643220 16.000000
5.823239 10.402603 1.655323 7.000000
-5.056116 10.524419 1.621215 14.333333
2.639553 10.492997 1.695899 76.000000
5.759243 10.519524 1.665225 14.000000
-5.207244 10.666978 1.648171 16.000000
5.808762 10.609921 1.679529 29.000000
8.967590 10.607954 1.682167 5.000000
-12.329984 10.759925 1.692285 2.000000
-12.293133 10.795979 1.691874 0.000000
12.364416 10.805182 1.698045 12.000000
-4.416483 10.898309 1.632768 0.000000
-12.070126 11.044712 1.691874 19.000000
-4.527183 10.972894 1.648171 0.000000
-4.736330 11.082728 1.673477 2.000000
-11.927272 11.227902 1.693931 1.000000
11.251727 11.295012 1.648672 6.000000
16.215473 11.291045 1.696748 28.000000
11.314157 11.429272 1.663072 23.000000
15.953861 11.447079 1.686139 13.500000
16.092094 11.431830 1.695036 16.000000
-10.431227 11.528271 1.607733 3.500000
-10.353156 11.624156 1.609721 14.000000
2.311397 11.630787 1.646521 2.000000
2.736332 11.648121 1.661374 30.000000
3.327640 11.666312 1.684480 10.000000
2.665283 11.717369 1.668526 3.750000
11.329920 11.736574 1.686936 15.000000
-9.928491 11.878559 1.600944 22.000000
-9.933304 12.024499 1.612876 30.833332
2.421665 11.988522 1.698233 14.000000
10.058696 12.051408 1.623299 31.333334
10.193399 12.019577 1.629745 23.500000
-9.782634 12.162796 1.614110 19.000000
1.507321 12.101492 1.693282 17.000000
10.009792 12.147168 1.627688 6.000000
-9.869781 12.192563 1.622175 29.600000
9.588127 12.210627 1.605470 7.500000
5.060666 12.339087 1.615082 4.000000
-9.965803 12.551201 1.657312 15.000000
-9.862299 12.541685 1.649906 31.500000
-9.805512 12.591201 1.650318 36.000000
-9.736692 12.584180 1.645380 41.000000
-9.680183 12.757800 1.656078 34.000000
9.758556 12.713004 1.657312 6.000000
-9.832900 12.791360 1.668421 50.000000
-9.824329 12.947996 1.680765 38.000000
-9.610423 12.959318 1.668421 40.500000
-9.304076 13.010180 1.654021 33.000000
-9.238041 13.047379 1.653198 30.500000
2.579049 12.989643 1.603781 18.333334
-9.603410 13.078247 1.677885 25.000000
-9.447995 13.080662 1.668627 38.000000
-9.162687 13.114971 1.654432 35.000000
-8.661167 13.085582 1.622751 25.000000
-8.566707 13.076347 1.616579 22.000000
2.480128 13.138276 1.619170 8.000000
2.512405 13.083621 1.613399 10.000000
8.987225 13.100971 1.642912 5.000000
-9.115779 13.268437 1.664718 37.666668
-8.605867 13.226593 1.631802 37.000000
2.280882 13.218655 1.624460 13.000000
8.872233 13.198298 1.644557 13.000000
-8.982950 13.342738 1.663347 36.333332
-8.827724 13.661262 1.681999 39.000000
-8.853530 13.796080 1.695165 5.000000
13.155834 13.887608 1.642676 8.000000
12.792363 14.024166 1.630014 32.000000
12.819620 14.187782 1.641992 15.500000
12.748796 14.288866 1.644387 19.000000
-13.103554 14.527458 1.679978 24.000000
-13.071153 14.583389 1.681690 13.000000
12.010341 14.668546 1.627960 1.000000
-13.058413 14.754754 1.691956 12.333333
12.851034 14.819951 1.684427 3.000000
-18.823639 15.711115 1.676679 31.000000
-18.713076 15.718835 1.671221 27.000000
-18.916550 15.991388 1.693871 0.000000
-15.406898 18.432987 1.642840 1.000000
-14.508878 18.391214 1.601905 2.000000
-14.349558 18.546074 1.603543 28.000000
-15.903447 18.666668 1.676952 5.000000
-14.381207 18.708132 1.613640 33.000000
-14.358699 18.800789 1.617733 24.000000
-14.213280 18.793480 1.611320 28.500000
-14.121067 18.855423 1.610911 7.000000
-14.183246 19.062984 1.624829 22.000000
-14.075849 19.043261 1.619371 21.000000
-13.739829 19.340975 1.622373 45.000000
-13.662897 19.361219 1.620462 37.000000
-14.160341 19.800848 1.664672 12.000000
-13.911249 19.845194 1.657303 27.000000
-14.754260 19.961086 1.697419 3.000000
-14.469470 19.966764 1.686230 25.000000
-13.885317 19.941202 1.661670 26.000000
-14.673640 20.026987 1.697783 25.000000
-13.829415 19.994570 1.662488 19.000000
-13.315418 20.048897 1.645842 31.000000
-13.174737 20.041368 1.640111 34.000000
-14.502259 20.144915 1.697419 21.000000
-13.791384 20.074102 1.665490 26.000000
-13.574839 20.163465 1.662215 39.000000
-13.447100 20.109804 1.654301 35.000000
-13.734401 20.262758 1.673950 37.000000
-13.145452 20.203608 1.648298 25.000000
-13.863220 20.315107 1.681864 45.000000
-12.663005 20.288673 1.635472 24.000000
-12.565151 20.344696 1.635199 29.000000
6.177449 23.038469 1.631105 0.000000
6.330543 23.029984 1.633288 1.000000
3.188108 23.243586 1.604361 6.000000
4.771246 23.264313 1.624010 8.000000
2.970924 23.288433 1.605453 8.000000
3.268880 23.288782 1.608182 4.000000
5.009579 23.308048 1.630287 10.000000
5.471720 23.310497 1.637382 8.000000
5.984683 23.342712 1.647888 3.500000
3.628407 23.437382 1.621827 5.000000
4.871986 23.382038 1.633288 8.000000
4.957814 23.425180 1.637382 48.000000
5.307791 23.438366 1.643386 3.500000
5.857229 23.457294 1.653346 15.500000
6.111298 23.377981 1.652391 1.000000
6.513053 23.405977 1.661397 3.000000
2.550379 23.514858 1.617460 4.000000
3.449914 23.504684 1.624556 11.000000
5.214616 23.541056 1.648844 1.000000
5.434451 23.483088 1.648298 6.000000
3.397605 23.665514 1.634926 9.000000
3.852682 23.656351 1.639019 40.000000
5.616085 23.592119 1.658395 3.000000
5.701410 23.620911 1.661670 9.000000
4.398144 23.707169 1.648844 1.000000
3.955097 23.813414 1.650754 38.000000
4.103284 23.780226 1.650208 3.000000
5.199340 23.826347 1.667673 4.000000
3.811057 23.873260 1.653210 20.000000
4.054539 23.946453 1.660851 22.000000
3.004140 24.153048 1.664399 27.000000
2.288144 24.712336 1.697146 1.000000
15.606710 28.318214 1.647591 1.000000
14.173492 28.402794 1.617464 2.000000
15.070079 28.390495 1.637820 8.000000
14.681047 28.517242 1.634360 1.000000
13.821601 28.706495 1.623469 3.500000
14.673167 28.723310 1.643520 14.000000
13.586417 28.794300 1.622350 45.000000
13.693970 28.787550 1.624385 48.000000
13.565316 28.985184 1.630696 16.000000
13.534740 29.158102 1.638024 11.000000
13.333019 29.202597 1.635785 9.000000
8.219418 31.065336 1.637413 2.000000
7.991307 31.396933 1.650848 6.000000
8.219721 31.465921 1.657158 4.000000
7.805410 31.493053 1.653290 3.000000
9.523381 31.542963 1.678939 66.000000
9.634096 31.551094 1.680974 46.000000
7.736795 31.641592 1.659804 1.000000
7.938372 31.603981 1.660415 18.000000
9.351009 31.690302 1.683620 12.000000
9.324109 31.968798 1.696852 9.000000
-0.036973 -35.306175 1.799037 1.000000
-2.076302 -35.052963 1.789267 12.500000
-1.028524 -35.067406 1.787638 16.000000
0.073536 -35.110374 1.789063 21.000000
-2.222683 -34.747814 1.774203 45.000000
-1.894006 -34.747272 1.773185 9.000000
-0.145734 -34.790558 1.772778 10.000000
-2.685185 -34.348465 1.755578 6.500000
-2.310167 -34.417801 1.757715 8.000000
-0.716446 -34.201412 1.743127 13.000000
-0.572258 -34.150894 1.740413 8.000000
-1.105884 -34.053844 1.736138 17.000000
-0.393241 -34.128082 1.739124 18.666666
-0.249548 -34.042915 1.734713 3.000000
-6.305915 -34.023674 1.763211 11.000000
-2.497989 -34.016151 1.737970 24.000000
-1.533178 -34.025288 1.735528 27.000000
-2.049733 -33.705921 1.720668 19.000000
-1.943372 -33.704220 1.720261 7.000000
-6.800144 -33.186516 1.726164 5.000000
-7.210671 -33.071125 1.724739 6.000000
-6.978768 -33.002438 1.718836 3.000000
-6.866103 -32.981171 1.716597 4.000000
-6.212144 -32.939854 1.708047 26.000000
7.746843 -25.010561 1.790477 0.000000
7.589930 -24.779121 1.772193 3.000000
7.057928 -24.695230 1.756365 1.000000
7.121064 -24.623098 1.752817 31.000000
7.174844 -24.520176 1.747086 43.000000
7.243913 -24.470726 1.745176 51.000000
7.325335 -24.463140 1.746268 47.000000
7.418347 -24.493477 1.750088 43.000000
-15.617153 -21.159391 1.798391 28.000000
-15.460937 -21.086054 1.788021 29.000000
15.690336 -20.950827 1.789931 26.000000
1.092628 -20.918396 1.798730 2.000000
-15.440801 -20.783480 1.770556 13.000000
15.486276 -20.814318 1.774103 32.000000
-16.152531 -20.637148 1.792114 11.000000
-15.770926 -20.679832 1.778470 6.000000
-15.645635 -20.649754 1.771647 5.000000
2.158862 -20.679073 1.785384 14.500000
14.777821 -20.664297 1.737262 29.000000
15.299832 -20.699198 1.760185 37.000000
-15.853600 -20.586269 1.776832 9.500000
0.880095 -20.569412 1.767930 0.000000
-16.448067 -20.479216 1.796208 31.000000
-16.180279 -20.495167 1.785656 22.000000
2.263973 -20.441296 1.766048 11.500000
14.770391 -20.517368 1.728802 20.000000
-16.444588 -20.343645 1.788840 13.000000
0.680354 -20.401537 1.752872 1.000000
0.742701 -20.351505 1.748766 62.000000
0.808208 -20.388895 1.752188 17.000000
2.615038 -20.385321 1.764850 4.000000
14.932400 -20.335432 1.725255 7.000000
15.335693 -20.343761 1.742174 29.000000
-4.232992 -20.315313 1.781961 19.000000
-3.295310 -20.233974 1.760401 25.000000
-3.135361 -20.253300 1.759888 4.000000
-3.037834 -20.254080 1.758690 16.000000
0.325331 -20.258799 1.739868 18.500000
0.420210 -20.229174 1.737472 16.000000
-3.420384 -20.201082 1.759374 21.000000
0.197337 -20.184725 1.733366 7.500000
-6.228708 -19.936789 1.793597 45.000000
-5.414386 -19.942001 1.774432 45.000000
-5.358934 -19.985857 1.776828 31.000000
-2.735424 -19.943197 1.728574 5.000000
-3.501705 -19.920130 1.736788 0.000000
-2.921522 -19.904701 1.727548 4.000000
0.559143 -19.893517 1.708953 4.666667
15.154584 -19.907682 1.710928 56.000000
-3.793873 -19.756998 1.727548 2.000000
15.264750 -19.793106 1.709290 18.500000
-6.392213 -19.696476 1.778197 9.500000
-6.293236 -19.707436 1.776486 1.000000
-4.754006 -19.695816 1.739868 14.000000
-3.902408 -19.654589 1.720703 9.000000
-3.847516 -19.701958 1.723783 13.000000
-4.894114 -19.599834 1.734734 7.500000
-3.957041 -19.607075 1.717623 29.000000
-4.518747 -19.526197 1.721045 2.000000
-4.004208 -19.524273 1.711463 33.000000
-5.471356 -19.425920 1.733023 40.000000
-7.063444 -19.260103 1.761599 19.000000
-7.607736 -19.146717 1.769185 6.666667
-7.795960 -19.093887 1.771010 21.000000
-10.258757 -18.066021 1.784015 66.000000
-10.355380 -17.972412 1.781163 56.000000
-10.625911 -17.917439 1.788806 80.000000
-10.527105 -17.878614 1.781619 73.000000
-10.426636 -17.835907 1.774090 69.000000
-18.381163 -17.657722 1.742993 9.000000
-18.291170 -17.682093 1.739718 7.000000
-17.962978 -17.584507 1.718978 0.000000
-3.114986 -17.089798 1.796382 6.000000
-2.887370 -17.053057 1.788564 9.000000
-3.870458 -16.967342 1.799673 15.000000
-2.933488 -17.000771 1.784038 37.000000
-2.993182 -16.923006 1.777181 36.333332
-4.893577 -16.669901 1.796587 17.000000
-4.759728 -16.632065 1.788975 23.666666
-4.613940 -16.481049 1.769843 8.500000
-19.042444 -16.120621 1.706152 6.000000
9.735291 -13.257838 1.700926 1.000000
9.120220 -11.635627 1.790368 69.000000
9.182374 -11.490216 1.781231 24.000000
12.415427 -11.468669 1.747831 37.000000
9.191050 -11.427275 1.775941 98.000000
12.457734 -11.377838 1.744704 63.599998
9.101978 -11.244021 1.751897 14.000000
8.957890 -10.890053 1.707654 4.000000
8.981236 -10.814108 1.702364 27.000000
-17.723509 -10.302912 1.760401 6.000000
-14.086878 -9.841822 1.777044 36.500000
8.271859 -9.837079 1.784602 1.000000
-18.373135 -9.736302 1.785555 9.500000
7.578105 -9.766083 1.716387 3.500000
7.686458 -9.746680 1.723538 9.333333
-14.125428 -9.688204 1.771283 53.500000
7.817388 -9.691619 1.728902 9.250000
7.973230 -9.696350 1.743068 9.000000
-18.526920 -9.558359 1.790175 6.000000
-14.182172 -9.548070 1.767992 36.333332
-18.583059 -9.439957 1.789832 25.000000
-18.242207 -9.484159 1.765535 3.000000
-14.241679 -9.394203 1.764289 14.333333
-14.554733 -9.243778 1.783010 35.000000
-14.392879 -9.284393 1.771180 20.250000
-14.711987 -9.214471 1.795147 16.000000
9.013982 -9.039188 1.772499 14.000000
8.984602 -8.878650 1.753887 44.500000
7.544252 -7.905770 1.712829 34.666668
7.806407 -7.852825 1.735540 0.000000
8.012249 -7.898870 1.763501 102.000000
8.025931 -7.799427 1.754122 32.000000
7.962271 -7.689077 1.734921 36.000000
4.718083 -7.565195 1.718698 17.000000
7.958220 -7.589099 1.723617 21.250000
8.545236 -7.570848 1.789427 33.333332
8.587578 -7.449264 1.781871 58.400002
5.109411 -7.392704 1.732327 1.000000
8.709964 -7.397030 1.791079 32.333332
-15.775731 -7.099830 1.788975 35.000000
9.968274 -7.120856 1.700983 56.000000
10.053967 -7.049164 1.704944 41.200001
-16.109547 -6.531587 1.797616 3.000000
-16.109978 -6.238948 1.786507 19.000000
-16.067038 -6.106504 1.777455 11.000000
-15.943762 -6.117041 1.765934 15.000000
2.785949 -6.043190 1.778449 2.000000
2.582914 -5.981401 1.741269 8.500000
5.030805 -5.890314 1.779259 10.000000
5.624023 -5.858533 1.714046 2.000000
5.136753 -5.826477 1.784184 27.833334
5.238926 -5.676550 1.774334 31.000000
-3.122119 -5.591504 1.711576 5.750000
4.910642 -5.623229 1.714787 36.000000
5.290182 -5.522367 1.756575 30.000000
5.251159 -5.317591 1.716578 15.000000
19.165945 -5.139085 1.703934 48.000000
-4.900840 -4.794233 1.702117 6.000000
-4.600316 -4.792140 1.775350 2.000000
4.201494 -4.780777 1.700990 9.000000
-4.747849 -4.529223 1.753662 68.000000
4.737080 -4.547393 1.754953 8.250000
5.577355 -4.569807 1.790146 15.000000
8.955160 -4.566772 1.756234 30.333332
8.967829 -4.496641 1.752677 14.500000
5.025027 -4.332897 1.773285 3.000000
9.270924 -4.289698 1.784688 39.000000
9.120829 -4.168141 1.751989 41.000000
-5.034630 -4.098832 1.735072 29.000000
4.956713 -4.035398 1.708220 37.000000
5.077527 -4.107299 1.745400 53.000000
5.153584 -4.036570 1.749531 27.000000
9.084682 -4.100006 1.741318 41.500000
5.175388 -4.027480 1.752629 23.000000
9.084747 -4.014452 1.735237 47.666668
9.160815 -3.945199 1.742580 39.333332
9.282192 -3.928590 1.760938 20.000000
-16.296535 -3.114633 1.715738 3.500000
8.804043 -2.998856 1.792898 38.000000
8.778140 -2.890399 1.781541 47.333336
8.841379 -2.802195 1.787901 38.000000
-9.582367 -2.334135 1.723076 12.250000
-9.608130 -2.260643 1.724452 7.000000
9.481606 -2.195975 1.700358 47.000000
-9.072283 -2.012940 1.791384 35.000000
8.686836 -1.933137 1.715518 37.400002
8.722525 -2.014610 1.725702 28.750000
-9.874403 -1.837242 1.754742 5.000000
-8.786286 -1.877185 1.731948 9.000000
-9.876250 -1.805505 1.754054 0.000000
-8.802691 -1.808535 1.732327 7.000000
9.719017 -1.789028 1.726518 21.500000
8.908584 -1.655934 1.746712 4.000000
9.104020 -1.721868 1.786083 6.000000
8.955364 -1.625856 1.754536 17.333334
9.205546 -1.532223 1.798955 36.000000
-9.749517 -1.436208 1.721699 5.000000
9.007070 -1.528284 1.761098 17.000000
-14.083254 -1.358543 1.713425 25.000000
8.839666 -1.381590 1.724718 27.100000
9.127872 -1.343004 1.778512 7.000000
8.770510 -1.248256 1.707720 38.000000
-8.928699 -1.085234 1.733841 8.000000
-8.803349 -1.041945 1.708856 18.000000
-14.771278 -0.981083 1.792773 9.000000
12.873533 -0.888879 1.791754 98.500000
11.439046 -0.735716 1.796654 2.333333
12.272659 -0.789335 1.707585 9.000000
9.740732 -0.663312 1.705728 46.000000
12.410103 -0.680796 1.725739 3.000000
11.307556 -0.566887 1.774562 15.000000
-11.333565 -0.518667 1.778278 6.500000
-11.254670 -0.515009 1.765890 8.000000
12.445387 -0.525968 1.729590 14.000000
12.427341 -0.427461 1.726564 14.000000
12.741238 -0.338092 1.769749 0.000000
14.335372 -0.332824 1.736508 16.000000
-12.488635 -0.296492 1.734541 7.000000
-9.969340 -0.268019 1.742351 6.000000
-9.872944 -0.327518 1.725829 13.000000
-9.186701 -0.274261 1.771698 10.000000
-8.881267 -0.237216 1.712641 20.000000
8.994000 -0.230687 1.734346 4.000000
12.583800 -0.294355 1.747744 6.000000
14.284735 -0.286752 1.730256 2.000000
-10.113254 -0.176526 1.767133 5.000000
-10.021692 -0.222175 1.751300 10.500000
8.878041 -0.209223 1.711884 5.000000
9.046306 -0.142089 1.744062 13.500000
-10.079211 -0.049258 1.760938 18.000000
-9.830774 -0.078928 1.717568 27.000000
10.134391 -0.045989 1.770575 38.000000
-10.063555 -0.017563 1.758184 22.000000
-9.088393 0.071382 1.752012 16.000000
-10.050770 0.140346 1.756119 4.000000
-9.244950 0.334150 1.783307 8.333333
8.881509 0.348955 1.713398 0.000000
-9.115189 0.401141 1.758827 6.500000
6.441394 0.395101 1.724744 13.000000
9.123535 0.473355 1.761098 25.000000
8.193853 0.995919 1.742132 17.000000
8.759958 1.359244 1.708856 10.000000
12.462206 1.318628 1.740042 25.000000
12.580100 1.371079 1.757096 9.000000
8.825856 1.469025 1.724756 0.000000
8.856541 1.545786 1.733084 18.250000
12.759408 1.512434 1.784052 4.000000
8.875850 1.736543 1.743432 9.666667
8.889174 1.797216 1.748227 27.000000
8.903758 1.870203 1.753829 25.400000
8.902056 1.945845 1.756555 24.000000
8.144849 2.050379 1.772695 5.000000
8.982847 2.007939 1.774348 16.000000
16.324787 2.198494 1.703394 7.000000
-14.483995 3.089247 1.793494 1.000000
-14.485622 3.184916 1.796139 6.000000
16.978857 3.309551 1.788838 49.666668
16.498405 3.530906 1.744745 57.000000
16.471882 3.606511 1.743716 57.000000
16.549801 3.678095 1.753180 14.000000
-15.945007 4.735267 1.720058 0.500000
-15.905405 4.805153 1.718207 0.000000
-16.356117 5.833762 1.795764 34.333332
-16.334545 6.019678 1.800222 5.666667
-16.234985 6.157368 1.795559 0.000000
-8.618462 7.241991 1.764445 7.333333
-8.515636 7.302881 1.758334 22.799999
-8.475025 7.367277 1.760109 24.333334
-8.406101 7.431873 1.758664 25.666666
-8.335706 7.510746 1.758664 30.666666
-8.285683 7.584475 1.760626 24.500000
-7.740170 7.616870 1.702093 55.000000
-8.348870 7.763683 1.786950 32.000000
-8.223045 7.707185 1.766510 23.500000
-8.106936 7.755246 1.758458 22.500000
-7.764937 7.737879 1.718197 42.000000
-8.158415 7.878489 1.777659 30.000000
-7.469545 7.976492 1.712829 24.333334
-7.595459 8.213842 1.753503 61.000000
-7.510166 8.329185 1.757838 48.000000
7.819574 8.356179 1.793763 4.000000
-7.470822 8.390965 1.760935 65.000000
-4.896824 8.488385 1.712061 0.000000
-4.846344 8.634293 1.729874 12.500000
9.652072 8.648153 1.799456 10.000000
-4.756351 8.723703 1.735926 11.333333
-4.594946 8.707421 1.720093 12.000000
-4.493674 8.727115 1.714952 23.400000
11.058216 8.723856 1.705731 43.000000
-4.818804 8.794433 1.751989 21.000000
-4.663522 8.837675 1.745793 10.000000
-4.215737 8.846418 1.712061 11.000000
-4.269100 8.886406 1.722387 37.000000
10.871975 8.885997 1.700441 37.500000
3.447505 9.102346 1.700496 53.000000
-4.156815 9.398095 1.795358 2.000000
5.500293 9.473255 1.716958 9.000000
10.240595 9.837546 1.719677 18.000000
5.551567 9.917097 1.781375 4.000000
4.551133 10.042233 1.728107 47.000000
9.856299 10.050821 1.704769 15.500000
13.760386 10.087652 1.764391 8.250000
-4.982293 10.206169 1.780136 29.000000
-4.652288 10.213282 1.759077 6.000000
10.591760 10.271349 1.786761 54.000000
10.071671 10.367784 1.750454 28.000000
10.584423 10.361415 1.793734 48.000000
13.345510 10.426610 1.751328 11.500000
10.121789 10.551216 1.770651 11.000000
2.985461 10.592883 1.725010 31.250000
3.163991 10.586396 1.731824 61.000000
3.543349 10.664197 1.761348 41.666668
10.278995 10.647929 1.792292 10.000000
2.901482 10.679677 1.734611 35.250000
3.596004 10.672983 1.765271 45.000000
12.932006 10.740171 1.738367 4.000000
2.892118 10.778482 1.749167 13.000000
3.688098 10.833716 1.793763 44.000000
13.005051 10.870053 1.752768 24.000000
2.570205 10.940948 1.761555 0.000000
5.781826 10.966208 1.721338 0.000000
12.667027 10.930027 1.730138 14.000000
-13.346826 11.068953 1.793090 1.000000
-13.202997 11.055063 1.780746 11.000000
-8.743736 11.012096 1.702845 2.000000
2.728431 10.992165 1.775181 34.000000
5.482138 11.019560 1.708960 4.500000
-13.126449 11.096640 1.777455 7.000000
9.563505 11.169765 1.780750 17.000000
16.572651 11.157364 1.715570 6.000000
16.495636 11.256780 1.714885 14.000000
-12.487589 11.319082 1.742893 23.000000
-12.216687 11.285081 1.719852 108.000000
12.984117 11.274990 1.778278 2.000000
5.544437 11.459010 1.767548 1.000000
16.349617 11.460887 1.714543 27.000000
16.555691 11.450884 1.728574 17.000000
-12.741855 11.476848 1.773340 15.000000
-12.270481 11.478497 1.737545 66.000000
8.352562 11.542852 1.725447 8.000000
16.280970 11.489216 1.711121 21.000000
-12.539612 11.656610 1.770460 53.000000
-5.025210 11.657203 1.762597 0.000000
5.406025 11.588222 1.775525 3.500000
9.168076 11.600466 1.790609 2.500000
12.219426 11.628242 1.744333 13.500000
4.505494 11.761749 1.748844 0.000000
8.398636 11.722512 1.746366 6.500000
-12.605189 11.866069 1.790210 45.000000
3.815192 11.812059 1.723539 9.000000
8.346631 11.805826 1.750935 8.000000
8.856269 11.842727 1.790849 7.000000
4.840864 11.957517 1.791204 2.000000
-12.576307 12.026543 1.799467 12.000000
3.560930 12.052391 1.744993 19.000000
8.136040 12.021456 1.757908 0.500000
12.039257 12.009875 1.758528 3.000000
-11.983197 12.088231 1.760174 15.000000
3.503811 12.139238 1.754345 6.000000
7.994230 12.137711 1.760072 1.000000
8.021349 12.095990 1.757667 2.000000
-8.344483 12.227972 1.792773 24.000000
-8.037401 12.353028 1.784758 26.000000
3.432822 12.328209 1.776901 7.000000
-7.939697 12.372093 1.780269 24.000000
1.967605 12.564860 1.765898 1.000000
3.201025 12.558123 1.799456 7.000000
1.953139 12.733393 1.788728 20.250000
-9.859810 13.165498 1.700926 25.000000
-9.707660 13.307646 1.703394 38.000000
-13.952712 14.708237 1.740894 33.000000
-13.903622 14.842144 1.746370 0.000000
-13.796560 14.914583 1.744659 17.000000
-14.114202 14.972390 1.766903 36.000000
-13.188912 15.236409 1.730457 7.500000
-13.917884 15.333139 1.778197 4.000000
-13.131235 15.315063 1.732339 23.000000
-13.077889 15.350171 1.731654 17.000000
-12.941624 15.352436 1.724239 25.333334
-12.852203 15.425640 1.724125 18.500000
-12.713410 15.406152 1.715228 7.000000
-12.669997 15.452183 1.715912 8.000000
-19.297430 17.769745 1.793888 14.000000
-19.203253 17.851017 1.792933 3.000000
18.646675 17.856474 1.765507 9.500000
18.784163 17.819275 1.770556 16.000000
18.189096 17.918110 1.745995 23.000000
18.197826 18.096455 1.755000 10.000000
18.396818 18.467592 1.782563 12.000000
18.353064 18.774279 1.795389 10.000000
-15.022921 20.059641 1.713793 10.000000
13.814325 21.860550 1.768372 60.000000
13.912928 21.864180 1.772193 22.000000
13.768914 21.941023 1.771374 23.000000
11.859127 22.732695 1.753363 50.666668
11.985880 22.742865 1.758002 18.000000
11.750905 22.815792 1.755000 8.000000
4.715588 24.556938 1.709973 3.000000
3.013228 24.863585 1.712701 31.000000
2.935102 24.872929 1.712701 32.000000
5.055766 25.051235 1.747632 7.000000
2.664099 25.304724 1.739991 0.000000
2.432340 25.400211 1.744903 1.000000
2.612964 25.590870 1.759094 4.000000
3.437757 25.662291 1.770556 1.000000
2.270613 25.849833 1.774513 4.000000
2.151962 25.898056 1.777105 2.000000
2.819315 25.994492 1.788021 2.000000
9.319894 32.331882 1.714561 68.000000
9.286128 32.599205 1.727182 64.000000
-0.617704 -36.862991 1.878628 2.000000
-1.846925 -35.961887 1.834863 6.000000
-0.939683 -35.885124 1.829164 22.000000
-0.826296 -35.859947 1.827739 10.000000
-1.948581 -35.748486 1.824278 14.000000
-1.495364 -35.678349 1.819597 27.000000
-2.486329 -35.378731 1.807180 20.000000
-1.704891 -35.364994 1.804126 24.000000
-1.372126 -35.395458 1.804940 21.000000
0.296509 -35.392838 1.803516 12.000000
-1.591441 -35.318298 1.801480 13.000000
-6.800709 -34.856693 1.809622 3.000000
-6.685156 -34.846504 1.807994 20.000000
8.396194 -25.006439 1.803849 3.000000
8.506194 -24.943972 1.802212 2.000000
8.670626 -24.912647 1.803849 2.000000
12.465535 -24.539062 1.882170 2.000000
12.237926 -24.470560 1.870982 28.000000
12.613984 -24.449615 1.881352 7.000000
12.269831 -24.342905 1.864159 6.000000
15.867188 -22.484837 1.881898 10.000000
15.831435 -22.285225 1.869344 8.000000
-0.234037 -21.981853 1.887709 24.000000
-0.164743 -21.950598 1.884971 3.000000
0.007678 -21.851555 1.876415 2.000000
-3.603724 -21.697826 1.888735 30.000000
0.918768 -21.473257 1.845615 1.000000
2.341490 -21.449169 1.852802 1.000000
-16.508076 -21.366661 1.846421 5.000000
-16.535925 -21.264290 1.842055 4.000000
-15.931431 -21.303736 1.819131 20.000000
0.979275 -21.318981 1.832610 29.000000
1.044879 -21.287935 1.830215 18.000000
2.591546 -21.259809 1.839113 3.000000
-16.792622 -21.179422 1.848331 11.000000
1.371202 -21.146868 1.819720 6.666667
-6.718766 -21.039993 1.896606 20.000000
1.563271 -21.036366 1.811393 7.000000
1.629968 -21.039295 1.812077 9.000000
2.432302 -21.053972 1.819948 18.000000
-16.714706 -20.945646 1.832503 13.000000
-6.596213 -20.882385 1.880522 8.000000
-17.259380 -20.811184 1.848877 6.000000
-16.963947 -20.718517 1.831139 12.000000
-17.145676 -20.542397 1.829774 3.000000
-5.034672 -20.575014 1.818922 5.000000
-4.430058 -20.611715 1.810366 2.000000
-4.347952 -20.543653 1.803179 21.000000
6.634588 -20.614960 1.859646 40.500000
6.759908 -20.596579 1.861471 35.333332
-5.410366 -20.434084 1.815157 5.000000
-4.640956 -20.493725 1.804377 1.500000
6.850791 -20.510540 1.856908 4.000000
6.910096 -20.473810 1.855540 11.000000
-6.273105 -20.302759 1.824739 2.000000
-8.174279 -19.666466 1.828846 20.000000
-8.042624 -19.522543 1.813104 25.000000
-19.946701 -19.282497 1.897180 7.000000
-19.440170 -19.030575 1.860339 9.000000
-19.366072 -19.077551 1.858974 2.000000
-18.971615 -18.806778 1.826772 2.000000
-19.545605 -18.541605 1.842327 10.000000
-11.982889 -18.508411 1.893355 52.000000
-11.819157 -18.445616 1.881206 57.000000
-11.699103 -18.385149 1.871282 46.000000
-11.592319 -18.344324 1.863411 52.000000
-11.481671 -18.296261 1.854855 48.000000
-11.363012 -18.234150 1.844931 68.000000
-19.417080 -18.189257 1.819404 14.000000
-19.313377 -18.206369 1.815038 12.000000
-19.080252 -18.214382 1.803849 8.000000
-11.263728 -18.201981 1.838086 81.000000
-11.156413 -18.155787 1.829873 75.000000
-19.580780 -18.112967 1.824043 10.000000
-19.471201 -18.125450 1.819131 30.000000
-11.043273 -18.098888 1.820633 77.000000
-10.945056 -18.065323 1.813788 79.000000
-19.555325 -17.975744 1.816402 8.000000
-10.780969 -17.985037 1.800613 92.000000
-19.523306 -17.833475 1.808215 32.000000
-19.555597 -17.750595 1.806032 5.000000
