# This PCD file was generated using the MATLAB® pcwrite function
# from Computer Vision Toolbox®.
# .PCD v.7 - Point Cloud Data file format
VERSION .7
FIELDS x y z intensity
SIZE 4 4 4 4
TYPE F F F F
COUNT 1 1 1 1
WIDTH 1240
HEIGHT 1
VIEWPOINT 0 0 0 1 0 0 0
POINTS 1240
DATA ascii
-5.364577 8.394875 2.288323 17.500000
4.661249 8.510419 2.228775 30.000000
-16.879412 8.559707 2.291940 2.000000
2.432092 8.728417 2.249570 27.000000
4.612487 8.678481 2.257430 3.000000
-16.826181 8.733049 2.295788 57.000000
1.526470 8.746244 2.204270 26.500000
9.022886 8.801991 2.202205 45.000000
13.733601 8.749268 2.261010 25.000000
-4.191892 8.872025 2.253848 12.000000
1.221716 8.884143 2.226438 35.000000
1.686029 8.914529 2.252461 1.000000
2.052573 8.919005 2.272220 20.500000
2.219838 8.876852 2.271738 45.000000
2.388701 8.840952 2.273665 17.500000
-16.707905 9.007573 2.298673 19.000000
-16.473328 9.015143 2.274147 31.000000
-4.278423 8.981997 2.285189 11.000000
1.327430 9.022025 2.264027 39.000000
1.493350 9.007043 2.266726 13.600000
2.159576 8.995543 2.296797 22.000000
-3.992782 9.069975 2.276234 8.500000
-15.613876 9.326215 2.202494 1.000000
-15.878768 9.416883 2.235676 24.000000
-15.642349 9.410017 2.210669 2.000000
-15.711198 9.518788 2.224615 13.000000
-16.315105 9.572040 2.290738 10.000000
-15.711823 9.609367 2.230386 12.666667
-15.630920 9.672706 2.226058 12.000000
-15.637528 9.744864 2.231348 3.000000
-15.417976 9.776972 2.210910 16.500000
-10.097710 9.936856 2.220525 13.000000
-9.967336 9.995204 2.212473 2.000000
-12.383961 10.078532 2.217000 17.000000
-12.287868 10.064671 2.205447 41.000000
2.250690 10.296688 2.224543 22.000000
7.965706 10.289783 2.273455 47.166664
8.092400 10.246720 2.281142 27.000000
-12.492720 10.364296 2.253858 87.000000
-9.556271 10.399652 2.213712 1.000000
-7.954658 10.385466 2.285502 7.000000
-9.725729 10.517549 2.245301 11.000000
2.336331 10.452103 2.260476 20.000000
7.909141 10.435027 2.287567 0.000000
-9.826021 10.559267 2.260786 21.000000
-9.766039 10.695178 2.270077 3.000000
-11.605543 10.792090 2.200496 28.000000
-9.778579 10.799479 2.283497 7.666667
-4.537634 10.810442 2.260051 0.000000
-12.224850 10.876645 2.272012 17.000000
-11.583155 10.839323 2.202697 0.000000
-4.602202 10.868469 2.275193 1.000000
11.950305 10.998390 2.255096 44.750000
11.871490 11.082014 2.254958 39.000000
-11.911685 11.287973 2.278614 0.000000
8.567720 11.279360 2.220112 18.333334
8.536246 11.336213 2.224241 10.000000
8.415146 11.434876 2.225326 19.250000
8.279783 11.535890 2.225657 28.571428
8.663927 11.581310 2.266980 94.000000
8.241982 11.692418 2.242204 138.000000
8.314008 11.873633 2.271935 109.000000
7.981532 12.113829 2.273793 0.000000
13.190809 13.158617 2.256354 2.000000
13.311953 13.363164 2.284246 0.000000
8.644114 13.673636 2.246156 0.000000
8.706177 13.676493 2.251107 4.000000
8.998398 13.657158 2.270912 3.000000
9.003176 13.758296 2.283015 3.000000
7.979556 13.918957 2.227727 38.000000
8.064918 13.890355 2.230203 9.000000
2.347193 13.981240 2.222074 3.500000
7.881950 13.976797 2.228002 1.000000
7.861331 14.147258 2.247257 0.000000
7.864687 14.258617 2.261010 22.000000
-16.915947 14.391508 2.296702 19.000000
-16.525408 14.605036 2.280656 32.000000
6.952948 14.842954 2.275863 0.000000
10.310678 15.030213 2.207303 1.000000
6.873681 15.041155 2.296217 0.000000
14.983783 16.220720 2.283536 5.000000
14.845171 16.326130 2.281890 63.500000
14.916606 16.250126 2.281067 77.000000
-9.818110 19.178019 2.227990 1.000000
-9.752731 19.273767 2.233751 10.500000
-9.718795 19.433393 2.246917 1.000000
-9.402425 19.484621 2.237248 2.000000
8.387932 19.598783 2.204538 43.666668
8.192913 19.711294 2.207418 48.000000
8.257390 19.633997 2.202618 47.666668
8.539545 19.667765 2.217293 22.000000
8.176415 19.847300 2.219761 10.000000
8.872827 20.003769 2.262964 22.500000
8.805589 20.107349 2.269958 40.000000
2.051502 21.423233 2.225522 1.000000
2.018304 21.798023 2.263786 1.000000
1.891220 21.925232 2.275718 1.000000
1.685108 21.950016 2.276541 0.000000
2.173635 21.971004 2.283124 1.000000
-10.214740 23.684212 2.214875 2.000000
9.010298 24.331758 2.228051 22.000000
9.164768 24.395401 2.237804 30.000000
9.346422 24.488520 2.250808 35.333332
7.265675 24.607342 2.203239 4.000000
9.484789 24.542135 2.259364 15.000000
9.647575 24.617737 2.270486 4.500000
8.764552 24.736609 2.253546 8.000000
6.521408 24.946802 2.214190 2.000000
6.645554 24.940796 2.216415 3.000000
7.846238 24.976173 2.248071 4.500000
5.410700 25.174345 2.211110 6.000000
5.348916 25.273096 2.218297 1.000000
7.787045 25.390976 2.280582 40.000000
7.690992 25.457737 2.283662 17.000000
-17.078346 27.749607 2.228204 3.000000
-16.363749 27.746895 2.202824 2.000000
-16.502331 28.183874 2.233389 3.000000
-16.449812 28.297676 2.238301 4.000000
-17.037668 28.479136 2.269411 1.000000
-16.446611 28.497835 2.250036 1.000000
-16.182388 28.451450 2.238301 1.000000
-15.995328 28.643867 2.243486 3.500000
14.855366 28.843477 2.218652 18.000000
14.973483 28.849794 2.222746 12.000000
14.668964 29.153313 2.231751 5.000000
13.485994 29.280260 2.204462 17.000000
-0.826070 -23.078075 2.388044 10.000000
-0.729573 -23.086609 2.388592 11.333333
-0.572572 -23.099657 2.389484 20.500000
-0.245089 -23.019932 2.380638 1.000000
0.405303 -22.989813 2.377758 18.000000
1.346878 -23.009701 2.383518 12.000000
1.931669 -23.051851 2.392158 4.000000
1.995802 -22.950537 2.382283 27.000000
0.977127 -22.837212 2.363768 30.000000
1.694274 -22.799219 2.364180 7.000000
2.058608 -22.841122 2.371586 6.000000
2.633782 -22.797987 2.373232 1.000000
0.256828 -22.637815 2.341139 33.000000
1.609649 -22.621866 2.345253 28.000000
2.467606 -22.604454 2.351425 25.000000
-5.727507 -22.486292 2.399564 5.000000
0.184499 -22.491302 2.325915 33.000000
0.325525 -22.469807 2.323858 9.000000
1.248181 -22.537098 2.334144 36.000000
2.706417 -22.496931 2.343196 4.500000
2.883103 -22.474998 2.343196 2.000000
2.956285 -22.485556 2.345253 1.000000
-4.965879 -22.418140 2.374466 1.000000
-4.814053 -22.398331 2.369117 9.000000
0.851330 -22.364426 2.314394 24.500000
1.518872 -22.337030 2.315217 1.000000
2.786306 -22.274700 2.321389 20.000000
1.021483 -22.237841 2.302051 11.000000
-4.538796 -22.130894 2.336201 9.000000
-6.207721 -22.040365 2.367883 12.000000
-4.440910 -22.004639 2.321389 19.000000
-4.341367 -22.046770 2.323652 12.500000
-7.471941 -21.737066 2.376935 5.000000
-6.200585 -21.752909 2.339081 51.000000
-6.244634 -21.649220 2.330029 35.000000
-5.796313 -21.617039 2.314394 25.000000
-6.254647 -21.430883 2.308634 7.000000
-7.510376 -21.196886 2.325504 3.000000
-7.650169 -21.167988 2.327561 0.000000
-5.934958 -18.788971 2.386196 1.000000
-5.817957 -18.829683 2.386677 6.000000
-5.848664 -18.720348 2.375135 24.000000
-5.699196 -18.758064 2.374173 9.000000
-5.584551 -18.697241 2.363113 18.000000
7.031359 -15.630892 2.379836 10.000000
6.935411 -15.547973 2.363883 3.000000
9.786165 -13.872772 2.357281 1.000000
9.670783 -13.847242 2.345179 7.500000
-19.151644 -11.786781 2.325504 1.000000
15.308342 -11.712643 2.334259 5.000000
15.564884 -11.716212 2.359266 22.000000
-19.280054 -11.575490 2.325504 11.500000
9.362879 -11.626375 2.339758 16.500000
15.325435 -11.611570 2.328488 36.000000
15.684200 -11.576070 2.360708 18.000000
-15.203441 -11.535857 2.311176 2.000000
15.478224 -11.537109 2.337866 22.500000
15.752515 -11.550220 2.365517 0.000000
15.882682 -11.492921 2.374173 9.000000
-19.329283 -11.399449 2.320566 9.000000
15.896139 -11.426742 2.370807 20.000000
-19.292892 -11.296453 2.311926 72.000000
-12.913848 -11.281356 2.380937 1.000000
-19.615995 -11.238736 2.337847 61.000000
-12.986324 -11.237215 2.384512 16.000000
-13.193939 -11.094591 2.393589 35.000000
-13.057611 -11.120756 2.381487 1.000000
-19.384800 -10.945071 2.302051 43.000000
-13.312669 -10.876816 2.386988 26.500000
-13.045609 -10.946637 2.364616 24.333334
-13.453217 -10.793475 2.394873 15.666667
-5.509548 -10.606330 2.303964 3.000000
13.554039 -10.589540 2.388272 26.666666
-13.238536 -10.507792 2.346829 1.000000
13.150309 -10.497755 2.336377 3.000000
-13.156377 -10.375370 2.326474 4.000000
-13.442791 -10.329936 2.353981 44.000000
-13.294317 -10.282429 2.333626 13.000000
13.018705 -10.325900 2.307220 11.000000
13.376789 -10.305235 2.344628 11.500000
16.407358 -10.296307 2.345800 20.000000
-6.851818 -10.254468 2.377407 9.000000
16.446365 -10.248911 2.346762 22.000000
16.515625 -10.220177 2.352052 21.000000
-13.495251 -10.169404 2.346279 22.000000
-13.292530 -10.148205 2.322073 20.000000
16.523968 -10.153692 2.348686 17.000000
-13.746124 -10.023821 2.362232 32.333332
-13.438329 -10.060470 2.330875 33.000000
-13.239114 -10.041751 2.307220 24.000000
1.440613 -10.009526 2.322798 0.000000
2.492421 -10.033850 2.374734 7.000000
2.642959 -10.031527 2.382793 16.500000
16.512077 -10.051317 2.340991 24.000000
-13.935639 -9.896223 2.373235 41.000000
-13.809948 -9.905207 2.359757 28.000000
-13.421608 -9.916979 2.317122 25.000000
-13.374493 -9.947270 2.314372 25.000000
-3.149532 -9.904646 2.387270 19.500000
-3.007849 -9.887482 2.373838 6.500000
1.509519 -9.934296 2.308023 8.000000
2.451937 -9.871073 2.336229 9.333333
16.724258 -9.882835 2.352533 20.000000
-3.246153 -9.781024 2.367122 4.000000
-3.178074 -9.798575 2.366078 16.333334
2.537127 -9.817415 2.329066 25.000000
16.756960 -9.795900 2.350610 7.000000
-16.780455 -9.684293 2.346281 0.000000
-14.178604 -9.671990 2.383137 32.000000
-14.023046 -9.695545 2.367183 35.000000
-13.932632 -9.762923 2.362232 31.666666
16.777348 -9.737227 2.349167 32.000000
-16.872814 -9.667065 2.354938 32.000000
-14.014247 -9.624523 2.360582 40.000000
1.122034 -9.480021 2.370048 5.000000
1.494175 -9.530714 2.395108 0.000000
-17.375969 -9.383400 2.391485 5.000000
-6.236377 -9.429159 2.386035 10.000000
0.996295 -9.431602 2.354627 7.000000
-6.109293 -9.332424 2.354232 26.000000
2.306239 -9.284662 2.375188 28.666666
17.376858 -9.297876 2.386677 53.000000
16.941236 -9.202168 2.334740 19.000000
2.261716 -9.166458 2.344025 30.500000
17.520521 -9.093415 2.390524 33.000000
-3.538675 -8.978850 2.396071 1.000000
17.189140 -9.024521 2.351090 30.000000
17.602060 -8.995804 2.393890 4.000000
-3.670392 -8.900626 2.390288 2.000000
1.939472 -8.741170 2.392953 47.000000
3.823142 -8.721766 2.364265 0.000000
17.074108 -8.490496 2.309253 22.500000
17.356287 -8.529067 2.341953 32.000000
-2.711888 -8.391157 2.356806 20.000000
-1.986368 -8.449019 2.319626 12.000000
-7.628026 -8.356736 2.388100 0.500000
-7.477624 -8.348534 2.365521 11.000000
-6.117048 -8.363968 2.380106 5.500000
-2.851575 -8.343104 2.356462 11.333333
-2.638758 -8.283390 2.323413 10.000000
-7.142809 -8.248832 2.303017 15.000000
-3.228766 -8.043977 2.316528 0.000000
7.747084 -8.019538 2.353406 61.000000
-17.826727 -7.955616 2.364074 2.000000
-3.906578 -7.880108 2.350609 54.000000
7.723134 -7.944648 2.338537 16.000000
-18.010155 -7.834776 2.378501 2.000000
-12.583911 -7.796274 2.320247 2.000000
7.632154 -7.785498 2.301090 32.333332
-4.126630 -7.705818 2.336150 105.000000
-18.048611 -7.583227 2.370807 33.000000
-4.046179 -7.612962 2.304134 21.000000
-17.966738 -7.449418 2.355418 26.000000
-4.792726 -7.296284 2.333052 0.500000
-4.695555 -7.322509 2.324790 0.000000
-4.814266 -7.254290 2.326855 1.000000
7.388117 -7.114748 2.355929 18.500000
7.491891 -7.102087 2.371152 2.000000
7.618902 -7.132139 2.397120 5.000000
-18.017731 -6.847894 2.334259 15.000000
-18.267723 -6.746567 2.358304 2.000000
-18.075285 -6.740098 2.336183 20.000000
-17.953678 -6.759079 2.323199 27.000000
15.642751 -6.678654 2.361682 52.000000
15.601006 -6.574092 2.350680 60.500000
15.631023 -6.471386 2.349030 48.000000
-17.927856 -6.461537 2.307810 18.500000
-10.137937 -6.411412 2.312293 89.000000
6.781404 -6.436613 2.321278 45.799999
15.694375 -6.411148 2.353981 41.000000
15.842976 -6.413846 2.373235 44.000000
6.483018 -6.068825 2.373331 0.000000
15.891438 -6.001728 2.358657 66.500000
-18.882998 -5.913949 2.396294 9.000000
-18.267258 -5.910731 2.325122 2.000000
15.921374 -5.881883 2.356731 45.000000
9.303400 -5.842802 2.318712 15.000000
16.260397 -5.695615 2.392269 28.200001
16.293898 -5.604077 2.392489 36.000000
-18.611834 -5.509539 2.350610 4.000000
-18.369989 -5.500780 2.322237 4.000000
9.639061 -5.558388 2.348450 7.000000
-18.625238 -5.449929 2.350129 2.000000
15.937328 -5.397622 2.336377 59.500000
-18.573162 -5.213593 2.336183 5.000000
10.279233 -4.390828 2.359188 13.000000
10.086484 -4.233755 2.308800 2.000000
-14.494873 -4.008902 2.357205 31.333334
-14.550961 -3.958866 2.363605 14.000000
9.001758 -2.702437 2.333423 30.333334
8.699952 -2.088740 2.391232 74.166664
-16.840160 -0.585142 2.339677 14.000000
-16.936697 -0.402093 2.352330 38.000000
-16.781706 -0.468740 2.331059 27.000000
-17.266651 -0.355658 2.397990 47.000000
-17.273199 -0.192948 2.398540 11.000000
8.948547 -0.154635 2.391921 11.000000
9.358452 -0.161718 2.323784 0.000000
9.446515 0.222619 2.345952 21.000000
9.439062 0.281788 2.344507 7.500000
9.349861 0.337942 2.322820 11.000000
9.611301 0.407875 2.388361 13.000000
-19.722549 0.457900 2.389081 18.000000
-16.589470 0.492366 2.304469 4.000000
-16.813553 0.551887 2.335826 24.000000
-15.085426 0.590092 2.366289 12.000000
9.328822 0.601633 2.320893 18.000000
-14.957778 0.679231 2.346881 40.000000
-14.784786 0.764439 2.320454 40.000000
-19.652176 0.888966 2.382349 12.000000
-14.762457 0.902943 2.318183 51.000000
8.858725 0.916882 2.380216 48.000000
8.795958 0.971083 2.365068 67.000000
8.814631 1.029246 2.371781 26.500000
-14.778262 1.043722 2.322106 46.666668
-14.704475 1.131450 2.311576 48.000000
9.431322 1.393699 2.366964 53.599998
9.222285 1.505249 2.319929 2.000000
9.479736 1.577997 2.385951 14.250000
9.363588 1.755713 2.365229 9.500000
9.092260 2.410769 2.335350 34.000000
8.328587 2.576535 2.329954 1.000000
12.933954 2.617340 2.305465 10.000000
8.865808 2.896061 2.315592 24.500000
9.804367 3.021858 2.356526 32.000000
9.904502 3.098189 2.383688 31.000000
9.610287 3.172718 2.324589 4.000000
-19.117065 3.360535 2.350610 4.000000
10.784344 3.410640 2.387274 3.000000
-16.840645 3.512059 2.388638 40.000000
8.628538 3.479121 2.309809 16.500000
10.388067 3.502028 2.313756 10.000000
10.690193 3.473335 2.372405 12.500000
-16.692146 3.563252 2.369934 20.000000
10.536320 3.588907 2.349276 3.000000
10.621776 3.543692 2.363319 18.000000
8.691251 3.648111 2.340169 14.000000
8.765543 3.711728 2.363301 41.000000
10.253344 3.709635 2.301365 5.000000
-16.736694 3.820916 2.383687 0.000000
10.460225 3.747362 2.345145 24.000000
-16.646727 3.910600 2.374335 29.333334
7.853480 4.095309 2.367134 3.500000
8.531972 4.096995 2.349808 49.000000
7.892775 4.194895 2.388822 5.000000
-16.664761 4.387488 2.392764 39.500000
10.397492 4.402769 2.383144 4.000000
10.348240 4.478009 2.379839 24.000000
10.207788 4.576793 2.361116 15.666667
-16.612890 4.653966 2.395515 42.000000
-16.478382 4.700209 2.379286 36.000000
-16.505404 4.764044 2.385338 16.000000
8.465578 6.089859 2.395329 2.000000
-4.471166 7.587502 2.353708 0.000000
-5.268848 7.700753 2.316556 14.500000
-5.237965 7.733531 2.318965 10.000000
-3.828572 7.815144 2.325823 13.500000
-3.727541 7.793117 2.308782 11.500000
-5.316126 7.969796 2.378481 12.000000
-5.227966 7.931639 2.358482 35.000000
3.211847 8.225235 2.359904 0.000000
2.534521 8.238413 2.303618 11.000000
3.003963 8.262294 2.349576 22.000000
4.356926 8.323415 2.332459 24.000000
2.399136 8.405525 2.336150 31.000000
4.349086 8.350784 2.337599 14.333333
1.607932 8.501606 2.312396 9.000000
1.930646 8.511454 2.332536 15.000000
2.459844 8.516750 2.369199 8.000000
2.526667 8.497154 2.369199 18.000000
4.567636 8.497266 2.395108 10.000000
-4.179233 8.530903 2.358482 13.500000
1.450681 8.604189 2.332019 26.833334
1.754492 8.539652 2.329954 1.000000
-16.895555 8.679434 2.300276 29.333334
1.475848 8.698039 2.357839 43.000000
1.355873 8.829611 2.387445 9.666667
1.415674 8.731486 2.364035 20.333334
-12.233018 8.894301 2.370625 43.333332
-17.069611 8.961744 2.334740 41.000000
-16.967588 9.010437 2.326565 29.000000
-12.170593 8.986129 2.371244 49.333332
16.743868 8.974220 2.300596 16.000000
16.866634 8.971926 2.313581 16.000000
17.228781 8.957273 2.351571 5.000000
-17.002220 9.097416 2.335221 35.000000
-16.738848 9.092237 2.306848 23.000000
8.397924 9.113480 2.388953 52.500000
8.498138 9.078133 2.397092 48.000000
-4.514961 9.203938 2.354735 30.000000
1.220948 9.199586 2.304026 4.500000
1.358505 9.165084 2.300331 26.333334
8.336024 9.190131 2.391792 49.000000
-16.806578 9.266254 2.324160 6.000000
-4.119614 9.239785 2.323693 2.000000
1.301011 9.245466 2.318001 19.000000
8.322816 9.253207 2.399111 41.333332
16.779247 9.266464 2.321275 3.000000
1.418635 9.336136 2.344507 13.500000
-16.486610 9.430513 2.300116 59.000000
-16.919136 9.537334 2.352052 41.000000
-16.785500 9.531612 2.337625 64.000000
-11.788003 9.593519 2.382187 97.000000
-11.363789 9.888899 2.361127 8.000000
3.208181 9.926797 2.396224 1.000000
-11.387426 10.035854 2.379090 8.000000
-8.511965 10.219927 2.323708 16.500000
-4.183725 10.145451 2.316234 0.000000
-10.645085 10.574772 2.351837 10.500000
-12.968511 10.690413 2.333626 23.000000
-12.767267 10.659958 2.309421 43.000000
-12.804699 10.794077 2.325374 43.500000
-12.841233 10.928745 2.341328 24.000000
-12.761047 10.964570 2.336102 8.500000
-12.413308 10.974650 2.300618 5.000000
-12.409400 11.181324 2.319323 3.000000
-10.015537 11.178185 2.352456 8.000000
-9.977739 11.206646 2.351836 4.000000
-9.636804 11.387485 2.338210 10.000000
-9.691752 11.599436 2.369179 34.000000
-9.283952 12.003363 2.378470 10.000000
8.520020 12.332045 2.349359 16.000000
-18.636776 12.528118 2.322212 1.000000
8.520269 12.499619 2.371038 46.000000
10.323802 13.532318 2.363333 34.000000
10.520697 13.700933 2.398540 13.000000
9.102404 14.005766 2.319323 38.000000
7.889821 14.628511 2.307770 16.000000
7.968132 14.608547 2.310521 15.000000
-17.407736 14.715890 2.357185 18.000000
-16.950891 14.886479 2.332910 7.000000
7.830277 14.965214 2.345179 3.000000
7.952896 14.969893 2.353705 8.500000
-17.447243 15.225568 2.394627 5.000000
-17.100807 15.209517 2.366648 8.000000
6.922885 15.275587 2.328675 9.000000
14.958712 17.582644 2.387221 7.000000
14.936793 17.669054 2.392570 2.000000
8.459688 21.290703 2.369117 6.000000
8.303119 21.484535 2.381872 4.000000
8.462726 21.494879 2.388867 5.000000
8.603537 21.456055 2.390512 10.000000
5.998459 21.821890 2.340316 0.000000
3.117000 22.206732 2.318920 8.000000
1.781004 22.281734 2.311514 1.000000
2.564766 22.337339 2.325092 7.000000
3.064522 22.342554 2.332087 29.000000
3.281890 22.359919 2.337024 8.000000
3.498627 22.367304 2.341139 7.000000
3.571387 22.371918 2.342784 7.000000
5.549709 22.375090 2.383929 1.000000
3.224633 22.460701 2.346488 25.000000
3.740566 22.521738 2.360888 1.000000
1.880319 22.628927 2.348133 2.000000
2.882011 22.591463 2.355128 1.000000
2.986063 22.559856 2.353276 2.500000
3.383988 22.561975 2.359242 16.000000
3.693458 22.678680 2.376112 4.000000
1.976361 22.912285 2.378169 0.000000
2.091386 22.979950 2.386192 3.000000
11.334969 25.233227 2.375378 16.000000
11.447074 25.270096 2.382222 25.000000
11.546276 25.277512 2.386329 12.000000
11.675648 25.349709 2.396596 1.000000
17.753647 30.151747 2.392761 22.000000
17.893070 30.171335 2.398764 25.000000
19.375643 -30.827633 2.489912 5.000000
19.011280 -30.674006 2.467807 1.000000
19.196301 -30.756315 2.479269 2.000000
19.560377 -30.691818 2.488820 2.000000
18.866713 -30.655413 2.461531 2.000000
-12.852633 -25.543503 2.455458 2.000000
1.097980 -23.903194 2.474448 0.000000
-0.029016 -23.749334 2.455933 5.000000
-0.399491 -23.594778 2.440298 3.000000
0.710497 -23.523773 2.433714 4.000000
0.485707 -23.382242 2.418491 28.000000
-0.468425 -23.334837 2.413553 2.000000
-5.991989 -23.219440 2.479797 0.000000
-6.497882 -23.070578 2.478562 5.000000
-3.433522 -23.139875 2.419108 16.500000
-3.320192 -23.126289 2.416022 4.000000
-6.248888 -23.015598 2.466219 13.000000
-3.570282 -23.062805 2.413348 12.000000
-5.427042 -22.797979 2.423428 2.000000
-7.712481 -22.209618 2.431246 7.000000
-7.745342 -22.080154 2.419725 4.000000
-0.218356 -20.508986 2.483817 3.000000
-0.153809 -20.493690 2.481894 31.000000
-0.056992 -20.420696 2.472997 21.500000
1.434087 -15.400535 2.424306 3.000000
1.506459 -15.391619 2.423996 4.500000
8.546597 -15.105999 2.409910 19.666666
8.693312 -15.124188 2.422196 19.500000
8.950739 -15.074762 2.434299 0.000000
9.360570 -15.108825 2.467856 5.000000
9.486930 -15.100035 2.476108 6.000000
9.751168 -15.096112 2.495363 71.000000
9.034925 -15.054474 2.437875 4.000000
9.143758 -15.021099 2.441725 5.000000
9.376528 -15.028922 2.459604 12.000000
4.878944 -14.927152 2.461469 0.000000
4.941743 -14.881478 2.457753 14.500000
9.598873 -14.963265 2.468406 21.000000
9.675417 -14.876089 2.464005 15.000000
5.442913 -14.817188 2.474167 9.500000
5.538166 -14.859914 2.485626 21.000000
9.892409 -14.799448 2.471707 1.000000
10.014093 -14.779639 2.478859 14.000000
5.056200 -14.684272 2.434216 2.000000
5.331959 -14.729377 2.455275 15.000000
9.936644 -14.765011 2.471157 24.000000
10.097055 -14.751877 2.482159 9.000000
5.438694 -14.454091 2.420589 4.000000
10.960671 -13.632324 2.428797 19.000000
11.899666 -13.225153 2.470240 18.333334
12.049421 -13.237459 2.485460 30.000000
12.153782 -13.184847 2.489861 5.500000
-13.326323 -11.839924 2.475191 35.000000
-13.244900 -11.792484 2.462355 28.000000
8.409365 -11.418781 2.477566 35.000000
8.447350 -11.246809 2.457431 50.500000
8.531327 -11.174675 2.456226 55.000000
8.708883 -11.187050 2.476878 34.000000
-13.502687 -11.138671 2.430448 26.000000
-13.394463 -11.120300 2.417245 32.000000
8.606760 -11.163963 2.462766 51.500000
-14.112286 -10.915082 2.477208 1.000000
-13.536224 -10.953597 2.417795 26.000000
0.933204 -10.774016 2.483979 7.333333
1.004059 -10.802918 2.492038 10.000000
16.773073 -10.772264 2.414088 10.000000
-14.076667 -10.746855 2.459054 1.000000
16.901962 -10.680849 2.421301 5.000000
-5.014224 -10.612469 2.477313 1.000000
13.869289 -10.512166 2.416420 31.500000
13.990680 -10.466366 2.426047 22.000000
14.013951 -10.415271 2.424397 19.000000
-2.502666 -10.317310 2.438534 9.250000
2.813715 -10.349046 2.463383 4.000000
2.512851 -10.253671 2.424879 9.000000
2.746814 -10.229820 2.432938 20.000000
17.379011 -10.013568 2.428995 32.000000
1.267784 -9.910551 2.480567 2.333333
1.332300 -9.919091 2.484743 1.000000
17.331104 -9.913571 2.417935 39.000000
17.465757 -9.917900 2.432361 21.000000
-6.309542 -9.771752 2.455010 7.000000
17.335682 -9.736338 2.407836 32.500000
-6.225009 -9.574697 2.410403 40.000000
2.587529 -9.577324 2.463057 8.500000
-6.375277 -9.541273 2.421968 40.000000
17.714579 -9.550283 2.437170 25.000000
17.984661 -9.550539 2.466024 20.000000
-17.622362 -9.445065 2.421301 4.000000
2.224865 -9.418971 2.402818 14.666667
2.410743 -9.389151 2.406673 33.000000
2.645348 -9.436691 2.433178 10.500000
3.178562 -9.428570 2.470286 6.000000
-17.880587 -9.296151 2.440536 10.000000
-17.621660 -9.302637 2.413126 5.000000
-15.258173 -9.299109 2.481059 20.000000
-3.749934 -9.258144 2.479924 1.000000
17.990284 -9.265607 2.450635 27.000000
18.260645 -9.260147 2.479489 5.000000
18.318024 -9.217011 2.483336 21.000000
-18.013721 -9.079661 2.442941 4.000000
-17.857344 -9.141999 2.429476 9.000000
-15.201498 -9.155665 2.464005 11.000000
0.028611 -9.103639 2.433060 18.000000
0.228653 -9.095777 2.431683 9.000000
1.582836 -9.154112 2.482805 2.000000
1.673205 -9.161597 2.489002 2.000000
0.156561 -9.059279 2.421527 9.000000
1.735382 -9.020193 2.454920 5.000000
1.779961 -8.948470 2.438396 0.000000
-18.421453 -8.853774 2.475161 10.000000
-6.067718 -8.838493 2.462488 47.000000
-4.735851 -8.777071 2.476069 33.000000
-4.672224 -8.824272 2.478960 4.000000
4.141532 -8.819139 2.418962 5.500000
18.178972 -8.862551 2.449193 25.000000
-18.420332 -8.675848 2.465784 10.500000
-6.002360 -8.684691 2.424879 33.000000
-4.733735 -8.707578 2.460648 30.000000
-4.686261 -8.750838 2.464503 27.000000
-18.426847 -8.573009 2.461215 7.000000
-15.822090 -8.572840 2.498663 49.000000
-6.330096 -8.570263 2.447265 12.000000
-6.032103 -8.640282 2.420402 24.500000
-6.381470 -8.564497 2.453235 18.000000
-6.178160 -8.531658 2.419506 11.000000
7.866413 -8.509838 2.445923 31.000000
-18.505627 -8.468627 2.464581 18.000000
-15.806462 -8.468246 2.489861 48.000000
-15.791007 -8.396229 2.483260 40.000000
7.865289 -8.402144 2.429127 41.666668
-18.031826 -8.320422 2.404950 41.000000
-3.679893 -8.359303 2.440978 3.500000
7.947557 -8.318054 2.428163 41.750000
-18.617842 -8.238636 2.465543 3.000000
-15.891163 -8.226612 2.484635 13.000000
-15.726940 -8.267295 2.467031 37.000000
-13.198661 -8.177138 2.433596 60.000000
-5.624820 -8.193349 2.467394 20.000000
-4.173059 -8.221992 2.464215 4.000000
-5.621252 -8.106182 2.449082 13.500000
-18.320000 -8.038100 2.422744 13.000000
-4.424771 -8.018767 2.447691 13.000000
-4.355186 -8.041380 2.444076 6.000000
-15.777297 -7.886913 2.449152 37.000000
-5.765142 -7.935011 2.435106 0.500000
-18.499990 -7.841354 2.433323 9.000000
-15.663572 -7.768648 2.427697 1.000000
7.434256 -7.599569 2.441892 1.000000
-16.238253 -7.551329 2.486560 32.000000
-11.773797 -7.552840 2.443835 13.000000
7.424786 -7.518666 2.427117 39.000000
-16.312307 -7.399592 2.487111 20.000000
-5.061796 -7.423098 2.401216 23.000000
7.395458 -7.418726 2.406075 46.000000
7.462902 -7.439495 2.420402 42.000000
7.523169 -7.382627 2.421073 44.750000
-11.720680 -7.312525 2.413545 79.000000
-19.064865 -7.177411 2.466986 10.000000
-16.352335 -7.232706 2.482710 3.000000
6.999255 -7.110072 2.477033 6.000000
7.084397 -7.151482 2.499201 59.000000
7.746075 -7.115398 2.415924 38.000000
-19.232361 -7.034235 2.479970 10.000000
7.793516 -7.069209 2.416820 1.000000
-19.399525 -6.957502 2.495839 4.000000
7.343235 -6.874084 2.497273 8.000000
-10.866494 -6.824471 2.473563 81.000000
7.191405 -6.689687 2.438480 52.000000
-19.504642 -6.582990 2.492954 7.000000
7.130372 -6.549826 2.403782 19.000000
14.252214 -6.518542 2.456452 38.000000
16.278561 -6.530743 2.435399 44.000000
-19.497881 -6.376657 2.484298 32.000000
-9.708001 -6.442656 2.459140 12.000000
-9.522470 -6.427820 2.424859 35.000000
7.424210 -6.462893 2.443781 27.500000
7.546985 -6.466265 2.467394 4.000000
16.233601 -6.424096 2.424121 42.000000
-19.446032 -6.292147 2.475161 6.000000
-9.636831 -6.330222 2.433533 81.500000
7.674018 -6.287912 2.463154 4.200000
16.255434 -6.305019 2.420912 25.666666
-9.677844 -6.223914 2.428576 70.166664
16.338434 -6.258654 2.429348 51.000000
-19.250135 -6.162014 2.447750 6.000000
6.824000 -6.073555 2.441494 14.000000
7.720389 -6.165313 2.452937 21.000000
-18.924894 -5.992428 2.403989 8.000000
9.214222 -5.786796 2.499201 32.000000
9.199277 -5.737189 2.490247 1.000000
9.148426 -5.527428 2.455101 15.750000
-19.493330 -5.373018 2.448712 16.000000
-19.636553 -5.346179 2.464581 5.000000
9.132342 -5.362182 2.432490 10.000000
10.053890 -4.109059 2.494724 16.000000
10.006803 -3.943803 2.470547 24.000000
-13.647823 -3.598266 2.465864 20.000000
8.899038 -2.646203 2.481256 44.500000
8.796106 -2.480759 2.442527 58.000000
8.816191 -2.546388 2.452510 52.333332
8.792690 -2.450001 2.439429 63.000000
8.830246 -2.370953 2.443560 71.800003
8.883915 -2.281005 2.451305 72.000000
8.739058 -2.199964 2.408445 54.000000
8.758950 -2.001241 2.401216 57.000000
8.821743 -1.986448 2.416707 23.000000
10.659142 -1.711171 2.479688 17.291666
10.536143 -1.584038 2.447265 0.000000
15.770789 -1.180342 2.478812 28.000000
15.751515 -1.072703 2.474600 26.799999
15.735614 -0.937599 2.470760 17.500000
9.200287 -0.477336 2.462150 5.000000
9.969333 -0.015659 2.475105 11.000000
-17.391056 0.051623 2.414769 10.000000
-17.449816 0.161484 2.423021 8.000000
-17.850737 0.342751 2.479042 36.333332
9.263020 0.373725 2.477641 12.000000
-17.723272 0.433161 2.461622 20.666666
-17.480881 0.628779 2.428797 16.000000
9.061414 0.570080 2.426519 8.500000
-17.435270 0.681987 2.422746 23.000000
9.094519 0.730130 2.438396 6.000000
-14.254147 1.232037 2.499595 96.000000
-14.018655 1.256062 2.458980 39.000000
-13.911214 1.356595 2.441942 35.250000
8.979322 1.407730 2.429101 4.000000
-13.849083 1.489794 2.433509 53.500000
9.682429 2.308466 2.471250 0.000000
12.474813 2.278335 2.444539 12.000000
9.641213 2.459307 2.470286 0.000000
-17.565029 2.581245 2.465106 7.000000
9.622801 2.567862 2.472695 11.000000
-17.458389 2.677744 2.452453 5.000000
9.318838 2.702145 2.408922 7.000000
9.617031 2.663440 2.477515 34.500000
9.475961 2.769170 2.451009 0.000000
12.450143 2.772588 2.458799 24.500000
-19.817335 2.908697 2.425629 24.000000
-17.548429 2.917714 2.470057 0.000000
12.326912 2.836756 2.438356 11.000000
-17.357967 2.998245 2.445851 9.000000
-17.266520 3.038339 2.434299 18.000000
-13.837356 3.067671 2.476190 7.000000
8.811306 3.063250 2.493133 29.000000
-17.321142 3.160280 2.444751 35.000000
-17.282076 3.153186 2.439250 33.500000
10.358653 3.133381 2.485770 2.000000
-17.313934 3.327871 2.448052 46.000000
-17.249657 3.315485 2.438975 41.500000
-19.824068 3.420652 2.436208 1.000000
-19.760328 3.345755 2.427072 7.000000
-19.528566 3.496149 2.402546 8.000000
-17.358744 3.449721 2.457404 48.000000
-17.503162 3.535614 2.479409 58.000000
-17.294035 3.549959 2.451353 47.000000
11.970118 3.620832 2.410721 7.000000
9.849591 3.810519 2.425774 4.000000
-17.137951 4.139775 2.448052 44.000000
-17.177849 4.235205 2.456579 27.500000
7.934371 4.313393 2.413609 0.000000
8.706080 4.248084 2.405067 49.333332
-17.336395 4.361034 2.482159 27.000000
-17.284214 4.405695 2.476658 52.000000
8.667165 4.347830 2.407396 51.000000
-17.201239 4.442138 2.466756 58.000000
-16.867786 4.526020 2.424947 72.000000
8.695684 4.475591 2.428070 22.400000
-16.808453 4.623508 2.420546 41.000000
-16.773191 4.557179 2.413394 52.000000
10.074563 5.395143 2.412055 2.000000
8.170126 5.627738 2.463057 52.500000
8.252677 5.627484 2.479924 11.000000
8.093350 5.707193 2.458720 58.400002
8.099196 5.826296 2.477033 25.000000
16.484726 6.026029 2.437049 0.000000
8.522731 6.090433 2.406075 16.000000
16.328758 6.105072 2.420546 62.666668
16.413677 6.058579 2.429348 44.000000
16.300291 6.191900 2.421096 3.000000
9.546870 6.271139 2.410816 54.000000
9.630471 6.239692 2.421968 27.500000
16.302954 6.251590 2.424397 15.000000
9.659086 6.410194 2.446749 9.000000
-16.626398 6.730949 2.490595 21.333334
-16.600908 6.842397 2.493162 6.000000
-16.429871 6.953773 2.477208 4.000000
-16.476830 7.096040 2.490961 1.000000
-16.359970 7.106730 2.476658 41.000000
-16.058134 7.035659 2.434299 30.000000
5.536894 7.115015 2.409478 8.000000
5.523970 7.144604 2.413609 14.000000
5.250009 7.495005 2.445625 12.000000
-5.134125 7.588796 2.448724 17.166666
5.236924 7.705899 2.490035 25.000000
-16.200905 7.796971 2.496463 26.333334
-15.985388 7.796591 2.469507 11.000000
-16.103035 7.916697 2.491512 24.000000
8.419966 7.956818 2.445097 6.000000
-5.302959 8.100682 2.403782 45.000000
-15.594445 8.410797 2.460155 37.000000
-15.610798 8.546659 2.471157 2.000000
-3.613477 8.570953 2.485904 1.000000
-4.435642 8.716729 2.428199 34.333332
-3.503549 8.649849 2.494166 0.000000
-4.426455 8.789561 2.443299 7.000000
2.067733 8.795106 2.414642 0.000000
-3.610928 8.996070 2.406673 1.000000
0.808289 9.002506 2.415675 0.500000
2.420137 9.013195 2.494166 10.000000
-3.968089 9.052430 2.453901 0.000000
0.919115 9.064350 2.434953 7.666667
1.837165 9.086767 2.477641 20.000000
2.337984 9.046827 2.497264 14.000000
8.580480 9.108568 2.412235 23.000000
-3.975218 9.146743 2.476069 12.000000
1.208764 9.218768 2.484871 1.000000
-15.328297 9.389505 2.495913 8.000000
-12.533228 9.406790 2.456204 54.000000
-12.436420 9.487736 2.451765 65.666664
-12.353671 9.548000 2.447223 48.000000
-12.261261 9.600204 2.440823 61.000000
-12.189368 9.668106 2.438552 53.000000
-12.162158 9.740257 2.442268 47.500000
-11.892318 9.740685 2.409440 75.000000
-12.159164 9.832251 2.450939 54.000000
-10.044504 9.915571 2.465864 4.000000
-12.095707 10.018894 2.461779 21.500000
3.124665 10.100403 2.428461 7.000000
3.610442 10.078032 2.458906 0.000000
-12.108996 10.240145 2.485626 2.000000
-11.360101 10.268242 2.400149 6.000000
7.900554 10.285048 2.500063 21.000000
7.923216 10.247746 2.497034 4.000000
-8.786665 10.583590 2.403219 17.000000
-4.578269 10.811951 2.478139 5.000000
-11.622477 10.876120 2.494916 42.000000
-10.553239 11.128573 2.403866 17.000000
-10.512807 11.155918 2.402627 40.000000
-10.488515 11.200427 2.405104 48.000000
-9.892546 11.915629 2.427402 0.000000
12.657575 12.193411 2.440350 15.000000
-9.966969 12.238143 2.473857 4.000000
12.625546 12.277806 2.445301 1.000000
12.579442 12.426695 2.455204 15.500000
12.526374 12.491442 2.456304 5.000000
-8.978922 12.560139 2.419970 2.000000
12.314138 12.751650 2.461392 44.250000
11.223936 13.791367 2.468956 2.000000
1.759380 13.946527 2.455882 7.500000
2.140923 14.007289 2.475616 7.666667
2.277796 13.970670 2.473023 14.800000
2.389520 13.964427 2.475157 13.000000
10.791436 13.962487 2.450252 16.000000
18.589903 14.151436 2.416022 52.000000
18.554567 14.263164 2.420137 10.000000
10.004002 14.676321 2.466206 5.000000
9.533192 14.769962 2.440900 4.000000
9.852036 14.750186 2.462905 3.000000
-12.116225 15.864572 2.417454 0.000000
15.497433 17.387814 2.408616 41.666668
-11.660305 20.803934 2.466219 0.000000
8.285866 21.951080 2.426308 5.000000
8.149796 22.222462 2.447704 1.500000
9.167587 22.253256 2.488848 19.000000
-17.127310 23.324547 2.484890 7.000000
-16.539564 23.282043 2.452379 12.000000
-15.835786 23.362993 2.423632 31.000000
-17.103275 23.445850 2.492076 10.000000
-15.661646 23.743116 2.442454 28.000000
-15.570305 23.848303 2.445705 45.000000
-15.404737 23.839457 2.437321 33.000000
-15.278254 23.889931 2.435096 33.500000
-16.141842 24.057842 2.487799 19.000000
-15.967677 24.042377 2.478388 6.000000
-15.209216 24.030725 2.442112 12.000000
-15.147602 24.184856 2.450496 15.500000
-14.954572 24.470692 2.462645 3.000000
12.141338 25.306915 2.410285 3.000000
11.958274 25.332247 2.405494 2.000000
12.392668 25.419992 2.428423 1.000000
13.238780 25.704681 2.482836 4.000000
13.361616 25.645498 2.483179 21.500000
13.538051 25.688066 2.493445 19.000000
7.372252 28.021772 2.488141 55.000000
7.546671 27.969112 2.487628 41.000000
7.705838 28.033192 2.496525 44.000000
7.270536 28.173925 2.498579 41.000000
19.361814 29.599228 2.418686 24.000000
19.459097 29.544920 2.419232 6.000000
19.778986 29.826206 2.447340 7.000000
19.954582 29.886721 2.457437 15.000000
18.697824 30.004278 2.417594 19.000000
19.507877 30.028023 2.448704 12.000000
18.616070 30.083231 2.419232 13.000000
18.094179 30.293129 2.412955 23.000000
18.220116 30.287430 2.417048 25.000000
17.719723 30.753407 2.427146 3.000000
17.977049 30.751709 2.435879 3.000000
18.272001 31.032089 2.462622 3.000000
18.819736 31.062843 2.483635 25.000000
18.078667 31.149736 2.462895 8.000000
19.039867 31.204559 2.499736 72.000000
19.876286 -30.759367 2.504375 56.000000
19.942350 -30.649942 2.500555 23.000000
0.812643 -24.368435 2.521353 12.000000
2.481784 -24.139355 2.509421 5.000000
2.552996 -24.087914 2.504895 20.000000
2.706961 -24.095121 2.507364 3.000000
0.713243 -21.387762 2.591537 19.000000
0.487974 -21.335806 2.584484 20.666666
-3.662653 -21.029440 2.585045 5.500000
1.096152 -20.985857 2.544891 36.000000
-4.084068 -20.913267 2.580477 31.000000
1.159217 -20.930767 2.538639 16.000000
-5.022002 -20.806118 2.592018 27.000000
0.236413 -20.838400 2.523731 15.000000
0.825274 -20.819418 2.523250 9.000000
0.936273 -20.858425 2.528540 22.666666
1.023987 -20.862278 2.529502 32.000000
-4.854874 -20.682625 2.572783 21.000000
-4.666702 -20.758455 2.576630 31.000000
-4.306856 -20.669807 2.556913 15.000000
1.650582 -20.741055 2.519724 24.000000
1.803711 -20.741608 2.521327 16.000000
-4.708928 -20.643032 2.564126 16.000000
-4.230729 -20.628777 2.550180 18.000000
2.273942 -20.630060 2.513472 10.333333
-4.848100 -20.365953 2.535273 33.000000
-6.609739 -19.834929 2.531906 8.000000
9.781724 -15.354230 2.527820 13.000000
10.838560 -15.161494 2.587783 8.000000
5.676327 -14.943040 2.505446 1.000000
8.731046 -13.994328 2.585348 27.000000
8.657240 -13.779445 2.550662 44.000000
16.676369 -13.480176 2.596827 16.000000
12.891697 -13.050140 2.547074 34.000000
13.006207 -13.042577 2.557526 2.000000
13.681129 -12.682113 2.590259 15.500000
-13.815405 -12.615197 2.597686 29.000000
-13.958176 -12.193666 2.573480 28.000000
-13.997270 -11.997115 2.559727 0.000000
-13.598439 -11.954930 2.514067 79.000000
9.164514 -11.620959 2.585646 0.000000
9.205876 -11.598283 2.587023 25.000000
14.485154 -11.268269 2.548174 6.000000
14.529889 -11.229975 2.549825 8.000000
14.805589 -11.221769 2.579531 8.000000
14.967930 -11.124275 2.589434 7.000000
-5.023680 -10.987866 2.550005 0.000000
-18.306276 -10.951738 2.583362 6.000000
-17.829531 -10.896005 2.530464 7.000000
-5.634172 -10.930368 2.595438 12.500000
-4.870495 -10.923913 2.524398 0.000000
-18.244995 -10.837396 2.569897 5.000000
-17.945253 -10.812463 2.537196 38.000000
-17.829721 -10.819341 2.525655 32.000000
-3.023520 -10.468371 2.502783 0.000000
1.030217 -10.376421 2.588836 4.000000
1.159317 -10.065853 2.515586 7.000000
-3.047022 -9.960139 2.585945 26.000000
10.530800 -9.947994 2.530918 16.500000
2.574892 -9.835884 2.524260 34.000000
2.628770 -9.729147 2.502092 25.000000
2.882574 -9.750152 2.524260 2.000000
1.143241 -9.659201 2.599509 1.000000
1.227050 -9.645800 2.598706 7.111111
1.330128 -9.561108 2.579886 9.000000
-6.098684 -9.380396 2.569942 20.000000
-3.644672 -9.420902 2.507875 1.000000
1.390670 -9.452228 2.553379 14.000000
1.477294 -9.423431 2.549248 14.666667
-16.114202 -9.363640 2.587783 30.000000
-5.986901 -9.304110 2.541287 15.000000
-4.497591 -9.291295 2.562813 11.000000
-6.115684 -9.215309 2.540392 0.000000
-2.734805 -9.197234 2.564395 4.500000
-2.654414 -9.244883 2.570592 4.500000
1.525667 -9.255852 2.507076 3.500000
2.594611 -9.255726 2.569042 15.000000
2.618684 -9.174683 2.549936 17.000000
2.724453 -9.268801 2.581952 2.000000
2.867409 -9.217484 2.579886 0.500000
-3.366549 -9.125432 2.599509 4.000000
-2.816703 -9.138793 2.555789 11.666667
15.965017 -9.102575 2.551750 30.000000
-15.732644 -9.010172 2.517367 5.000000
-15.625329 -9.014015 2.504714 2.000000
-6.106069 -9.015239 2.500992 3.000000
-3.519679 -9.013561 2.586083 1.000000
2.522609 -9.053269 2.511723 10.000000
16.109602 -8.973804 2.560461 27.333334
-15.830352 -8.934511 2.523969 31.000000
-6.308609 -8.946337 2.514424 1.000000
-4.587668 -8.968950 2.501128 0.000000
-2.918224 -8.933599 2.511723 2.000000
15.861077 -8.944552 2.528370 23.000000
-15.768471 -8.834388 2.509666 27.000000
-7.105340 -8.783763 2.595014 1.000000
-3.101159 -8.830808 2.501395 4.000000
3.928033 -8.847460 2.587116 7.000000
15.899570 -8.769795 2.521218 36.000000
-15.781979 -8.712157 2.503064 44.000000
-7.144660 -8.719867 2.589343 7.666667
15.907144 -8.687337 2.516634 22.666666
16.319395 -8.735722 2.570179 0.000000
-7.141160 -8.549871 2.558749 9.000000
-16.397087 -8.390816 2.557526 85.000000
-16.116028 -8.183198 2.509666 21.000000
-16.177038 -8.150357 2.515167 26.000000
7.645225 -8.115755 2.560987 61.000000
-16.581020 -8.062030 2.560002 19.500000
7.661980 -7.981468 2.541287 59.000000
-16.567013 -7.937624 2.550741 32.333332
7.520489 -7.933257 2.510842 37.000000
-16.351673 -7.729402 2.511316 33.000000
-12.503950 -7.746735 2.569813 2.000000
-16.332832 -7.657806 2.504714 25.000000
6.865245 -7.616579 2.545785 4.833333
-19.829155 -7.536351 2.568935 5.000000
-16.390638 -7.528481 2.504439 27.500000
7.085205 -7.497655 2.561126 54.250000
-16.571960 -7.392179 2.519568 2.000000
-16.422194 -7.387313 2.500314 37.000000
7.209593 -7.393116 2.563777 5.000000
-16.720827 -7.270424 2.531671 0.000000
7.070666 -7.365498 2.534862 1.000000
-16.862478 -7.222006 2.547074 24.000000
6.507091 -7.228322 2.599303 27.799999
7.117793 -7.140188 2.503056 67.000000
-16.909683 -7.059625 2.544323 31.000000
6.657962 -7.067717 2.595034 11.333333
6.719512 -7.021738 2.597444 15.000000
-19.846771 -6.907489 2.544891 8.000000
-16.845589 -6.919265 2.528645 29.000000
7.627213 -6.874809 2.549320 23.000000
-19.718195 -6.793369 2.525655 4.000000
-17.326935 -6.832253 2.586133 28.000000
7.622747 -6.784606 2.533577 35.000000
-19.574068 -6.674999 2.504495 8.000000
7.670700 -6.614163 2.514622 0.000000
6.918299 -6.395210 2.517920 25.000000
7.072800 -6.415243 2.552001 8.000000
7.167583 -6.419822 2.571625 30.000000
-10.068947 -6.367782 2.514485 91.000000
6.929819 -6.365601 2.514822 25.000000
7.056879 -6.294080 2.527215 27.000000
7.246771 -6.328290 2.571280 0.666667
-19.941227 -6.039602 2.523250 21.000000
9.243446 -5.886458 2.517110 13.000000
9.261893 -5.857389 2.517110 10.000000
9.421107 -5.793638 2.540392 18.000000
15.423830 -5.250701 2.553759 134.000000
15.329567 -5.084536 2.531461 50.000000
15.433825 -4.878113 2.537035 62.000000
15.476719 -4.784864 2.539100 66.333336
15.573339 -4.707800 2.550042 5.000000
10.211673 -4.476236 2.560987 1.000000
10.372200 -4.488385 2.595910 18.000000
10.222188 -4.328545 2.549794 19.000000
10.055311 -4.257874 2.508156 32.000000
10.261834 -4.269488 2.552928 0.000000
8.981640 -2.727161 2.508625 31.333334
9.875496 -2.142382 2.508839 6.000000
10.208123 -1.864334 2.576307 33.000000
16.042856 -1.454363 2.524854 33.333332
16.193184 -1.399634 2.547565 0.000000
16.071325 -0.881644 2.522789 35.000000
15.995086 -0.827070 2.510401 39.000000
16.373631 -0.743464 2.569037 18.000000
16.474115 -0.644389 2.584109 5.000000
16.423630 -0.564950 2.575747 17.000000
16.515736 -0.464211 2.589684 7.500000
-18.180986 -0.145969 2.524519 5.000000
9.499794 0.119388 2.539092 5.000000
-18.159992 0.253580 2.521768 35.000000
-16.286266 0.304202 2.553139 8.000000
-14.618518 0.341952 2.554668 21.000000
-14.647530 0.434792 2.560175 30.400000
-14.805145 0.602468 2.588744 45.000000
-14.694778 0.759819 2.570731 51.666668
-14.655610 0.873258 2.564994 52.000000
-14.796841 0.951682 2.590465 63.000000
-14.790523 1.044588 2.590465 45.666668
-14.752573 1.193431 2.585818 43.500000
9.496240 1.427696 2.566461 15.000000
-14.365902 1.850458 2.530574 19.333334
-14.315876 1.943194 2.524034 39.000000
-14.269505 2.005450 2.517494 44.000000
9.391616 1.935700 2.562742 40.799999
9.447083 2.002870 2.580920 4.000000
-14.240984 2.092755 2.514740 52.333332
9.344790 2.073401 2.558198 53.000000
9.482359 2.103993 2.595895 17.500000
-14.218039 2.249402 2.514912 50.750000
-14.304229 2.424514 2.534704 3.000000
-14.272905 2.373104 2.527820 48.000000
12.838538 2.637709 2.526562 9.000000
8.892338 3.010298 2.509038 28.600000
10.450616 3.125396 2.505469 86.000000
8.878782 3.165241 2.519211 31.750000
8.877871 3.307003 2.531965 22.000000
11.432210 3.379865 2.516137 29.000000
11.791628 3.405709 2.590481 0.000000
8.889346 3.455124 2.548903 23.750000
11.422129 3.478607 2.520102 15.600000
8.828147 3.618870 2.549936 35.666668
-17.941935 3.800583 2.546524 5.000000
8.823223 3.785295 2.565944 13.000000
10.521214 3.806550 2.569942 8.000000
-17.863457 3.901376 2.538822 21.666666
8.819963 3.899378 2.577305 4.000000
10.512646 3.870869 2.573165 29.799999
-17.772934 3.998785 2.529470 52.000000
8.703306 4.012198 2.561296 11.500000
-17.740973 4.050189 2.526720 44.000000
8.710477 4.216427 2.586342 38.500000
8.632058 4.381187 2.587116 17.000000
9.410354 4.410135 2.580162 18.000000
9.974478 4.390950 2.503231 31.000000
10.061215 4.372653 2.519797 22.000000
10.905490 4.658337 2.502920 5.000000
9.800551 5.261575 2.555018 31.333334
9.817618 5.363843 2.569643 23.000000
8.845796 6.458687 2.515767 25.000000
8.880713 6.559395 2.535915 10.000000
-16.751848 6.659599 2.503064 22.000000
-16.631021 7.705744 2.545057 16.666666
-16.586653 7.769752 2.543223 8.000000
5.246912 7.799257 2.512239 7.750000
5.145979 7.834054 2.505010 7.000000
-16.203260 8.124605 2.516817 3.500000
-16.134243 8.217253 2.514067 10.000000
-16.317244 8.407535 2.548724 59.000000
4.409988 8.393082 2.533928 16.000000
-16.300303 8.528868 2.554409 26.000000
-15.954885 8.476223 2.508565 27.000000
-5.512738 8.508404 2.517031 14.000000
-15.842960 8.609188 2.503614 31.000000
-3.971838 8.615582 2.535477 25.000000
-3.876185 8.584879 2.517403 15.000000
-3.780818 8.625207 2.516887 6.000000
13.732389 8.657778 2.544468 2.500000
-16.487062 8.825470 2.596585 26.000000
-16.289581 9.018298 2.585308 22.000000
-16.065413 8.993385 2.556426 37.000000
-15.687646 8.977131 2.509666 54.000000
8.317141 9.025860 2.590481 41.500000
3.111002 9.040130 2.555100 2.000000
3.365212 9.121807 2.598477 30.000000
-15.982028 9.212357 2.561377 108.000000
-15.737147 9.137195 2.526720 34.000000
1.684313 9.222421 2.505527 17.000000
2.335340 9.155229 2.525149 11.000000
-15.875949 9.284592 2.553676 21.000000
-4.617461 9.240990 2.564741 16.000000
-15.544164 9.354647 2.519018 30.000000
1.084151 9.413211 2.532379 7.000000
1.187341 9.398793 2.531862 12.000000
-16.072012 9.467135 2.589984 0.000000
-15.836577 9.598531 2.571280 4.000000
-15.417076 9.577625 2.520118 36.500000
-15.650301 9.825031 2.565778 0.000000
-15.612661 9.869911 2.564678 7.000000
-15.602169 10.070331 2.578431 24.000000
-8.566529 10.126360 2.556848 0.000000
-4.661386 10.111326 2.557405 11.000000
-15.620282 10.151686 2.586683 0.000000
-8.626310 10.132293 2.565176 1.000000
7.990756 10.235044 2.503091 25.000000
8.077805 10.246647 2.515205 16.000000
7.868626 10.344041 2.505363 19.500000
-10.033802 10.782554 2.573255 10.000000
-9.597760 10.779866 2.521624 9.000000
17.982668 10.835003 2.542486 0.000000
-12.300441 11.013322 2.587825 0.000000
-11.612229 10.958169 2.502556 28.000000
-9.879031 10.956386 2.577385 0.000000
11.895710 11.000133 2.539513 53.000000
11.956398 10.986772 2.545087 33.000000
-11.604945 11.101609 2.517215 17.500000
11.828217 11.076452 2.539926 44.000000
-11.418270 11.594999 2.550662 6.000000
-11.602063 11.707842 2.583490 2.000000
8.451784 11.675681 2.518182 12.000000
8.559615 11.798594 2.546636 7.666667
8.286462 11.913779 2.535393 19.000000
8.448153 12.065213 2.573255 18.000000
9.573074 13.490561 2.592781 4.000000
8.427866 13.566267 2.503278 5.000000
8.509553 13.554877 2.508543 6.000000
8.432594 13.782321 2.532493 38.000000
8.329597 14.090202 2.565527 14.000000
8.284171 14.267980 2.585967 2.000000
10.655078 14.526376 2.501414 13.000000
-9.209400 19.008219 2.557875 4.000000
-9.156523 19.051371 2.559798 1.000000
8.261003 19.613766 2.577351 10.000000
8.361906 19.594736 2.579996 32.000000
8.139105 19.668961 2.577832 32.000000
8.066604 19.756750 2.584324 42.000000
-12.043759 21.021086 2.505306 0.000000
8.450755 23.383200 2.571138 3.000000
7.269859 23.793488 2.572784 0.000000
7.422094 24.021429 2.599939 28.000000
-16.909960 24.123026 2.529721 18.000000
-16.783985 24.104084 2.522192 26.000000
-16.651505 24.074747 2.513637 46.000000
-16.451733 24.054102 2.502457 48.000000
3.617692 24.120146 2.522176 5.000000
-18.144302 24.227526 2.599193 46.000000
-17.045401 24.154448 2.538619 9.000000
3.709115 24.210915 2.532873 1.000000
-17.974159 24.237473 2.591150 36.000000
-17.456234 24.248245 2.565655 3.000000
-17.465752 24.422905 2.578317 13.000000
3.142822 24.635904 2.568258 7.000000
3.253735 24.882347 2.595002 2.000000
14.673613 25.282791 2.510214 9.000000
14.687626 25.491062 2.526299 13.000000
14.950077 25.573744 2.543752 3.000000
13.823049 25.640015 2.501317 2.000000
14.601954 25.714535 2.539303 52.000000
13.693451 25.786198 2.507134 3.000000
14.765775 25.813828 2.553677 34.000000
14.157981 25.870796 2.532459 18.000000
14.254580 25.854113 2.535197 15.000000
14.386047 25.899786 2.544095 14.000000
14.097561 25.953672 2.536223 33.000000
14.616990 25.930397 2.556072 40.000000
10.242146 27.927626 2.554361 31.000000
10.383403 27.905220 2.556757 15.000000
19.449574 30.993259 2.502192 9.000000
19.691490 31.052921 2.514473 19.500000
19.917356 31.084105 2.524570 20.000000
19.171234 31.198990 2.504103 57.000000
19.317453 31.216656 2.510379 6.000000
8.503964 36.228397 2.544764 57.000000
8.391908 36.262711 2.545310 64.000000
-19.221390 -24.242666 2.656686 11.000000
-19.235310 -24.104284 2.648131 1.000000
0.042694 -22.237488 2.693006 17.000000
0.112455 -22.217390 2.690601 10.000000
0.879852 -22.196270 2.690120 17.000000
-0.026989 -22.090586 2.675213 8.000000
0.180392 -21.990587 2.663190 47.000000
0.318503 -21.985050 2.662709 28.000000
0.666187 -22.056719 2.672328 28.000000
