# This PCD file was generated using the MATLAB® pcwrite function
# from Computer Vision Toolbox®.
# .PCD v.7 - Point Cloud Data file format
VERSION .7
FIELDS x y z intensity
SIZE 4 4 4 4
TYPE F F F F
COUNT 1 1 1 1
WIDTH 1237
HEIGHT 1
VIEWPOINT 0 0 0 1 0 0 0
POINTS 1237
DATA ascii
-9.761327 16.551617 2.327046 5.000000
-9.688196 16.605997 2.328248 16.500000
-9.628721 16.684151 2.332816 1.000000
-9.523701 16.744322 2.332816 2.000000
-9.476903 16.784534 2.334259 0.000000
7.692980 17.417616 2.305886 0.000000
7.924443 17.348467 2.309733 6.000000
7.122761 26.234215 2.334311 2.000000
7.262713 26.259876 2.339616 4.000000
6.986350 26.386322 2.343894 4.000000
6.952808 26.597071 2.360662 5.000000
6.815069 26.756092 2.370929 5.000000
6.451183 27.100212 2.392147 4.000000
6.723576 27.107834 2.398307 1.000000
6.295157 27.202333 2.397623 3.000000
-19.292168 27.613602 2.303523 8.500000
-19.507248 27.643047 2.313621 1.000000
-19.218618 27.786282 2.310346 18.000000
-19.788128 27.854908 2.336544 2.000000
-18.430643 29.324093 2.368473 15.000000
-18.635798 29.444759 2.382936 12.000000
-18.829006 29.544241 2.395762 10.000000
12.764922 32.572304 2.392351 41.500000
12.960305 32.617516 2.400129 12.000000
8.487854 32.891132 2.322899 34.000000
8.594171 32.875889 2.323718 44.000000
12.031642 32.967125 2.399856 23.000000
8.400690 33.419861 2.356465 1.000000
8.513520 33.424240 2.358649 3.000000
8.009645 33.647015 2.365198 1.000000
-10.638895 -27.022228 2.493788 1.000000
-10.596106 -26.546143 2.454432 14.500000
-10.751646 -26.332962 2.442454 2.000000
-12.642405 -25.932262 2.477361 13.000000
-13.429899 -25.289906 2.458881 4.000000
-14.344367 -24.015223 2.402071 4.000000
-15.041092 -23.637087 2.405836 1.000000
-15.456545 -23.467812 2.413023 5.000000
-17.108521 -23.180016 2.473939 2.000000
-16.887457 -23.183969 2.462987 4.000000
-17.117088 -23.039780 2.464699 13.000000
-16.341156 -23.036785 2.425343 25.000000
-17.155970 -22.941206 2.459907 10.000000
-16.401863 -22.969120 2.423632 18.000000
-17.151264 -22.785307 2.448956 4.000000
-17.102425 -22.572483 2.431845 12.000000
-18.415293 -22.347483 2.486601 1.000000
-17.836044 -22.207361 2.445876 2.000000
-17.696503 -22.223661 2.439488 12.000000
-17.514973 -22.233601 2.430476 7.000000
-17.425390 -22.263405 2.427738 2.000000
-17.182825 -22.240000 2.413365 5.000000
-17.025509 -22.180061 2.401045 1.000000
-17.903217 -22.148119 2.445534 2.000000
-11.797354 -20.400808 2.437006 16.000000
-12.927320 -20.315292 2.490083 1.000000
-13.031492 -20.267517 2.491729 4.500000
-12.442065 -20.248037 2.457578 1.000000
1.480247 -19.919142 2.418896 10.000000
-13.617008 -19.849955 2.489260 1.000000
1.594843 -19.778828 2.403027 9.000000
-12.900614 -19.721716 2.437006 0.000000
-12.819082 -19.732121 2.433303 2.000000
-13.518767 -19.574629 2.460047 0.000000
-5.591881 -19.386219 2.443422 5.000000
-5.294149 -19.259680 2.418896 4.000000
-6.042605 -19.129763 2.429476 1.000000
-5.390298 -19.138124 2.407836 8.000000
1.857823 -17.825487 2.488486 16.500000
1.033423 -17.707699 2.462905 12.000000
1.763788 -17.733532 2.474458 45.000000
-3.482154 -17.521957 2.480509 2.000000
0.799598 -17.473900 2.428797 16.000000
0.895868 -17.563099 2.441817 16.333334
1.440758 -17.561928 2.446676 19.500000
0.440625 -17.407347 2.417795 3.000000
0.743685 -17.452576 2.425497 30.000000
1.625150 -17.452339 2.433748 4.000000
0.647759 -17.336058 2.408810 23.000000
2.113579 -17.364025 2.428797 50.000000
-4.210556 -17.194130 2.457954 20.000000
-5.420901 -17.151140 2.497563 15.000000
-5.568776 -17.057859 2.491512 4.000000
-4.730492 -16.988503 2.448602 91.000000
-3.445401 -17.056557 2.416145 49.000000
-3.972212 -16.909060 2.411744 46.000000
-4.623510 -16.808453 2.420546 17.000000
-5.942850 -16.434868 2.426597 5.000000
-6.270809 -16.293427 2.424121 11.500000
-6.147710 -16.316944 2.421096 23.000000
-6.025437 -16.341444 2.418345 3.000000
-6.396389 -16.238174 2.423296 0.000000
-5.110156 -14.707423 2.440410 13.000000
8.113459 -11.237114 2.421462 0.000000
8.267425 -11.225945 2.435746 2.750000
7.677099 -10.325924 2.480377 0.000000
9.317390 -10.300837 2.426625 0.500000
7.451740 -10.155458 2.428135 0.000000
9.604510 -10.096296 2.434541 0.000000
9.860654 -10.076404 2.463110 0.000000
7.434603 -10.065650 2.412235 0.000000
15.250734 -9.507524 2.495363 33.000000
6.995110 -9.347155 2.464096 0.000000
6.937593 -9.179821 2.428576 1.000000
10.537173 -9.025069 2.423871 0.000000
13.272083 -8.744682 2.491200 5.000000
-13.287828 -8.583133 2.479432 0.000000
11.228937 -8.622497 2.473436 3.000000
13.111535 -8.462768 2.445984 12.000000
13.228170 -8.275507 2.445675 10.500000
13.274255 -8.159991 2.442268 21.000000
13.518221 -8.077678 2.468282 7.000000
15.815375 -7.961222 2.458504 1.000000
15.659288 -7.780202 2.427881 27.000000
15.839926 -7.787344 2.450802 1.000000
15.988949 -7.798331 2.470057 5.000000
16.127495 -7.803281 2.487661 4.000000
16.155500 -7.754294 2.488211 11.000000
-18.776163 -7.407491 2.444384 2.000000
-18.649500 -7.425308 2.430919 7.000000
9.378276 -7.064473 2.478139 0.000000
8.803205 -6.374800 2.496515 36.000000
8.865005 -6.293007 2.497112 27.666666
16.109154 -6.345563 2.404042 16.000000
-12.838631 -6.192604 2.490302 22.000000
-14.216341 -6.022771 2.419970 3.000000
-14.793289 -5.886965 2.495536 8.000000
-14.672044 -5.892173 2.478193 13.000000
-14.375113 -5.825443 2.431119 21.000000
-14.192103 -5.855363 2.406343 4.000000
-14.823406 -5.551144 2.480980 21.500000
17.027729 -5.558941 2.487111 5.000000
-14.788265 -5.458613 2.470760 3.000000
17.152046 -5.391593 2.496463 15.000000
16.653374 -4.977249 2.413394 27.000000
16.766598 -5.068521 2.432098 14.000000
16.862707 -4.982159 2.441450 25.000000
16.908703 -4.938044 2.445851 28.000000
16.869215 -4.811716 2.435729 36.000000
17.104118 -4.445679 2.453828 35.500000
17.262705 -3.883988 2.456854 0.000000
17.205196 -3.814300 2.446951 29.000000
17.387669 -3.683177 2.467856 0.000000
-17.591614 -3.617443 2.493712 42.000000
17.507753 -3.651183 2.483260 15.000000
17.359472 -3.506589 2.459054 5.000000
-19.770811 -3.425677 2.429957 18.000000
17.136177 -3.265915 2.422196 3.000000
17.359213 -3.139003 2.449427 35.500000
17.570879 -3.091897 2.477208 3.000000
-10.443853 -3.052018 2.499201 0.000000
-10.296082 -2.973761 2.461592 2.000000
-10.169310 -2.885367 2.428013 5.000000
17.125113 -2.902646 2.411744 40.000000
17.527557 -2.885952 2.466481 17.500000
17.406010 -2.781760 2.447502 18.000000
19.843084 -2.785231 2.426591 20.000000
17.128920 -2.682317 2.407343 26.000000
17.784821 -2.556495 2.494812 13.000000
-19.992527 -2.373348 2.438132 13.000000
-9.486605 -2.309076 2.424022 10.000000
19.970516 -2.356598 2.435247 35.000000
-9.543483 -2.243652 2.433982 7.000000
19.825508 -2.244915 2.416251 26.000000
19.857615 -2.153720 2.418896 10.000000
15.790585 -1.464847 2.485626 54.000000
15.752173 -1.361595 2.478193 60.333332
15.858397 -1.120053 2.491819 3.000000
9.247408 -1.028329 2.486678 6.500000
9.249448 -0.742553 2.479965 12.500000
9.208928 -0.652027 2.467314 14.000000
9.732628 -0.581631 2.420649 4.500000
15.563801 0.186161 2.439636 42.750000
15.512559 0.319491 2.431945 58.333332
15.520828 0.417270 2.433596 66.000000
15.598441 0.468401 2.445984 38.000000
10.473993 0.658992 2.410552 2.000000
9.824440 0.866448 2.448600 27.000000
10.003872 0.929792 2.494381 19.000000
15.628844 1.059988 2.455275 3.000000
15.779169 1.119992 2.479432 3.000000
15.732222 1.166345 2.472618 2.000000
15.850486 1.325432 2.493058 32.000000
15.889549 1.378978 2.499871 5.000000
8.990742 2.188323 2.472994 57.500000
9.096806 2.168843 2.499330 33.000000
8.779730 2.313127 2.426519 52.500000
8.863861 2.246089 2.443818 53.500000
8.722009 2.400826 2.417740 59.400002
8.762972 2.531035 2.437707 60.333332
8.816120 2.606434 2.456986 55.000000
8.662701 2.694632 2.424625 65.666664
8.852317 2.647403 2.469379 59.000000
8.629891 2.819067 2.426347 60.666668
8.673148 2.893581 2.443560 13.000000
-17.265392 3.010206 2.433474 5.000000
-17.077496 3.060416 2.408993 1.000000
-17.076279 3.198818 2.412294 12.000000
-17.236118 3.312914 2.437049 7.000000
-17.257710 3.429643 2.443101 0.000000
-17.065052 3.502956 2.418895 3.000000
-17.321123 4.241653 2.476108 36.000000
-17.200043 4.269328 2.460705 8.000000
-15.201038 4.232766 2.473238 38.000000
-15.157235 4.271929 2.468282 67.000000
-14.857741 4.263155 2.422757 37.500000
-14.915256 4.355876 2.435455 43.000000
-15.026563 4.439660 2.455895 56.000000
-15.083038 4.533735 2.468592 62.000000
-15.048935 4.665622 2.469521 60.500000
-14.949684 4.802690 2.461159 44.000000
8.816721 4.793068 2.491490 57.000000
-14.857179 4.902036 2.452178 48.000000
-14.935425 4.979940 2.467663 42.000000
11.412916 4.981535 2.400499 6.000000
-14.992296 5.093285 2.481785 37.000000
11.458603 5.087341 2.416778 15.000000
9.228027 5.167944 2.429356 18.000000
11.506166 5.173490 2.431920 23.000000
9.069982 5.287350 2.411447 28.000000
11.464031 5.284991 2.433435 0.000000
11.560257 5.263521 2.448577 6.500000
9.051700 5.333987 2.413238 7.000000
9.388677 5.374769 2.484874 0.000000
11.596964 5.390513 2.465234 20.000000
7.998117 5.490790 2.408601 89.000000
-14.598698 5.592222 2.450320 34.000000
8.846740 5.594838 2.404284 5.000000
-14.599483 5.645188 2.453417 40.000000
-14.554298 5.706722 2.450320 41.500000
8.842273 5.630979 2.407865 21.000000
8.706558 5.817541 2.405179 23.000000
11.259669 5.759385 2.437978 15.000000
-14.542006 5.834092 2.455895 50.333332
-14.542388 5.993997 2.465392 48.666668
6.801069 5.976988 2.419806 36.000000
-14.583463 6.118345 2.478812 23.000000
6.608373 6.166722 2.415674 7.500000
7.494552 6.200029 2.414866 23.000000
8.649513 6.263441 2.452936 6.666667
6.525589 6.330346 2.429789 20.333334
7.310262 6.383892 2.409565 11.000000
-14.147131 6.845084 2.463327 0.000000
7.051975 6.942063 2.456792 6.000000
6.519280 7.278625 2.425950 0.000000
6.617958 7.249981 2.437130 10.400000
12.126970 7.252094 2.468617 50.000000
8.792202 7.343604 2.417838 31.000000
12.094641 7.336319 2.471371 40.000000
12.138783 7.415363 2.485139 22.000000
8.971837 7.445919 2.460792 2.000000
8.957354 7.723600 2.496312 7.000000
8.571134 7.750045 2.438902 17.000000
11.815974 8.060311 2.498907 20.000000
9.720274 8.170744 2.447820 18.000000
9.809199 8.193042 2.463720 18.000000
7.388084 8.677899 2.405447 6.000000
11.285674 8.700577 2.489614 18.500000
9.416484 8.814873 2.486434 6.000000
-17.878166 8.995691 2.423705 29.000000
7.389400 9.018443 2.460792 5.000000
-17.943443 9.134861 2.438373 31.000000
8.297549 9.293427 2.401635 31.000000
8.359706 9.274624 2.406935 21.000000
10.244102 9.472867 2.437639 8.000000
-17.627718 10.304935 2.472756 6.000000
-17.205946 10.277163 2.427072 33.000000
-17.522568 10.354481 2.464822 9.000000
-17.204203 10.349586 2.431400 23.000000
-17.134239 10.380953 2.426110 23.000000
-17.121883 10.447138 2.428995 7.000000
1.714427 10.503865 2.444579 29.000000
1.809737 10.665845 2.484874 38.000000
1.919127 10.698199 2.496515 13.000000
-17.032885 10.763579 2.440056 22.000000
-16.925276 10.770140 2.429476 19.000000
-17.250525 11.284125 2.496320 19.000000
-17.215355 11.377323 2.498965 18.500000
-16.808224 11.414278 2.460494 27.500000
-16.523592 11.488475 2.437170 16.000000
-16.762190 11.576413 2.466986 43.000000
-16.630215 11.994032 2.483096 40.000000
-16.265690 12.005248 2.448231 6.000000
-16.623253 12.108562 2.490550 31.000000
-16.202391 12.037348 2.444384 36.000000
-16.328772 12.371769 2.480932 47.000000
0.996687 12.414760 2.400878 10.000000
-15.768976 12.462515 2.434044 10.000000
1.116106 12.432199 2.406178 7.000000
-15.751990 12.570147 2.440536 7.000000
-12.823566 12.619290 2.498113 45.000000
1.533072 12.613249 2.449335 22.000000
-12.772593 12.648367 2.495913 67.000000
1.558806 12.714248 2.469272 32.666668
-15.561796 12.823592 2.441979 24.000000
1.720730 12.810982 2.491734 21.000000
1.838035 12.770869 2.487191 31.000000
-15.561167 12.905377 2.448231 7.000000
1.077490 12.912571 2.497791 4.000000
-16.045040 12.928276 2.495358 22.000000
-15.878527 13.001055 2.485260 32.000000
-15.691271 13.096690 2.475161 31.000000
3.902072 13.207026 2.405972 9.000000
1.511134 13.910226 2.444523 0.000000
1.604806 13.955260 2.454161 2.000000
-13.753125 14.681488 2.436208 7.000000
-13.696107 14.712999 2.434285 11.000000
-13.717234 14.828829 2.446307 40.000000
-13.678289 15.069181 2.464581 3.000000
-13.657474 15.141570 2.469390 6.000000
1.421410 15.322336 2.411918 4.000000
1.609280 15.260036 2.405104 2.000000
-13.763563 15.355906 2.497282 0.000000
16.986198 16.524124 2.450584 35.000000
16.885868 16.530090 2.443589 35.000000
16.373516 16.696667 2.418285 13.500000
17.060610 16.806437 2.476505 32.000000
17.329813 16.752750 2.492552 30.000000
16.768238 16.885696 2.460870 28.000000
16.343575 16.930202 2.433440 22.333334
7.535234 18.455320 2.414088 18.000000
8.495548 18.445200 2.459291 16.000000
8.594151 18.430113 2.462658 31.000000
7.193199 18.612589 2.416492 4.000000
7.397286 18.788721 2.445346 34.000000
-13.141445 19.786945 2.456344 0.000000
14.880142 24.130543 2.434412 19.500000
-13.321703 24.855274 2.421578 1.000000
7.243643 27.014784 2.401729 4.000000
6.645959 27.159792 2.401045 4.000000
7.018591 27.197620 2.411996 5.000000
6.228281 27.303572 2.404809 2.000000
7.223002 27.280119 2.423290 7.000000
7.603696 27.325422 2.435610 14.000000
5.927377 28.006271 2.458196 2.000000
6.022869 28.022579 2.461276 8.000000
-17.908493 30.366211 2.410772 5.000000
-18.094391 31.126755 2.462076 6.000000
-18.422829 31.350750 2.486637 9.000000
12.140671 32.944138 2.400948 17.000000
13.200502 33.222023 2.444611 7.000000
13.361247 33.321140 2.454981 3.000000
12.409719 33.350914 2.433422 9.000000
12.901196 33.382179 2.447340 14.000000
11.847019 33.436401 2.425781 6.000000
12.679876 33.432732 2.445157 48.000000
12.807675 33.452358 2.449523 13.000000
12.046124 33.662033 2.444884 15.000000
12.177588 33.695328 2.450069 21.000000
12.637936 33.640511 2.457437 19.000000
11.744045 33.819302 2.448159 7.000000
11.684443 33.991894 2.457983 6.000000
11.605876 34.111549 2.463987 3.000000
11.962515 34.102329 2.471355 8.000000
11.530492 34.242390 2.470809 3.000000
-14.490546 -26.087919 2.562575 16.000000
-14.813265 -25.896852 2.561890 4.000000
-14.712155 -25.908609 2.558468 3.000000
-14.050001 -25.866123 2.527668 3.000000
-13.913831 -25.808401 2.517743 5.000000
-10.520925 -22.655033 2.583070 33.000000
-10.564547 -22.379795 2.559206 32.000000
-11.681723 -21.722622 2.550566 47.000000
-11.765053 -21.659523 2.548920 1.000000
-11.974745 -21.087934 2.507775 30.000000
-14.916595 -19.687538 2.554269 3.000000
-8.831022 -18.783985 2.513633 17.500000
-8.609148 -18.847448 2.509305 0.000000
-8.914369 -18.731411 2.512190 16.000000
-9.135504 -18.664330 2.516518 6.000000
-8.972345 -18.626575 2.503774 9.500000
0.207555 -18.580572 2.580081 6.000000
1.318972 -18.582525 2.586683 24.000000
0.304727 -18.571287 2.578981 7.333333
1.429292 -18.490915 2.575130 7.000000
-10.831732 -18.395975 2.585286 1.000000
0.612535 -18.464602 2.565228 4.000000
3.130220 -18.428717 2.595485 11.000000
0.551431 -18.363470 2.550925 26.000000
2.962664 -18.311897 2.575680 16.500000
1.990084 -18.259657 2.550375 28.000000
2.393182 -18.227194 2.552575 13.000000
2.706545 -18.175270 2.551475 21.500000
3.034539 -18.211790 2.563578 23.000000
-4.432958 -18.102325 2.587783 1.000000
2.319801 -18.108868 2.534971 10.000000
3.483002 -18.086983 2.557526 3.000000
-4.355603 -18.031433 2.575680 4.000000
1.203342 -18.022564 2.508015 20.333334
2.591525 -17.983923 2.522869 45.000000
2.071628 -17.959475 2.510216 54.000000
2.239818 -17.931290 2.509115 56.000000
3.390055 -17.907087 2.530570 18.000000
3.690860 -17.948648 2.544323 20.000000
-3.827770 -17.794338 2.527270 20.000000
3.603020 -17.804825 2.522319 0.000000
3.727780 -17.843885 2.531121 37.000000
3.956870 -17.818840 2.534421 8.000000
-3.429706 -17.693733 2.502514 7.000000
-5.258615 -17.594799 2.549825 50.000000
3.764537 -17.649839 2.505815 19.666666
-5.420694 -17.533102 2.548174 6.000000
-5.275838 -17.386843 2.522869 37.666668
-5.415460 -17.323128 2.520118 26.000000
-6.757660 -16.998526 2.539922 14.000000
-6.823564 -16.931580 2.534696 12.500000
1.900538 -16.476255 2.599594 14.000000
1.224502 -16.285290 2.559746 22.333334
1.750607 -16.300091 2.569553 23.500000
2.603134 -16.251894 2.579773 6.000000
2.704502 -16.231272 2.579154 9.000000
2.861786 -16.156120 2.571721 15.750000
3.032960 -16.113482 2.569966 5.833333
-3.913933 -15.982847 2.579154 23.000000
0.797841 -16.054876 2.519537 10.500000
-3.962222 -15.962802 2.577915 13.000000
-5.744567 -15.541977 2.597116 23.750000
-5.962972 -15.278307 2.570637 23.750000
-5.872117 -15.329368 2.572960 14.000000
-5.750199 -15.225628 2.550972 28.000000
2.070865 -10.809780 2.528080 6.500000
7.714036 -10.794742 2.557605 0.000000
7.871552 -10.870127 2.587133 1.000000
7.914917 -10.858039 2.590162 0.000000
7.004947 -9.867854 2.554135 1.000000
10.529244 -9.791229 2.511987 1.000000
10.713202 -9.775620 2.533786 9.666667
10.778338 -9.711676 2.534704 17.000000
15.368189 -9.715366 2.524519 1.000000
10.851313 -9.624105 2.534016 1.000000
15.358368 -9.641758 2.517917 2.000000
15.489303 -9.566361 2.527820 30.666666
15.648852 -9.518333 2.543223 5.500000
13.674231 -8.346786 2.511021 45.000000
14.074929 -7.937288 2.532699 14.000000
14.228148 -7.906282 2.551281 8.000000
14.478589 -7.926795 2.587206 17.000000
14.270219 -7.871087 2.554378 15.000000
14.395782 -7.822779 2.568005 1.000000
-19.573032 -7.439007 2.535753 5.000000
-14.493752 -7.416829 2.551901 0.000000
-13.157470 -6.680938 2.578074 1.000000
-15.040675 -6.596131 2.574199 0.000000
-13.108013 -6.604113 2.564306 2.000000
8.847547 -6.577958 2.532333 5.000000
-12.952470 -6.474811 2.529885 2.000000
-12.792657 -6.546335 2.510610 0.000000
8.824170 -6.475001 2.513976 10.000000
-12.902150 -6.399068 2.516117 2.000000
8.791267 -6.450742 2.504574 7.000000
-12.887943 -6.316462 2.507512 13.000000
8.888180 -6.309439 2.503678 32.500000
-13.163818 -6.197163 2.541932 19.500000
-13.093554 -6.239694 2.534016 32.000000
9.022161 -6.227124 2.518006 31.799999
-13.303282 -6.135690 2.559487 5.000000
14.959558 -6.056205 2.529603 28.000000
-15.009534 -5.701587 2.516595 11.000000
-13.576556 -5.751726 2.576008 0.000000
13.706875 -5.524044 2.581860 24.000000
17.153671 -5.510754 2.501689 23.000000
13.738268 -5.461567 2.582892 0.000000
13.451069 -5.298516 2.525755 0.000000
13.864687 -5.311052 2.593907 11.000000
13.536496 -5.258553 2.537113 21.500000
13.564480 -5.147245 2.534704 35.000000
13.911846 -5.129592 2.590465 11.000000
13.839062 -5.053425 2.573943 46.000000
17.627546 -4.759587 2.535246 8.500000
17.571293 -4.655663 2.523969 24.000000
17.641264 -4.496702 2.527820 22.000000
17.751362 -4.465421 2.541573 25.000000
17.589443 -4.336747 2.515442 36.500000
17.986767 -4.165802 2.563578 21.000000
18.038391 -4.118091 2.569079 30.000000
18.235102 -3.982563 2.591634 9.000000
-17.622799 -3.739408 2.501414 11.000000
16.073114 -3.722593 2.585967 14.000000
-17.676678 -3.577085 2.504164 49.000000
15.992269 -3.650970 2.571102 40.000000
16.142208 -3.578642 2.591542 36.000000
-16.186338 -3.487785 2.595258 64.000000
17.851971 -3.518564 2.526444 23.500000
-17.770325 -3.450974 2.513516 22.000000
-16.085112 -3.413124 2.577296 45.000000
16.102560 -3.463850 2.581631 3.000000
15.928375 -3.339170 2.550868 36.000000
16.041588 -3.292865 2.566766 36.000000
-17.885162 -3.269637 2.524519 3.000000
-10.720609 -3.242868 2.572628 0.000000
-10.629897 -3.179015 2.548451 0.000000
15.903847 -3.186597 2.542300 37.000000
-17.841957 -3.117196 2.514892 22.000000
-10.512723 -3.108022 2.518006 0.000000
-17.975616 -3.053255 2.531671 1.000000
-17.852087 -2.801949 2.509115 17.000000
-10.029826 -2.794716 2.584981 6.000000
-18.182766 -2.736903 2.553125 37.000000
-17.817724 -2.739224 2.503064 25.000000
-9.948726 -2.738468 2.561849 2.000000
-9.882357 -2.686831 2.542573 0.000000
-18.129217 -2.554441 2.542123 57.333332
-18.144979 -2.440400 2.542123 12.000000
-18.352520 -2.351011 2.569079 65.000000
-18.446993 -1.951937 2.575680 16.666666
-18.387995 -1.828887 2.565778 2.000000
-18.509579 -1.723601 2.581182 15.000000
-18.298998 -1.761992 2.552575 23.000000
-18.571358 -1.611720 2.588333 29.000000
-18.491226 -1.663308 2.577881 26.000000
15.888181 -1.524261 2.501730 12.000000
18.462368 -1.537350 2.572380 1.000000
14.412353 -1.306560 2.528279 39.666668
14.429469 -1.231949 2.530115 57.333332
16.410833 -1.072785 2.577709 28.000000
9.371817 -0.885910 2.515854 29.500000
9.437140 -0.891945 2.533412 10.500000
16.018764 -0.828295 2.514118 1.000000
9.483569 -0.761364 2.542706 1.000000
15.977543 -0.725561 2.506891 61.666668
15.988420 -0.625391 2.507924 49.000000
16.014002 -0.576013 2.511640 28.000000
16.540598 -0.421666 2.593400 21.333334
16.435925 -0.332804 2.576676 29.000000
-14.452747 -0.214472 2.525296 9.833333
16.185432 -0.175150 2.537035 19.000000
16.512363 -0.256434 2.588445 32.500000
-14.464437 -0.116130 2.527132 24.000000
15.996531 -0.072591 2.507304 76.000000
16.008078 -0.122937 2.509162 64.000000
-14.476553 -0.070749 2.529197 0.000000
16.000631 -0.022340 2.507924 59.000000
15.984650 0.078117 2.505446 72.000000
16.024334 0.027967 2.511640 52.000000
10.261733 0.586434 2.551890 14.333333
10.047188 0.923207 2.504984 3.333333
15.985964 0.970772 2.510246 25.250000
10.045157 1.045170 2.507393 0.500000
15.917596 1.280699 2.502969 6.000000
15.908754 1.431015 2.503588 2.000000
-15.830521 3.718844 2.548804 7.000000
-17.790464 3.826940 2.526720 53.000000
-17.689995 3.747215 2.510766 33.000000
15.909696 3.796094 2.563669 0.000000
-17.712551 3.868437 2.517367 22.000000
15.890010 3.844197 2.562430 0.000000
-17.869566 4.020527 2.543223 20.000000
-15.929933 4.060493 2.576676 3.000000
-17.971327 4.162227 2.561377 7.000000
-15.496218 4.262551 2.519073 10.000000
9.025891 4.474602 2.501128 7.000000
9.804134 4.995494 2.527408 9.500000
9.018940 5.238650 2.589479 5.333333
8.818507 5.480517 2.577753 7.000000
8.656059 5.666524 2.568596 8.500000
8.553345 5.845622 2.572130 55.666668
7.236816 6.044483 2.519985 13.000000
8.137530 6.050077 2.517513 23.000000
7.074903 6.139287 2.503461 10.000000
9.133001 6.354696 2.555615 61.000000
7.135897 6.431959 2.567493 42.000000
-17.076918 6.913399 2.558077 7.000000
-17.146811 7.004467 2.571830 21.000000
7.209729 7.052897 2.504020 29.000000
-17.248096 7.236265 2.597135 26.000000
9.463295 7.269363 2.518615 33.000000
9.338817 7.409819 2.516137 2.000000
7.936981 7.476817 2.504574 19.000000
9.298973 7.619202 2.537339 24.000000
9.023586 7.682389 2.501268 3.000000
12.452779 7.769270 2.564306 42.750000
12.394709 7.868971 2.564994 21.000000
11.901242 7.955161 2.500972 26.000000
8.441294 8.467854 2.523571 0.000000
8.431852 8.565351 2.536788 15.000000
11.448340 8.626943 2.504414 3.000000
11.508640 8.559544 2.505791 31.000000
8.426210 8.695217 2.555581 7.750000
10.159183 8.871792 2.600005 34.000000
9.463496 9.315999 2.559876 3.000000
9.623229 9.354915 2.587133 5.000000
1.760768 10.183161 2.565705 32.000000
1.812281 10.288454 2.593656 14.000000
8.535859 10.417648 2.596219 0.000000
7.668915 10.520480 2.509653 57.333332
8.390312 10.506701 2.591928 34.666668
7.596530 10.560019 2.507634 65.000000
7.570567 10.629301 2.515584 52.500000
1.857185 10.740778 2.503679 28.000000
1.700882 10.849457 2.522483 9.500000
9.049556 11.155348 2.509577 62.000000
9.153260 11.139348 2.518871 26.500000
9.006348 11.245845 2.517150 51.000000
2.483849 11.715751 2.527702 13.000000
2.519819 11.704063 2.526876 56.000000
2.446494 11.813536 2.546288 3.500000
1.572758 11.994813 2.553309 18.000000
2.292883 12.019665 2.582634 6.000000
5.009066 11.986267 2.504227 8.000000
1.814805 12.027807 2.567352 46.000000
2.250158 12.105387 2.598742 39.000000
-17.468054 12.281307 2.585927 36.333332
-17.295557 12.268610 2.567973 2.000000
4.647960 12.242276 2.524291 2.000000
-16.934193 12.416664 2.542967 36.000000
4.556699 12.594405 2.581833 8.000000
4.713169 12.532541 2.581076 11.000000
-16.458612 12.633705 2.512671 17.000000
-16.368567 12.646502 2.504976 53.000000
-12.763669 12.719192 2.501964 43.000000
-17.191671 12.856332 2.599712 11.000000
-16.454517 12.878818 2.530464 30.000000
2.053297 12.833505 2.505363 18.000000
1.452597 12.970626 2.515963 14.000000
1.789328 13.011739 2.531862 22.000000
1.819798 12.932156 2.517477 37.000000
-16.789555 13.056206 2.575668 6.000000
-16.088717 13.088934 2.511709 0.000000
1.455914 13.062376 2.533629 12.500000
-12.943463 13.143800 2.561377 67.000000
1.351906 13.194732 2.556848 13.000000
-13.199247 13.236153 2.595485 50.000000
-13.160385 13.280371 2.596035 47.000000
1.320925 13.304441 2.577291 15.000000
2.161303 13.241764 2.586376 34.000000
-13.068108 13.396070 2.598511 47.000000
1.227803 13.363216 2.586881 5.000000
-12.984207 13.436146 2.594385 44.000000
-12.891270 13.508831 2.592734 42.666668
-12.350759 13.611432 2.552025 16.000000
-12.241603 13.576607 2.538272 18.000000
-16.315947 13.705264 2.580477 10.000000
-12.272923 13.697618 2.553676 11.000000
-5.603034 13.702470 2.586334 2.000000
-16.278870 13.761587 2.581439 4.000000
-11.898696 13.794509 2.529470 6.000000
-5.676113 13.757648 2.600102 0.000000
-5.571800 13.749218 2.591842 0.000000
4.479374 14.018837 2.571189 1.000000
7.699256 14.010679 2.505756 55.000000
7.810266 14.003424 2.513188 43.500000
4.443623 14.059140 2.576008 13.000000
7.626096 14.086594 2.510711 44.500000
-12.037856 14.134428 2.577881 15.000000
7.597896 14.193802 2.523408 14.000000
-12.032956 14.309855 2.596035 1.000000
-11.975235 14.332389 2.593284 1.000000
-10.819166 14.690933 2.533321 7.000000
-10.668162 14.629704 2.514067 8.000000
-10.478891 14.756145 2.512966 3.000000
-10.466742 14.837553 2.521218 4.000000
-10.963826 15.134802 2.594935 1.000000
-10.037176 15.755213 2.593835 1.000000
-19.252464 15.864861 2.579778 26.000000
-19.217836 15.937971 2.581836 0.000000
7.578505 16.583467 2.531671 4.000000
7.711037 16.688232 2.552575 24.000000
7.509019 16.921070 2.570454 76.500000
-17.950113 17.547392 2.595825 5.000000
-13.271963 20.258520 2.504483 9.000000
-12.712070 20.801208 2.520941 4.000000
-17.735790 24.474035 2.595428 10.000000
-15.147073 25.591908 2.553677 2.000000
-14.661282 25.777081 2.546490 1.000000
9.633519 28.025433 2.544779 1.000000
9.172348 28.112673 2.539303 1.000000
7.120576 28.327274 2.508161 12.000000
9.058572 28.367165 2.557099 9.000000
9.354226 28.367582 2.564970 4.000000
6.816658 28.635502 2.527668 39.000000
7.142839 28.798206 2.547859 46.000000
7.317740 28.729586 2.545806 21.000000
6.604886 29.379910 2.585846 5.000000
6.731720 29.510550 2.599193 3.000000
-11.867790 -22.691338 2.648079 1.000000
-11.434795 -22.725672 2.630798 5.000000
-12.114908 -22.641628 2.655485 3.000000
-11.966162 -22.619328 2.646227 13.500000
-13.190750 -22.402391 2.688401 4.000000
-13.037975 -22.302891 2.671531 8.000000
1.672693 -19.273951 2.686255 16.000000
-10.819882 -19.054182 2.653573 7.000000
1.589352 -19.006683 2.648297 0.000000
1.836424 -19.071974 2.660400 4.000000
-2.368341 -18.773643 2.627392 4.500000
-2.282228 -18.804287 2.630143 24.000000
-10.948238 -18.728167 2.627123 3.000000
-4.344590 -18.758730 2.673603 0.000000
-2.528444 -18.700783 2.620240 1.000000
1.509619 -18.762781 2.613639 13.000000
1.745273 -18.742329 2.613639 19.000000
-5.210527 -18.487488 2.667001 15.000000
-5.229459 -18.333866 2.647197 8.000000
-5.254070 -18.203148 2.630693 0.000000
-4.955033 -18.237549 2.624091 25.000000
-7.305623 -17.884033 2.682405 2.000000
-7.264269 -17.943619 2.687906 13.000000
-7.184258 -17.907520 2.679104 2.000000
-6.708319 -17.932623 2.658474 18.500000
-6.998346 -17.820663 2.658382 19.333334
-6.845402 -17.870163 2.657099 3.000000
-6.263988 -17.847191 2.626292 8.000000
-6.981575 -17.723755 2.644996 22.000000
-6.764337 -17.493814 2.604287 25.000000
1.379582 -17.146570 2.696219 6.000000
-2.659491 -16.983152 2.694361 8.000000
1.552337 -16.959162 2.669276 36.500000
1.702446 -16.936146 2.667934 17.000000
-3.346832 -16.841028 2.691264 27.000000
1.621089 -16.835636 2.651004 28.000000
-4.306160 -16.674690 2.699316 5.000000
-3.708650 -16.728638 2.685689 24.000000
-2.753321 -16.721916 2.656268 10.000000
-2.676662 -16.748386 2.658436 15.000000
-3.555725 -16.656742 2.669585 8.500000
-3.258277 -16.669176 2.662153 17.000000
-3.088767 -16.633093 2.651623 22.000000
1.974154 -16.654646 2.628705 25.000000
2.078760 -16.641912 2.628705 14.000000
-4.323517 -16.527271 2.677637 2.000000
-3.944396 -16.556839 2.667727 23.000000
-3.597897 -16.473814 2.642951 15.000000
-3.130001 -16.565060 2.642332 26.000000
-2.963284 -16.535479 2.633041 6.000000
2.016917 -16.569904 2.616318 26.000000
3.027383 -16.560019 2.638616 24.000000
2.237095 -16.437908 2.600213 4.000000
-5.076904 -16.330208 2.680425 9.500000
-4.342326 -16.285221 2.641713 19.500000
-3.840849 -16.349869 2.632422 20.000000
-3.762892 -16.363911 2.631802 25.000000
-3.339646 -16.334482 2.613221 7.500000
-2.877767 -16.354000 2.602691 0.000000
-5.754145 -15.913007 2.652242 47.000000
-4.938437 -14.285524 2.640718 27.500000
-5.017134 -14.246939 2.638883 17.000000
8.072137 -11.000955 2.630290 3.000000
10.871496 -10.799616 2.677204 3.500000
10.913847 -10.739995 2.675138 0.000000
11.057262 -10.711527 2.689595 0.000000
-14.206149 -9.113183 2.645429 5.000000
-14.439343 -8.883145 2.657197 3.000000
9.142949 -8.944063 2.699519 31.000000
9.157434 -8.846299 2.687335 25.750000
10.413813 -8.837860 2.632940 6.000000
10.411789 -8.752023 2.621962 2.000000
12.546621 -8.112041 2.610256 7.250000
17.156364 -8.168469 2.638395 18.000000
17.285837 -8.163597 2.654348 14.000000
12.656279 -8.000968 2.615936 0.000000
12.755657 -7.979839 2.628671 0.500000
-15.014529 -7.922959 2.660914 1.000000
-14.916289 -7.931133 2.647907 1.000000
-14.716885 -7.914308 2.619105 3.000000
13.273900 -7.875200 2.696479 1.000000
13.130708 -7.846124 2.672385 0.000000
-13.389437 -7.173335 2.653798 1.000000
-13.210658 -7.238616 2.631769 0.000000
-13.490692 -7.091769 2.662747 17.000000
-18.004026 -6.839088 2.674153 1.000000
8.807186 -6.377683 2.699677 19.000000
8.851427 -6.304318 2.697990 4.250000
-15.559482 -6.248560 2.628086 2.000000
15.595884 -6.200051 2.630563 5.000000
-15.639329 -6.138419 2.633351 5.500000
15.953024 -6.111018 2.677637 25.000000
-16.026442 -5.858499 2.674541 20.000000
-14.061020 -5.853083 2.660912 0.333333
14.053600 -5.257150 2.621443 12.000000
16.421045 -5.190141 2.699316 20.000000
14.151310 -5.117116 2.629015 12.000000
16.678516 -4.307146 2.699936 18.000000
18.232010 -4.282993 2.600436 30.000000
16.554110 -4.219590 2.677637 41.000000
-12.096020 -4.120180 2.697041 5.000000
16.398661 -4.125144 2.650384 37.000000
16.657700 -4.106950 2.689096 26.500000
18.294758 -4.116193 2.603737 38.000000
18.551287 -4.112721 2.638395 0.000000
-11.953140 -4.029644 2.662347 8.000000
16.486748 -3.982474 2.658436 42.000000
-11.839510 -3.949961 2.634262 2.000000
-19.051830 -3.668804 2.693957 5.000000
16.184862 -3.641481 2.600213 33.000000
16.381157 -3.577659 2.628086 57.000000
-16.210165 -3.564044 2.601452 35.666668
18.566202 -3.508120 2.623541 13.000000
-16.773518 -3.421733 2.683212 45.000000
-16.258221 -3.396519 2.603310 55.000000
-11.095126 -3.470621 2.670232 1.000000
-10.971898 -3.394272 2.637996 0.000000
-16.768309 -3.294662 2.678505 40.200001
-19.144022 -3.128097 2.693407 3.000000
-16.803831 -3.153856 2.679805 40.000000
-19.139736 -3.003958 2.690106 22.500000
-16.793259 -3.070024 2.675779 29.000000
-10.121880 -2.854666 2.611005 1.000000
-18.755711 -2.762918 2.632343 90.000000
-9.711429 -2.591354 2.686263 22.000000
-9.592721 -2.511234 2.650116 19.000000
-18.604309 -2.442702 2.605387 87.000000
-9.443466 -2.424765 2.605706 1.000000
-19.176491 -2.273082 2.681304 61.000000
-19.023735 -2.315598 2.660950 56.000000
-18.878763 -2.358169 2.641695 47.000000
-9.549088 -2.229174 2.620682 25.500000
-9.526729 -2.145194 2.609837 1.000000
17.126766 -1.806141 2.699316 22.000000
18.681221 -1.673828 2.604287 2.000000
16.763624 -1.025308 2.632422 37.000000
16.695749 -0.968518 2.621273 34.000000
16.757898 -0.919309 2.630563 15.000000
15.228375 0.170110 2.660682 32.000000
15.330743 0.171166 2.678581 71.000000
10.002728 1.024860 2.687296 22.000000
-16.831947 3.510246 2.694980 6.000000
-16.770926 3.607625 2.688787 1.000000
-16.424047 4.296513 2.660914 15.000000
-18.293932 4.663069 2.621341 53.000000
-18.689659 4.826516 2.680204 28.000000
-18.593857 4.926601 2.670852 1.000000
9.323716 5.030805 2.630281 0.000000
9.027077 5.357755 2.606185 17.000000
8.460270 5.519346 2.699689 13.500000
-13.917549 6.626406 2.693037 14.000000
9.413140 6.593600 2.639787 1.000000
9.083756 6.919712 2.622901 43.571430
9.360569 7.005148 2.685455 9.000000
9.020426 7.042487 2.628594 13.000000
9.113678 7.046392 2.646055 34.000000
-17.344221 7.180644 2.606488 34.500000
-17.333464 7.400501 2.616940 82.000000
7.870384 7.367553 2.676545 3.000000
7.953183 7.398318 2.696785 19.000000
-17.612032 7.454112 2.655448 97.000000
-17.482855 7.594508 2.646646 35.000000
-17.321722 7.621786 2.627667 49.000000
11.739250 7.632300 2.699189 32.000000
-17.271193 7.827294 2.632893 38.000000
-17.557394 7.857477 2.670852 62.500000
-17.275347 7.894686 2.637294 41.000000
8.613129 7.911859 2.686350 1.000000
12.810136 7.880847 2.627639 3.000000
-17.084038 7.937337 2.615656 44.000000
11.333426 7.938699 2.667390 13.000000
-17.181940 8.114532 2.638395 61.000000
10.112065 8.943254 2.602276 40.000000
10.225670 8.986632 2.624233 17.000000
10.415425 9.038046 2.658304 23.000000
8.252442 9.155635 2.601550 51.400002
8.414009 9.130852 2.620632 32.500000
8.182988 9.252439 2.607002 58.000000
8.202969 9.333958 2.622697 25.000000
10.250883 9.337365 2.672942 29.666666
2.062633 9.580523 2.619132 2.000000
1.976446 9.697277 2.644952 20.500000
2.011871 9.638688 2.631526 13.000000
8.363552 9.653468 2.695802 32.500000
1.728902 9.815106 2.663542 5.000000
1.820999 9.796271 2.663025 29.500000
1.927804 9.772063 2.661993 17.000000
1.642931 9.870973 2.674386 17.500000
1.833428 9.898292 2.690394 33.200001
3.911734 10.111202 2.691645 10.333333
4.014516 10.093160 2.696785 0.000000
3.773916 10.180571 2.695661 18.666666
2.837374 10.308047 2.654377 10.000000
6.959068 10.267777 2.617989 38.900002
7.063627 10.266107 2.630132 27.333334
1.688481 10.344897 2.602330 5.000000
2.753033 10.383114 2.666906 17.000000
1.761310 10.480385 2.638474 20.500000
1.887093 10.519622 2.653413 14.000000
2.698965 10.498283 2.691195 24.600000
2.813827 10.479395 2.693893 14.000000
1.590097 10.576444 2.655340 0.000000
2.584560 10.546277 2.695821 46.000000
8.362303 10.607531 2.603790 24.000000
8.629557 10.599755 2.634833 103.000000
1.657901 10.628860 2.670762 33.500000
8.330621 10.691200 2.612725 29.200001
8.672791 10.721478 2.658304 110.000000
8.253395 10.814560 2.622466 14.000000
8.173738 10.886389 2.624233 6.000000
2.616029 11.254245 2.653935 38.799999
2.958579 11.265579 2.675381 1.750000
3.731458 12.061846 2.664825 0.000000
1.950184 12.189028 2.605350 12.000000
2.111867 12.213695 2.616089 15.000000
3.447349 12.223378 2.680520 0.000000
2.245868 12.297201 2.638392 1.000000
2.239703 12.485253 2.677216 31.000000
-5.366714 12.898817 2.693132 0.500000
-5.249679 12.902432 2.685183 0.500000
-17.268581 12.998644 2.617506 34.000000
3.647714 13.091105 2.619690 18.000000
-17.224463 13.135777 2.623276 45.000000
-17.145308 13.160815 2.617506 30.000000
-12.841752 13.670346 2.604287 59.000000
0.971180 13.716502 2.650733 0.000000
1.056438 13.698381 2.648461 0.000000
1.749350 13.674750 2.657547 11.000000
-12.801520 13.756806 2.609238 57.000000
0.843548 13.752488 2.656033 0.000000
0.929940 13.746917 2.656033 2.000000
13.073008 13.795352 2.638945 51.000000
-12.753965 13.835920 2.612814 45.000000
1.593103 13.832220 2.684047 9.000000
13.237864 13.838035 2.659024 7.500000
-12.746105 13.958767 2.624642 23.000000
16.612820 14.153624 2.642993 25.000000
16.501125 14.283645 2.642993 68.500000
-12.722802 14.563888 2.685155 3.000000
7.228329 15.120434 2.626847 43.500000
7.100312 15.157660 2.623544 43.666668
-9.357086 16.579084 2.643346 6.000000
-9.693090 16.802458 2.693407 9.000000
-9.583408 16.856142 2.692307 4.000000
7.730801 17.058281 2.600436 28.000000
7.742137 17.227036 2.622441 45.000000
7.592154 17.328268 2.626842 58.000000
7.613450 17.526463 2.653248 36.000000
19.516577 23.734499 2.638663 44.666668
19.693855 23.746649 2.649157 1.000000
-17.995993 24.427002 2.605353 5.500000
6.944120 24.507322 2.634089 34.500000
7.062841 24.485826 2.635324 29.000000
-17.920626 24.566307 2.611171 12.000000
6.804776 24.604177 2.639850 40.000000
7.175402 24.585741 2.648490 13.000000
6.730532 24.789576 2.656308 0.000000
-17.942877 24.924234 2.637180 3.000000
-17.887674 25.012894 2.640602 12.000000
-17.919785 25.224920 2.657028 7.000000
-17.925474 25.401569 2.669691 16.000000
-17.790688 25.379435 2.661478 13.000000
-17.760963 25.507156 2.669006 19.000000
-17.859844 25.821766 2.696042 9.000000
-15.672723 26.767010 2.663531 8.000000
-15.027081 26.810825 2.639233 4.000000
-15.378154 26.840912 2.656344 12.000000
-15.272086 26.850981 2.652580 4.000000
-14.744998 26.898838 2.634099 4.000000
-15.704726 27.015949 2.683380 17.000000
-15.587909 27.009922 2.677904 23.000000
-15.002849 26.965862 2.649842 5.000000
-14.583271 27.004980 2.635468 1.000000
9.392497 29.097094 2.625544 2.000000
3.360470 30.101538 2.600904 5.000000
3.456383 30.102709 2.601930 2.000000
3.743873 30.100435 2.604668 3.000000
6.292985 30.201815 2.649157 9.000000
3.965478 30.325274 2.626228 2.000000
6.165270 30.303349 2.655488 12.500000
5.665874 30.540569 2.667295 2.000000
17.105766 34.809505 2.652286 2.000000
16.871078 34.883961 2.649830 20.000000
17.003319 34.877419 2.653377 20.000000
16.883074 35.475742 2.686671 2.000000
17.032415 35.501678 2.692674 27.000000
16.067831 35.769241 2.681486 30.000000
-5.357533 -31.946629 2.781598 6.500000
-5.061830 -31.708347 2.757300 5.000000
-7.946706 -30.794127 2.730949 14.000000
-7.852874 -30.830524 2.731976 8.000000
-7.756949 -30.858912 2.732318 2.000000
-8.030301 -30.718885 2.726500 3.000000
-10.580268 -24.793093 2.787560 0.000000
-11.315836 -24.167709 2.759581 33.000000
-12.463585 -23.470234 2.748061 0.000000
-12.713595 -23.231485 2.738597 11.000000
-12.623456 -23.239847 2.734894 44.000000
-17.038914 -20.677208 2.770690 3.000000
-16.408997 -20.430569 2.709796 1.000000
1.919207 -19.931711 2.780327 5.000000
3.600990 -19.524206 2.756671 9.000000
3.744471 -19.444771 2.749520 3.000000
2.843749 -19.304466 2.709361 0.000000
-5.915719 -19.134247 2.780877 13.000000
-5.832414 -19.076960 2.769874 17.000000
-5.613067 -18.998095 2.750620 13.000000
1.093514 -17.776951 2.791606 47.000000
1.152162 -17.816805 2.798419 29.000000
0.969814 -17.566454 2.757539 32.000000
0.578852 -17.449245 2.736480 13.000000
2.006501 -17.394875 2.744532 1.000000
-4.683204 -17.237051 2.799658 73.000000
0.517862 -17.245579 2.704271 6.000000
1.494120 -17.216303 2.708607 73.000000
2.448408 -17.246378 2.730286 23.000000
-3.123740 -17.120888 2.727808 20.000000
-4.117017 -17.043732 2.748248 41.000000
-4.940770 -16.918037 2.762494 19.500000
-3.801957 -16.898108 2.714801 22.000000
-3.259601 -16.958740 2.706749 64.000000
-4.924180 -16.861219 2.753203 18.000000
-4.774491 -16.805622 2.738338 16.333334
-4.646659 -16.823650 2.735654 24.666666
-4.253709 -16.798212 2.716040 12.000000
-5.902613 -16.485353 2.744532 10.000000
-5.324796 -16.485882 2.715420 12.000000
-5.265760 -16.479944 2.711704 47.000000
-6.962405 -16.027737 2.738957 6.000000
-6.888571 -15.995089 2.729666 6.000000
-6.717158 -16.010641 2.721408 18.333334
-6.569989 -16.011135 2.712633 12.500000
-6.429988 -15.998441 2.702537 26.000000
-6.969906 -15.908055 2.722234 1.000000
-6.818119 -15.969403 2.721614 5.000000
2.070960 -10.810227 2.732687 7.250000
7.534058 -10.369615 2.705302 0.500000
10.236027 -10.076489 2.768846 9.000000
10.368709 -10.143159 2.796103 37.000000
9.954333 -10.017078 2.722282 8.500000
10.135468 -10.072012 2.754460 19.000000
10.195770 -9.808023 2.727203 36.000000
10.254169 -9.843708 2.740075 19.000000
10.424777 -9.697478 2.744617 43.000000
7.255010 -9.631219 2.769627 0.000000
7.487481 -9.436696 2.766941 1.000000
7.186342 -9.355277 2.709632 0.000000
11.133316 -8.607910 2.712818 1.000000
11.207026 -8.608781 2.724175 0.000000
-13.502192 -8.394590 2.777711 0.000000
-15.326897 -8.335686 2.734622 1.000000
-13.748871 -8.163484 2.793544 23.000000
-13.696381 -8.074222 2.777711 27.000000
-13.436023 -7.863966 2.719885 3.000000
12.152169 -7.792769 2.782853 24.000000
13.374117 -7.821419 2.706805 6.000000
12.149588 -7.683619 2.771117 25.000000
-14.053378 -7.585962 2.790102 0.000000
13.522750 -7.644477 2.713919 14.666667
13.635890 -7.577177 2.725392 12.000000
15.941738 -7.590163 2.767449 1.000000
13.845147 -7.523540 2.752928 14.666667
16.023798 -7.536811 2.775501 14.500000
14.065105 -7.472253 2.782530 16.000000
15.994646 -7.431253 2.764353 14.000000
16.051014 -7.365685 2.768069 3.500000
8.839574 -6.615253 2.741121 20.000000
8.801120 -6.543440 2.722808 36.000000
8.790376 -6.450127 2.706905 39.000000
9.034719 -6.244278 2.726664 23.000000
-12.949846 -6.168437 2.765060 10.000000
16.664392 -5.324696 2.742054 12.000000
16.489174 -5.135742 2.706955 24.666666
16.925135 -5.145473 2.772714 38.500000
16.873779 -5.014318 2.759088 24.500000
17.028126 -4.972919 2.780457 1.000000
-12.376725 -4.302764 2.765603 3.000000
-12.249551 -4.215468 2.734213 4.000000
-19.063375 -4.107720 2.707710 47.000000
-19.146984 -4.000013 2.715962 2.000000
16.918192 -4.030482 2.725950 13.000000
17.316616 -4.010592 2.786031 7.000000
-19.102421 -3.740817 2.702759 6.000000
17.215214 -3.703195 2.760017 24.000000
-11.303326 -3.613873 2.725750 0.000000
-11.217980 -3.547783 2.702468 1.000000
-19.335800 -3.440809 2.726964 6.000000
17.465927 -3.300221 2.786031 22.000000
-10.772289 -3.258500 2.794132 0.000000
17.270287 -3.207095 2.753203 37.000000
-17.211224 -3.090582 2.740816 20.000000
17.394066 -3.145372 2.770546 40.000000
-17.221691 -3.008720 2.740196 21.000000
17.417389 -3.036645 2.771166 26.500000
-17.336987 -2.944780 2.756300 2.000000
17.521132 -2.969770 2.785412 25.000000
-10.036025 -2.796443 2.784377 6.000000
-9.951615 -2.739263 2.758558 11.000000
-9.852030 -2.678586 2.728607 14.000000
-19.397575 -2.608867 2.717613 33.000000
-19.442379 -2.180811 2.716512 17.000000
-19.333099 -2.230082 2.702209 52.000000
-19.849699 -2.100296 2.771525 1.000000
15.755291 -1.636508 2.767385 41.500000
14.092695 -1.488663 2.731746 4.000000
15.731380 -1.519238 2.761189 54.000000
14.234892 -1.390699 2.757110 55.000000
15.820784 -1.317387 2.773580 0.000000
15.967849 -0.976636 2.794921 38.000000
15.942142 -0.874550 2.789414 54.000000
-14.401918 -0.158462 2.776417 13.333333
15.949702 -0.147543 2.786660 78.500000
16.017223 -0.072684 2.798363 50.000000
-14.462646 -0.034025 2.787963 22.750000
15.463725 0.318626 2.702216 13.000000
15.479731 0.464857 2.705658 64.000000
15.553998 0.564903 2.719196 59.000000
10.094677 0.778515 2.705886 8.000000
10.288251 0.728447 2.756492 36.000000
10.071491 0.872286 2.701755 19.000000
15.856323 1.183846 2.777940 23.666668
15.942668 1.585670 2.799051 13.000000
-19.932156 2.292125 2.785828 14.000000
-19.939695 2.568427 2.791512 31.000000
-19.814730 2.657932 2.775926 5.000000
-19.856800 3.237439 2.793530 31.000000
-19.783998 3.289414 2.784728 32.000000
-19.308720 3.272757 2.719263 25.000000
-16.998838 3.322714 2.714801 3.000000
-16.948103 3.395757 2.709227 9.000000
-17.113245 3.775114 2.746803 21.666666
-17.051743 3.892840 2.741435 58.000000
-19.082443 3.979579 2.706610 4.000000
-17.244194 4.051040 2.776431 9.000000
-15.426171 4.180786 2.792305 27.600000
-17.209297 4.271625 2.779218 21.000000
-15.099168 4.229935 2.739504 45.000000
-15.088551 4.303780 2.741225 56.000000
-17.211666 4.348833 2.782521 32.000000
-17.080269 4.410899 2.764972 53.000000
-14.977951 4.374181 2.726080 45.666668
9.435164 4.367711 2.778697 8.500000
-19.107548 4.488670 2.725314 15.000000
-15.039389 4.520621 2.743635 69.500000
9.412832 4.447416 2.782312 10.000000
-19.093349 4.548682 2.725314 1.000000
-15.041656 4.650442 2.750633 66.333336
-15.037189 4.804810 2.757977 50.666668
-15.046720 4.912214 2.765319 62.000000
9.262874 4.885826 2.798836 0.000000
-15.053666 4.966866 2.769450 39.000000
-15.098008 5.087004 2.783448 40.333332
8.934706 5.059159 2.744099 5.000000
-19.029221 5.266511 2.741543 17.500000
8.987448 5.277115 2.785410 12.500000
8.511819 5.804193 2.753394 58.000000
-14.678020 5.870735 2.761877 18.000000
-14.565639 5.896735 2.745356 35.000000
8.468774 5.853179 2.751328 55.000000
-14.483300 5.996196 2.738644 56.000000
8.253562 5.976779 2.723443 1.000000
-14.415614 6.154751 2.738472 67.333336
8.156054 6.224504 2.742033 11.000000
-14.427310 6.267187 2.748109 47.000000
8.277185 6.275897 2.776115 15.000000
-14.465297 6.337779 2.759124 12.000000
9.097057 6.372194 2.757506 62.000000
9.113844 6.341366 2.756542 11.000000
9.672749 6.820845 2.718586 13.000000
7.542593 6.972301 2.745131 24.000000
7.679083 7.009287 2.778697 24.500000
9.614692 6.962434 2.726646 0.000000
7.161952 7.214650 2.716902 31.000000
7.552379 7.204612 2.789541 1.000000
7.105108 7.232766 2.709673 22.000000
12.132066 7.356256 2.735027 24.666666
-18.214130 7.440467 2.731916 6.000000
8.133604 7.494852 2.745940 6.000000
-18.110317 7.598001 2.726965 1.000000
8.298303 7.539097 2.783529 32.750000
11.898454 7.682734 2.730232 18.000000
11.951818 7.824030 2.753703 4.000000
12.134134 7.781007 2.778689 34.000000
10.588074 7.975789 2.797819 22.000000
11.516289 8.012975 2.704489 19.000000
11.504233 8.112337 2.713575 3.000000
10.257439 8.191338 2.770560 23.000000
10.444057 8.153904 2.796580 6.000000
8.671214 8.271928 2.752614 1.000000
11.397609 8.308232 2.718875 10.000000
11.254572 8.422560 2.709789 15.000000
-17.799427 8.508944 2.739342 55.000000
-17.621840 8.526320 2.718163 57.000000
11.275114 8.493323 2.721146 4.000000
-17.755213 8.659792 2.742918 44.000000
-9.640566 8.662153 2.735452 0.000000
-17.723064 8.747744 2.744294 54.500000
10.963012 8.782986 2.707896 11.000000
11.015039 8.739807 2.710546 1.000000
-17.673044 8.861629 2.745119 42.000000
-17.697046 9.001605 2.756855 41.666668
9.480197 9.043653 2.765328 11.333333
-17.665863 9.137622 2.761622 22.000000
10.421186 9.393164 2.704489 44.000000
10.506233 9.410169 2.718875 8.000000
7.684235 9.438608 2.795595 26.000000
9.026964 9.492525 2.764777 14.500000
10.638433 9.468511 2.745375 16.000000
7.363661 9.561124 2.771955 20.600000
7.473716 9.541869 2.783954 66.000000
8.909092 9.547108 2.756104 10.000000
2.738166 9.806828 2.721205 24.166666
8.344769 9.739450 2.706954 53.000000
2.644614 9.849200 2.725509 23.000000
3.593807 9.836496 2.798836 8.000000
3.588528 10.322248 2.713170 16.000000
3.657090 10.258996 2.704014 18.500000
-16.469984 10.411888 2.705510 7.000000
3.507940 10.351947 2.713652 0.500000
3.445698 10.459091 2.733989 25.400000
7.646735 10.524796 2.745778 55.500000
2.603436 10.623533 2.715580 12.500000
3.390636 10.548064 2.750759 9.500000
7.571318 10.559922 2.742474 58.000000
9.265621 10.576536 2.710546 5.000000
-16.727787 10.722563 2.758872 4.000000
2.435894 10.712974 2.727628 21.666666
3.323241 10.662978 2.772927 4.333333
7.536431 10.652040 2.754039 47.000000
-16.763926 10.820180 2.770424 39.000000
1.985878 10.777851 2.720881 0.500000
2.417318 10.735083 2.731965 15.500000
3.208834 10.791224 2.795095 39.000000
-16.681051 10.990778 2.773725 38.000000
-16.588608 11.079961 2.769874 12.000000
-16.326300 11.128702 2.743468 3.000000
9.140762 11.155907 2.780203 39.000000
9.280852 11.147154 2.796103 49.000000
-16.597401 11.237282 2.783077 13.000000
2.766178 11.522026 2.721721 11.500000
2.813503 11.480476 2.715005 0.000000
2.617167 11.622745 2.736495 19.000000
-16.107864 11.660146 2.761072 41.000000
2.395297 11.720882 2.747838 22.000000
2.577388 11.791302 2.772314 28.000000
-16.099251 11.886744 2.778676 0.000000
-16.087265 11.956175 2.783077 1.000000
1.773951 12.056853 2.799177 48.000000
-12.720017 12.517390 2.797180 12.000000
-12.638507 12.515584 2.787889 65.000000
-12.604726 12.560802 2.789128 64.000000
2.083055 12.637290 2.703237 19.500000
2.230342 12.661823 2.713562 3.000000
-5.462914 12.901109 2.700704 2.000000
7.668575 14.006913 2.789872 57.666668
7.788599 13.964634 2.793544 52.500000
7.573854 14.095680 2.795609 45.000000
17.764078 14.565637 2.781971 55.000000
17.843615 14.537346 2.787261 38.000000
17.694811 14.676991 2.784087 62.799999
11.058878 16.114857 2.713762 4.000000
11.008196 16.149519 2.713762 26.000000
-10.628053 16.340784 2.706610 13.000000
