# This PCD file was generated using the MATLAB® pcwrite function
# from Computer Vision Toolbox®.
# .PCD v.7 - Point Cloud Data file format
VERSION .7
FIELDS x y z intensity
SIZE 4 4 4 4
TYPE F F F F
COUNT 1 1 1 1
WIDTH 1229
HEIGHT 1
VIEWPOINT 0 0 0 1 0 0 0
POINTS 1229
DATA ascii
3.786409 -10.252763 1.323612 94.599998
4.331340 -10.218869 1.344098 1.000000
-8.676582 -10.133875 1.379585 34.000000
3.545115 -10.185908 1.306108 0.000000
4.086143 -10.169728 1.327267 1.000000
9.011609 -10.022492 1.393780 23.500000
4.193080 -9.979819 1.310917 52.000000
-8.404930 -9.879252 1.341320 37.000000
2.142052 -9.646232 1.372009 20.000000
2.764821 -9.680323 1.397865 30.000000
2.994196 -9.566193 1.391814 18.000000
2.476988 -9.455162 1.357156 25.000000
2.594936 -9.478928 1.364583 5.000000
2.874888 -9.391604 1.363757 27.000000
3.186960 -9.447943 1.384479 17.666666
2.472133 -9.317131 1.338452 11.000000
3.753239 -9.345901 1.398415 6.000000
2.481858 -9.236619 1.327999 17.000000
2.736793 -9.251117 1.339552 21.000000
3.679908 -9.080700 1.360457 20.000000
3.727936 -9.076067 1.362382 4.500000
4.048802 -9.000590 1.370359 18.000000
4.411510 -9.000866 1.391814 10.500000
-9.317897 -8.839263 1.328154 6.000000
4.011590 -8.843501 1.348354 13.000000
3.976727 -8.693942 1.327449 15.000000
4.100936 -8.675452 1.332400 15.000000
4.147662 -8.633409 1.329925 11.250000
-7.290785 -8.515324 1.357563 12.000000
-7.187896 -8.341962 1.333519 19.000000
-6.814987 -8.323323 1.302742 3.000000
-6.776274 -8.329290 1.300337 0.000000
-8.042890 -8.262100 1.396356 27.666666
-7.893122 -8.253938 1.383051 34.500000
-7.553788 -8.229085 1.352755 72.000000
-7.177505 -8.224830 1.321977 0.000000
-7.343141 -8.101355 1.324141 70.000000
-7.446736 -8.010680 1.324542 65.333336
-7.222027 -8.068892 1.311398 52.000000
-8.250916 -7.976414 1.389783 22.500000
-8.107391 -7.961608 1.376078 34.500000
-8.452991 -7.843966 1.396516 37.000000
-8.236578 -7.813488 1.374876 40.000000
-10.265460 -7.738330 1.329388 20.333334
-10.124940 -7.732708 1.317456 45.000000
-10.091135 -7.757201 1.316222 48.000000
-9.947138 -7.696342 1.300587 46.000000
-7.962719 -7.697569 1.341213 33.000000
-8.689263 -7.593492 1.397478 50.000000
-7.608832 -7.638103 1.305627 3.000000
-8.825782 -7.424043 1.396676 47.666668
-8.683990 -7.445764 1.385295 49.166664
-7.824225 -7.469159 1.309955 48.000000
-6.192862 0.360331 1.309283 0.000000
-6.151372 0.669340 1.305979 7.000000
-5.507181 0.722015 1.378994 21.750000
-5.446612 0.714158 1.363814 36.000000
-6.225911 0.996115 1.330761 0.000000
-5.835405 0.924235 1.357055 16.500000
-5.288033 0.940047 1.333453 14.000000
-5.596942 1.076788 1.309148 0.000000
-5.321641 1.023823 1.345501 11.500000
-5.250610 1.044412 1.329116 3.000000
-5.685509 1.121621 1.331087 10.000000
-9.293030 1.575134 1.308745 0.000000
-6.438779 1.588721 1.399735 10.500000
-6.556564 1.738442 1.307574 0.000000
-9.679381 1.986894 1.372009 0.000000
-9.638185 2.010011 1.367058 0.000000
-4.066407 3.440032 1.322369 6.000000
-3.439239 3.457300 1.303370 11.666667
-3.517628 3.805348 1.384959 5.000000
-2.925880 3.935395 1.310599 30.000000
-3.014523 4.081337 1.356041 55.000000
-3.926532 4.142043 1.310939 35.000000
-3.916370 4.263500 1.329743 8.000000
-2.496433 4.507245 1.377041 11.666667
-4.375937 4.565685 1.334788 7.500000
-3.346679 4.531040 1.398511 2.000000
-2.830343 4.562365 1.332971 18.500000
-2.637929 4.549827 1.305743 4.250000
-2.436908 4.516383 1.371533 7.000000
-2.390775 4.601911 1.385992 21.000000
-3.378448 4.696418 1.328848 1.000000
-2.521490 4.630004 1.359225 6.250000
-4.233506 4.756597 1.343977 5.000000
-3.345904 4.728772 1.357691 20.500000
-4.044458 4.811464 1.326630 7.000000
-3.389073 4.903579 1.369143 44.000000
-3.233258 5.077155 1.382575 38.000000
-2.032512 5.040641 1.349356 2.000000
-3.510282 5.147810 1.315066 0.000000
-3.471760 5.143194 1.309696 14.000000
-2.201356 5.109035 1.381163 3.000000
-2.785585 5.221296 1.359293 13.500000
-3.078213 5.426176 1.316718 13.500000
-5.179280 5.565761 1.328276 1.000000
-2.832063 5.536720 1.312588 59.000000
-3.120767 5.849511 1.399323 7.500000
-3.082728 6.169685 1.329531 19.500000
-3.063472 6.278512 1.346692 28.333334
-3.031045 6.329105 1.352749 30.333334
-10.103650 8.650706 1.375470 49.000000
-10.091496 8.695390 1.377528 46.000000
-3.571436 8.734127 1.310212 3.333333
-3.545840 8.869856 1.326349 1.000000
-12.761010 9.142778 1.348021 16.500000
-12.751694 9.257889 1.353154 27.500000
-12.831333 9.439349 1.367870 12.000000
-12.754733 9.475958 1.364448 8.000000
-8.689701 9.943663 1.365596 0.000000
-8.561934 9.985850 1.360247 26.000000
-8.633176 10.037235 1.369093 20.000000
-8.632701 10.197361 1.381642 41.000000
-8.307483 10.131711 1.354898 1.000000
-8.245863 10.153728 1.352635 16.500000
-8.548330 10.214243 1.377363 43.400002
-8.258988 10.301624 1.365390 23.500000
-12.429240 10.360764 1.389499 48.599998
-11.014323 10.972111 1.335016 13.000000
-11.038353 11.100183 1.344257 25.000000
-10.399076 11.031372 1.301821 10.000000
-11.064702 11.267446 1.356063 20.500000
-10.573947 11.359029 1.332621 9.000000
-10.015271 12.136569 1.351215 24.666666
-9.058634 12.255454 1.308665 81.000000
-10.418297 12.385279 1.389772 57.000000
-10.343552 12.375142 1.384981 38.000000
-10.252679 12.584472 1.393879 20.000000
-10.210873 12.695227 1.399012 1.000000
-8.401810 18.208216 1.371307 23.000000
-8.485902 18.239624 1.375674 15.000000
-8.226557 18.279312 1.370762 18.000000
-8.333841 18.312498 1.375856 16.000000
-8.224380 18.428972 1.380040 2.000000
-8.065014 18.460054 1.377584 3.500000
-7.938633 18.486530 1.375810 2.000000
-18.301540 18.806747 1.337166 24.000000
1.518285 18.994913 1.303083 8.000000
2.091424 19.004591 1.307449 23.000000
3.024059 18.943342 1.311816 28.000000
-18.241625 19.042248 1.343680 43.000000
2.983034 19.071032 1.320003 28.000000
-19.133379 19.294350 1.384595 6.000000
-18.275503 19.258371 1.352840 33.000000
1.478153 19.254244 1.320548 0.000000
-19.028103 19.349615 1.382831 16.333334
-18.720024 19.358080 1.372178 39.000000
2.038186 19.359543 1.331191 1.000000
2.840253 19.350994 1.337468 4.000000
3.157967 19.390648 1.343472 6.000000
2.974473 19.415602 1.343199 16.000000
-17.863461 19.549276 1.349380 13.000000
1.656980 19.568083 1.342926 9.000000
-19.126211 19.654182 1.397419 9.000000
-17.831501 19.637829 1.351619 14.000000
1.754108 19.615734 1.346747 19.000000
-17.833941 19.764940 1.356504 41.000000
-17.865103 19.924965 1.363629 40.000000
-17.686594 19.977003 1.359558 39.000000
-17.828987 20.010824 1.365664 42.000000
-17.615835 20.023466 1.358947 12.000000
-17.496336 20.077614 1.357013 19.000000
1.858036 20.067099 1.378130 2.000000
-17.392397 20.149296 1.356301 14.000000
-17.349821 20.228090 1.357929 6.000000
-17.281008 20.276411 1.357522 8.000000
1.937427 20.231981 1.389864 3.000000
-17.054924 20.354109 1.353112 25.000000
-16.981449 20.439732 1.354062 53.000000
-17.374701 20.516567 1.369939 6.000000
-17.079918 20.690144 1.367089 44.000000
-17.062963 20.802389 1.370957 45.000000
-17.056667 20.995708 1.378387 37.000000
-17.089031 21.239283 1.389073 41.000000
-17.126993 21.423914 1.397623 2.000000
-16.880974 21.668957 1.399658 2.000000
5.412597 25.596035 1.333095 13.000000
5.105297 25.736481 1.336963 26.000000
4.972844 25.921057 1.344901 33.000000
5.273087 25.941114 1.348871 8.000000
4.918778 26.081799 1.352433 17.000000
5.079497 26.034697 1.351619 8.000000
4.847008 26.152117 1.355283 1.000000
4.714243 26.359013 1.364443 9.000000
4.554491 26.672806 1.378794 1.000000
4.065899 26.852657 1.383883 21.500000
4.197001 26.862837 1.385409 5.000000
4.300245 26.967869 1.391516 2.000000
13.876073 36.261860 1.303598 26.000000
14.000007 36.244194 1.304538 34.000000
13.791842 36.383778 1.306417 6.000000
-1.870767 -29.246208 1.493295 5.000000
-1.687659 -29.269350 1.493905 5.000000
3.657461 -29.197638 1.499401 17.000000
-3.521687 -29.101658 1.493702 2.000000
3.771342 -28.997812 1.490038 31.000000
-2.215245 -28.921656 1.478028 6.000000
2.793676 -28.907644 1.479860 31.000000
-2.934865 -28.793264 1.474771 11.000000
4.323292 -28.654093 1.476603 3.000000
6.174652 -28.607241 1.491259 1.000000
2.573184 -28.494934 1.457876 34.000000
6.821716 -28.546139 1.495534 2.000000
3.557658 -28.400906 1.458486 34.000000
4.730729 -28.330475 1.463575 12.000000
-2.518485 -28.219082 1.443627 1.000000
-2.385850 -28.234579 1.443830 32.500000
4.815017 -28.287905 1.462150 6.000000
5.255822 -28.193075 1.461336 3.000000
-2.685860 -28.099306 1.438334 9.000000
-2.070247 -28.191414 1.440370 18.000000
-1.886391 -28.104218 1.435281 32.000000
5.434375 -28.167341 1.461743 1.000000
6.168723 -28.150652 1.468461 1.000000
-3.128664 -28.069534 1.439148 9.000000
3.071169 -28.087938 1.439759 6.000000
6.245856 -28.080441 1.465814 0.000000
-2.583599 -27.956446 1.430599 30.000000
5.295235 -27.917383 1.447901 1.000000
3.578153 -27.854685 1.431006 6.000000
4.283703 -27.799400 1.433245 5.000000
-1.948623 -27.727551 1.416350 40.000000
3.299906 -27.756264 1.424289 6.000000
4.053623 -27.753103 1.429174 16.500000
3.907219 -27.661167 1.423475 28.000000
5.552655 -27.612663 1.435179 16.000000
-2.147824 -27.474388 1.404238 11.500000
2.480849 -27.472425 1.405561 3.000000
2.562683 -27.416767 1.403119 12.000000
2.830373 -27.482796 1.407801 1.000000
6.357436 -27.362720 1.431413 1.000000
-11.607711 -26.978729 1.496552 6.000000
6.175122 -26.962006 1.409429 2.000000
-11.444537 -26.831335 1.486374 5.000000
6.411317 -26.828787 1.405561 23.000000
-11.178439 -26.670603 1.473550 10.000000
-11.120599 -26.300526 1.455026 10.000000
-13.629163 -26.070190 1.498994 8.000000
-13.486490 -25.995859 1.492277 8.000000
-13.255645 -25.948458 1.484745 4.000000
-13.599284 -25.815182 1.486781 13.000000
-11.468113 -25.757797 1.436706 3.000000
-10.969641 -25.717957 1.424696 7.000000
-13.221904 -25.682922 1.471921 11.000000
-13.016923 -25.679974 1.467036 3.000000
-11.136245 -25.441429 1.415129 6.000000
-13.956169 -25.136190 1.465000 2.000000
-14.198807 -24.953943 1.462965 8.666667
-14.062837 -24.957520 1.459708 14.000000
-14.315375 -24.855026 1.461540 7.000000
-13.847857 -24.757521 1.445459 5.000000
-14.529825 -24.598095 1.455738 10.500000
-14.269101 -24.595695 1.448919 6.000000
-14.669200 -24.568794 1.458079 2.000000
-13.105564 -24.503351 1.415943 13.000000
-13.093410 -24.296776 1.406376 12.000000
-9.526688 -19.698120 1.496294 16.000000
9.308327 -19.524080 1.479102 18.000000
9.722868 -19.441532 1.486470 22.000000
8.886445 -19.338203 1.455360 25.500000
9.066836 -19.329273 1.459999 22.000000
9.124105 -19.293480 1.459453 34.000000
9.364693 -19.328739 1.468732 52.000000
9.351816 -19.148615 1.457270 60.000000
9.643789 -19.132933 1.465184 56.000000
9.736383 -19.166584 1.470096 9.000000
10.149231 -19.043875 1.475690 22.500000
11.039866 -18.854679 1.494111 9.000000
10.012073 -18.540133 1.440896 35.000000
11.166463 -18.272083 1.464365 4.000000
11.630216 -18.122877 1.472552 4.000000
11.861733 -18.105930 1.480193 10.000000
9.939419 -17.997801 1.405965 46.000000
10.478717 -17.768051 1.410604 82.000000
10.925757 -17.628309 1.418246 22.000000
11.106380 -17.670815 1.427251 4.000000
10.905020 -17.472025 1.408421 20.000000
-1.860088 -13.885258 1.448708 14.000000
2.140044 -13.619372 1.425667 2.000000
-2.157009 -13.511948 1.414969 7.000000
-2.027205 -13.515937 1.413324 7.000000
3.459172 -13.366007 1.427724 21.000000
3.822392 -13.217006 1.422787 17.000000
-4.421410 -12.995236 1.419495 13.000000
-4.096233 -12.967911 1.406329 4.000000
-5.570943 -12.401702 1.405918 0.000000
-5.348732 -12.461616 1.402352 19.333334
-1.751649 -12.200846 1.492695 35.000000
1.605689 -12.212901 1.491733 3.000000
-7.444825 -12.115601 1.470515 15.000000
1.462528 -12.156866 1.482836 20.500000
7.539501 -12.164708 1.479978 21.000000
-2.344192 -12.003889 1.481153 58.000000
-2.076292 -12.032968 1.478749 42.000000
-1.617119 -12.023701 1.469211 15.500000
-1.536172 -12.041718 1.470093 3.000000
1.316064 -12.055775 1.468650 9.000000
1.639562 -12.032070 1.470574 9.500000
-7.392823 -11.946668 1.452823 43.000000
-1.828073 -11.932583 1.461918 59.000000
3.287965 -11.928754 1.498465 41.000000
7.803573 -11.911492 1.472572 8.000000
-7.362980 -11.815326 1.439656 53.000000
-2.280261 -11.874703 1.464322 16.000000
1.482100 -11.848422 1.446048 3.000000
2.517706 -11.855054 1.467688 13.000000
2.946893 -11.845765 1.478268 16.000000
3.738823 -11.807712 1.499908 14.000000
7.655669 -11.847479 1.458686 22.750000
-2.924284 -11.790007 1.471054 11.000000
2.416754 -11.742287 1.451819 9.000000
2.538195 -11.769451 1.458070 1.000000
2.730831 -11.762943 1.462398 110.000000
2.972445 -11.790242 1.472497 63.000000
3.650460 -11.785452 1.494137 12.000000
3.878180 -11.733405 1.496542 1.000000
-7.307005 -11.643851 1.421553 42.000000
-2.037772 -11.592261 1.425370 27.000000
3.722634 -11.629501 1.478749 57.000000
3.810441 -11.651174 1.484519 36.000000
-7.317024 -11.538721 1.412912 43.000000
-3.317597 -11.569788 1.457589 14.000000
-2.676062 -11.563672 1.437392 44.000000
-2.532457 -11.547176 1.431621 40.666668
-2.349726 -11.549271 1.427293 11.000000
-2.292184 -11.544650 1.425370 9.000000
-1.867005 -11.578741 1.420320 32.000000
-1.767292 -11.536087 1.413347 45.000000
1.484453 -11.571936 1.412866 2.000000
-1.924981 -11.478658 1.409500 31.500000
3.958055 -11.488515 1.471535 16.000000
-3.202743 -11.371264 1.430659 35.000000
-2.664283 -11.350316 1.411905 34.000000
-2.580549 -11.312630 1.405172 11.000000
-2.380693 -11.365823 1.406294 19.000000
2.488527 -11.365750 1.409019 36.000000
3.841349 -11.381470 1.454704 3.000000
4.265869 -11.331147 1.466246 80.000000
7.878008 -11.313889 1.425667 24.000000
7.969663 -11.293314 1.429370 42.000000
8.167685 -11.320652 1.443565 38.666664
8.329395 -11.343245 1.455291 0.000000
8.464649 -11.339621 1.463315 14.500000
8.564487 -11.324327 1.468252 33.000000
-4.989527 -11.201397 1.485000 19.000000
-4.770108 -11.276071 1.482716 23.750000
-4.661504 -11.281683 1.478268 17.333334
3.130126 -11.218410 1.410462 84.000000
3.628345 -11.213489 1.427293 10.000000
3.936751 -11.254196 1.443884 12.500000
4.420008 -11.203641 1.458551 25.000000
8.232753 -11.285783 1.444594 20.000000
-5.203135 -11.112556 1.485962 0.000000
-5.036509 -11.165090 1.483317 9.000000
-4.902323 -11.146614 1.474661 17.000000
-4.813279 -11.133457 1.468890 5.000000
3.223582 -11.146450 1.405172 60.000000
4.444902 -11.163875 1.455185 61.000000
4.197050 -11.043007 1.430659 0.000000
-4.255737 -10.909773 1.418156 18.000000
-3.937038 -10.893768 1.402768 38.000000
4.253446 -10.983090 1.426331 24.000000
-4.336035 -10.841950 1.414103 23.000000
-4.131033 -10.840802 1.404932 21.500000
4.147799 -10.811025 1.402287 2.000000
4.231548 -10.825433 1.407576 5.000000
4.446172 -10.867889 1.422003 7.000000
-2.001593 -10.593131 1.496887 32.000000
-1.961018 -10.622193 1.499821 20.000000
-1.808922 -10.571444 1.489186 2.000000
9.921518 -10.546886 1.497396 39.000000
2.482812 -10.454120 1.491936 5.000000
2.552829 -10.480064 1.497713 19.500000
9.078787 -10.345102 1.423335 24.666666
9.950783 -10.391110 1.487796 42.500000
10.026965 -10.339799 1.489441 38.000000
-3.136268 -10.220342 1.484418 23.666666
2.583279 -10.254160 1.468281 24.000000
5.360276 -10.270714 1.403008 7.500000
9.043935 -10.197219 1.409483 39.333332
-9.882052 -10.108853 1.461874 0.000000
-3.434788 -10.142010 1.486802 35.666664
-3.212275 -10.108089 1.472682 22.000000
-2.679421 -10.112637 1.452602 27.500000
-2.563813 -10.102414 1.447193 18.666666
1.624202 -10.140224 1.425921 10.000000
2.512819 -10.108426 1.446276 21.000000
3.151582 -10.181121 1.479833 8.000000
9.989710 -10.109015 1.469692 46.000000
-3.151630 -10.081524 1.466631 29.000000
-2.634144 -10.069248 1.445176 33.000000
2.286518 -9.999502 1.424271 8.000000
3.045084 -10.060413 1.459479 47.000000
3.664587 -10.024797 1.482034 28.000000
10.057159 -10.060677 1.471063 27.000000
-3.328559 -9.982744 1.461129 32.000000
1.863733 -9.929670 1.402816 19.000000
1.950815 -9.961343 1.409418 13.500000
2.316131 -9.984550 1.423171 0.000000
2.965756 -9.910512 1.436374 6.000000
3.596663 -9.935674 1.467181 28.000000
-7.396078 -9.890140 1.495580 49.000000
2.766679 -9.803352 1.414369 17.000000
3.162982 -9.886731 1.441325 18.000000
3.527999 -9.842495 1.451777 10.000000
-7.584344 -9.753171 1.496221 48.666668
2.855612 -9.765433 1.412718 25.000000
3.115811 -9.739644 1.419870 1.000000
-9.511966 -9.669315 1.402626 24.000000
-7.639765 -9.635604 1.489168 46.333332
3.161817 -9.622671 1.406392 8.000000
3.550636 -9.619247 1.423721 16.000000
3.571153 -9.582057 1.419870 7.000000
4.698134 -9.398337 1.458929 28.000000
-8.027738 -9.316646 1.489328 6.000000
4.769652 -9.338854 1.456041 13.750000
4.580564 -9.235579 1.431423 8.000000
-7.934680 -9.092490 1.461437 59.000000
2.455962 -9.140243 1.483447 4.000000
-7.908179 -9.004860 1.451338 39.000000
-8.417310 -8.502951 1.448933 30.000000
-7.905448 -8.504298 1.406134 34.000000
4.088568 -8.579567 1.489641 11.000000
-7.937552 -8.485220 1.407096 33.000000
-8.315065 -8.347054 1.426812 27.000000
-8.989296 -8.211231 1.474421 13.000000
-8.206717 -8.264212 1.410462 39.000000
-9.040709 -8.154590 1.474421 41.000000
-8.217878 -8.146477 1.401325 48.000000
-9.123110 -8.074224 1.475382 15.000000
-8.942088 -8.014830 1.454223 30.000000
-8.879794 -8.060180 1.452300 14.000000
-7.176479 -8.066031 1.499088 45.000000
-8.641870 -7.943823 1.421522 4.000000
-8.470984 -7.935328 1.405653 24.000000
-7.185646 -7.924663 1.485335 56.000000
-7.015292 -7.960021 1.473232 4.000000
-7.051977 -7.826519 1.462780 5.000000
-9.344568 -7.711287 1.467207 16.000000
-7.639266 -7.617961 1.497988 68.000000
-7.349019 -7.658205 1.473782 86.500000
-9.440704 -7.496047 1.459874 39.250000
-9.141515 -7.495575 1.431621 53.000000
-9.363858 -7.435017 1.447972 36.000000
-9.213122 -7.457976 1.435468 38.000000
-9.078818 -7.396587 1.418156 52.000000
-8.904838 -7.395566 1.401806 44.000000
-7.656007 -7.203403 1.459616 45.250000
-6.224478 0.303315 1.402515 11.500000
-6.172743 0.307317 1.419587 39.333332
-5.829115 0.689921 1.457305 5.000000
-5.508629 0.754526 1.486000 12.833333
-5.415312 0.857733 1.465344 11.833333
-6.279810 1.045230 1.462270 13.666667
-9.336973 1.162983 1.474776 9.000000
-5.206342 1.224012 1.429369 0.000000
-6.706406 1.688266 1.459624 1.000000
-6.714692 1.750328 1.464580 2.333333
13.755453 1.984642 1.437188 7.000000
13.738060 2.048270 1.436365 10.500000
-9.967628 2.127787 1.415194 0.000000
-3.955013 4.100486 1.414415 18.000000
-4.398190 4.412032 1.430929 7.000000
-3.370161 4.532966 1.402367 5.000000
-3.298882 4.647131 1.414896 40.000000
-3.125670 4.742128 1.410077 12.000000
-4.890699 4.906090 1.462102 4.000000
-3.311314 4.856025 1.459232 15.000000
-3.291463 4.903771 1.466301 11.000000
-2.111533 4.943249 1.436598 25.000000
-2.153253 5.085081 1.475844 24.000000
-3.345994 5.217932 1.423766 39.000000
-2.387544 5.400518 1.465979 0.000000
-3.506171 5.430099 1.484656 18.000000
-2.467698 5.511439 1.499231 10.000000
-3.053786 6.016737 1.424104 0.000000
-11.539078 8.076747 1.456526 2.000000
-11.252851 8.694053 1.470515 10.000000
-10.867107 8.784319 1.445005 13.000000
-3.571191 8.733503 1.478905 1.333333
-10.834805 8.842992 1.446239 36.000000
-10.262527 8.899086 1.404683 3.000000
-3.538841 8.812026 1.488402 0.000000
-10.823752 8.919240 1.450354 18.000000
-10.895166 9.122788 1.469486 82.000000
-11.023786 9.319122 1.492733 85.000000
-9.192377 10.386438 1.434307 0.000000
-8.281588 11.696531 1.482035 12.000000
-8.060411 12.013289 1.496025 13.000000
-11.084146 12.366499 1.426048 1.000000
-10.285808 12.706453 1.403804 10.000000
5.716444 12.887840 1.457966 188.000000
5.879134 12.870645 1.463246 255.000000
6.033332 12.885541 1.471338 255.000000
6.190663 12.903433 1.479978 255.000000
6.345916 12.913556 1.487933 255.000000
6.479517 12.927975 1.495407 255.000000
5.676127 13.072914 1.473806 5.000000
-10.438557 13.189071 1.444357 5.500000
-10.387355 13.252254 1.445897 14.000000
-8.087246 15.203499 1.478751 15.000000
-8.254574 15.285639 1.491755 2.000000
-7.945429 15.400707 1.488105 2.000000
-7.900328 15.552206 1.497915 0.000000
-17.126684 21.562078 1.403119 43.000000
-16.973610 21.647259 1.401694 7.000000
-17.227150 21.829014 1.416961 13.000000
-16.910469 21.919003 1.410650 9.000000
-16.742598 22.057570 1.411058 16.000000
-16.976734 22.220715 1.424899 13.000000
-16.937803 22.460909 1.433449 10.000000
-17.219257 22.983978 1.463372 15.000000
-17.084946 22.954645 1.458079 11.000000
-16.663851 22.986397 1.446680 47.000000
-16.519176 22.938145 1.440370 37.000000
-17.019876 23.017839 1.458690 10.000000
-16.884916 23.087296 1.457469 32.666668
-16.479578 23.035412 1.443220 5.000000
-15.674397 23.834860 1.453601 27.000000
-15.686170 24.099304 1.465204 38.000000
-15.428701 24.032660 1.455229 10.000000
-15.603882 24.138399 1.464593 41.000000
-15.520629 24.343756 1.471107 13.000000
-15.412024 24.341763 1.468053 18.000000
-15.299321 24.332575 1.464593 39.000000
-15.235501 24.400846 1.465814 45.000000
-15.105640 24.448544 1.464389 42.000000
-14.986105 24.512676 1.463982 42.000000
-14.781086 24.697386 1.466629 38.000000
-14.963493 24.736782 1.473142 44.000000
-14.791170 24.891376 1.475382 17.000000
-14.763651 25.023733 1.480471 20.000000
-14.798027 25.263027 1.491870 43.000000
5.715914 27.030415 1.407801 12.000000
5.881635 27.180805 1.417063 6.000000
6.005806 27.135263 1.416147 14.000000
6.108534 27.194214 1.420218 11.000000
6.289179 27.198111 1.422457 8.000000
6.388277 27.236559 1.425510 3.000000
5.730402 27.965902 1.454619 33.000000
5.959087 28.624359 1.489834 3.000000
3.790810 -31.052889 1.594055 1.000000
5.426383 -30.711836 1.589170 1.000000
5.635793 -30.767513 1.593852 1.000000
3.542828 -30.619732 1.570646 8.000000
3.608344 -30.350603 1.557415 10.000000
4.668817 -30.298620 1.562097 21.000000
4.080888 -30.262468 1.555990 3.000000
2.803226 -29.990196 1.534820 5.000000
-1.815977 -29.862022 1.524439 8.000000
7.237781 -29.871790 1.566168 5.000000
4.863780 -29.701351 1.533599 2.000000
-2.554530 -29.675610 1.517721 4.000000
2.251634 -29.599936 1.512632 3.000000
2.394614 -29.632833 1.514872 7.000000
2.491375 -29.668953 1.517111 17.000000
2.581097 -29.621183 1.515075 9.000000
3.333603 -29.626360 1.519146 7.000000
7.364531 -29.581505 1.553344 3.000000
7.555200 -29.554001 1.554362 1.000000
7.657017 -29.564924 1.556194 4.000000
-2.903290 -29.398663 1.505304 6.000000
1.818388 -29.393600 1.500623 1.000000
4.616232 -29.344587 1.513650 9.000000
6.227606 -29.298594 1.526271 1.000000
5.216521 -28.992222 1.501030 2.000000
-14.247325 -27.252626 1.566982 12.000000
-14.121170 -27.219234 1.562504 2.000000
-13.884442 -27.179354 1.555176 6.000000
-15.809546 -27.054800 1.596702 4.000000
-15.549528 -26.997822 1.587541 7.000000
-14.528019 -26.958906 1.560468 5.000000
-14.200678 -26.956789 1.552530 3.000000
-13.248508 -26.341721 1.502455 19.000000
-13.974119 -26.127281 1.509783 5.000000
-13.845143 -26.082842 1.504694 11.000000
-9.305773 -21.249508 1.586350 3.000000
9.216385 -21.005470 1.568612 5.000000
-9.987124 -20.650154 1.568612 2.000000
11.373455 -20.442459 1.599722 18.000000
9.993565 -20.300661 1.547326 18.000000
10.044876 -20.244141 1.545416 25.000000
-9.412088 -20.101795 1.517853 6.000000
-9.896123 -19.979370 1.524675 27.000000
-9.775225 -19.892168 1.515670 27.000000
-9.580412 -19.969019 1.514578 6.000000
-9.463920 -19.967066 1.511031 12.000000
-9.276618 -19.975628 1.506118 3.000000
-9.653224 -19.800817 1.506391 21.000000
-9.851892 -19.733953 1.508302 29.000000
10.818933 -19.736649 1.539139 18.000000
13.282228 -18.696815 1.568339 11.000000
-1.611383 -14.857179 1.545398 22.000000
-1.648339 -14.765051 1.536347 20.000000
-1.725921 -14.431637 1.503019 17.000000
-1.662039 -14.475197 1.506722 13.000000
-1.635541 -13.037797 1.591278 26.333334
1.477155 -12.964769 1.580217 0.000000
-2.640715 -12.875966 1.591759 4.000000
2.428676 -12.816612 1.579736 0.000000
-3.161362 -12.745850 1.590316 0.000000
-1.549820 -12.788313 1.560020 34.000000
-3.736707 -12.655458 1.598010 3.000000
-3.171379 -12.616467 1.575408 11.000000
-1.853978 -12.631390 1.546074 28.000000
-2.789462 -12.469092 1.547356 58.000000
-2.677671 -12.458392 1.543189 47.000000
1.756778 -12.452808 1.522991 8.000000
3.502071 -12.400836 1.560501 25.000000
3.530100 -12.351591 1.555692 26.000000
-4.609880 -12.270886 1.587431 12.000000
2.893373 -12.287715 1.528762 19.000000
-4.586446 -12.092977 1.566271 0.000000
-4.488140 -12.178417 1.571802 11.500000
-3.664561 -12.129958 1.534532 6.000000
-3.260144 -12.158534 1.524434 6.000000
3.540724 -12.100496 1.526838 5.000000
3.707622 -12.104407 1.533090 3.000000
-3.756218 -12.022867 1.525396 6.000000
-3.148534 -12.044312 1.507602 9.000000
3.187838 -12.005148 1.504236 4.000000
3.275512 -12.030980 1.510007 11.000000
5.184638 -11.918163 1.573966 53.000000
5.231628 -11.923635 1.576851 3.000000
4.493448 -11.711944 1.519144 35.000000
5.116405 -11.562163 1.531166 0.000000
-9.642716 -11.479532 1.550336 13.000000
9.563605 -11.442003 1.542107 17.000000
-1.555228 -11.324043 1.587108 5.000000
9.796734 -11.353633 1.550747 4.000000
9.819310 -11.307778 1.548690 29.000000
-2.635758 -11.219995 1.600311 27.000000
-2.369965 -11.246689 1.595910 25.000000
-2.263986 -11.207928 1.587658 54.000000
-2.695971 -11.160849 1.594259 28.000000
-2.436372 -11.155501 1.585457 144.000000
-2.209457 -11.117835 1.573905 3.000000
9.947913 -11.098817 1.541284 5.000000
-3.360443 -10.991510 1.595910 29.000000
-3.036805 -11.040098 1.589858 16.000000
-2.511785 -10.923388 1.556301 30.000000
-2.096185 -10.905833 1.541998 32.000000
3.169235 -10.965701 1.584907 2.000000
9.902464 -10.909410 1.523592 29.000000
10.149920 -10.903518 1.540461 6.000000
-2.122074 -10.856421 1.535946 22.000000
1.786218 -10.824347 1.523293 8.000000
9.930073 -10.816273 1.518407 38.599998
-7.455746 -10.741442 1.583463 41.500000
-3.917934 -10.729465 1.586007 40.000000
-3.886901 -10.749171 1.587108 27.000000
2.774632 -10.728708 1.538697 11.000000
-4.265004 -10.679511 1.596735 32.000000
-3.464443 -10.649882 1.555017 23.000000
-2.979190 -10.634619 1.533471 29.500000
3.647830 -10.594070 1.555751 0.000000
10.087931 -10.634180 1.515774 16.000000
-10.539608 -10.546980 1.541901 7.000000
-7.616672 -10.560723 1.576851 46.500000
-7.482875 -10.548984 1.566271 40.666668
-4.018716 -10.590481 1.572804 50.000000
-3.010977 -10.493824 1.515867 37.000000
2.680158 -10.499360 1.504589 9.000000
2.831415 -10.537552 1.515041 0.000000
4.219810 -10.507705 1.572254 30.000000
4.451715 -10.531000 1.587520 33.000000
-3.103533 -10.444094 1.512841 39.000000
-3.038797 -10.405354 1.505139 28.000000
10.206405 -10.426079 1.508780 47.000000
-7.610138 -10.378918 1.558577 51.000000
-7.509692 -10.309691 1.544631 59.000000
-3.826892 -10.378823 1.535946 51.000000
-3.643554 -10.329119 1.520818 28.000000
-7.581394 -10.271890 1.546074 41.000000
-3.549966 -10.217075 1.501838 23.000000
-3.948422 -10.139945 1.510916 35.250000
-3.855668 -10.160728 1.508990 25.000000
-3.786216 -10.169961 1.506790 29.000000
-8.518586 -10.034177 1.594003 27.000000
-8.384223 -10.045218 1.584545 39.000000
-7.424174 -9.993016 1.507602 34.000000
1.671179 -10.029583 1.593699 18.000000
-8.535616 -9.969233 1.589354 6.000000
-8.354440 -9.945855 1.573004 38.000000
-7.611796 -9.948511 1.516980 44.500000
-7.495247 -9.924875 1.506160 53.000000
1.560649 -9.943385 1.577595 11.000000
1.677316 -9.937652 1.579659 7.333333
4.366017 -9.913202 1.504039 20.000000
-8.486218 -9.786401 1.568676 25.000000
-7.939067 -9.758576 1.523472 32.000000
-7.835979 -9.693911 1.509526 41.000000
2.690205 -9.707123 1.578834 0.500000
-8.018012 -9.668036 1.521067 56.000000
-7.765699 -9.668943 1.501832 46.000000
2.617457 -9.620564 1.562729 0.000000
2.765992 -9.684409 1.578627 4.333333
-7.877389 -9.579864 1.501992 34.666668
2.895258 -9.565415 1.566446 21.000000
2.896378 -9.461806 1.550961 9.000000
-8.818835 -9.368142 1.558096 3.000000
5.787706 -9.325646 1.523981 17.750000
5.844758 -9.302910 1.525494 15.000000
2.383304 -9.275772 1.501100 12.500000
2.941596 -9.195068 1.513178 6.000000
3.227566 -9.278735 1.539812 31.000000
2.971683 -9.189542 1.513797 10.000000
3.211786 -9.049719 1.505126 1.000000
-9.494901 -8.950670 1.580217 0.000000
4.043476 -8.951165 1.539502 6.000000
-7.169422 -8.424042 1.535946 0.000000
-7.666036 -8.295977 1.568403 62.000000
-7.144305 -8.341294 1.524944 66.000000
-8.061538 -8.209176 1.597560 32.000000
-7.418497 -8.285490 1.544198 69.000000
-8.073946 -8.102179 1.588208 35.000000
-7.829270 -8.158585 1.570054 43.000000
-7.472221 -8.188864 1.539247 69.000000
-10.539736 -7.893338 1.594644 11.000000
-10.330962 -7.915725 1.576130 42.000000
-10.241715 -7.924263 1.568195 44.000000
-8.184242 -7.933912 1.582707 36.000000
-7.620924 -7.891697 1.523293 52.000000
-7.403372 -7.961403 1.509540 88.000000
-10.352001 -7.829083 1.571802 33.000000
-8.392087 -7.829057 1.593599 46.400002
-7.962743 -7.792251 1.546949 49.000000
-9.862738 -7.680699 1.513854 62.000000
-7.962578 -7.598577 1.528244 66.000000
-7.844362 -7.532994 1.510090 53.000000
-5.934668 0.186532 1.586868 6.000000
-5.955761 0.252710 1.593168 25.200001
-5.940331 0.433945 1.527028 23.857143
-5.831842 0.468122 1.563630 40.666668
-5.950759 0.571944 1.597712 27.000000
-5.843768 0.535273 1.504446 19.142857
-5.617550 0.790496 1.516122 29.000000
-5.595567 2.104349 1.597712 2.000000
-6.154084 2.825346 1.555397 1.000000
-3.177392 5.059313 1.596679 13.000000
-3.017802 5.066335 1.576024 6.000000
-2.672316 5.471328 1.511761 6.125000
-2.272673 5.462434 1.581187 0.000000
-4.024998 5.595194 1.583156 22.000000
-3.498238 5.688529 1.533906 2.000000
-2.961642 6.200690 1.578380 31.666666
-3.153012 6.212236 1.600169 3.000000
-2.996005 6.256177 1.593304 19.333334
-11.489211 9.050859 1.512483 19.000000
-11.990449 9.174027 1.561239 4.500000
-11.566720 9.170959 1.526472 4.000000
-11.176284 9.508399 1.517420 32.000000
-7.853642 10.183350 1.557375 11.500000
-8.312456 10.268697 1.599934 0.000000
-8.156046 10.271944 1.588393 1.000000
-8.068476 10.293768 1.583904 4.333333
-15.422814 10.367612 1.595791 1.000000
-7.644377 10.760666 1.598491 1.000000
-9.609583 11.136744 1.521123 9.000000
-9.343384 11.286180 1.515157 58.500000
-10.251886 11.365913 1.582840 0.000000
-10.187606 11.402206 1.581194 9.500000
-9.467957 11.547012 1.544164 64.000000
-9.605453 11.866021 1.578726 21.666666
-8.187229 12.038055 1.505488 7.000000
-9.430369 12.267718 1.600121 31.000000
6.611951 12.937466 1.502471 255.000000
6.746121 12.948108 1.509808 255.000000
6.830245 12.960196 1.514951 255.000000
6.938475 12.967237 1.520849 255.000000
7.078497 12.982836 1.529146 255.000000
7.216007 12.991142 1.536758 171.666672
-9.672841 15.177474 1.545484 32.000000
-8.170958 15.596443 1.511946 0.000000
-7.944703 15.762010 1.515711 2.000000
1.858723 17.392567 1.502022 12.000000
1.402889 17.551226 1.511946 0.000000
-14.853146 25.540762 1.505508 48.000000
-14.758858 25.563080 1.504083 43.000000
-14.650657 25.560801 1.501233 44.000000
-14.655240 25.755999 1.509986 42.000000
-14.625328 25.892351 1.515279 37.000000
-14.633792 26.098454 1.524642 2.000000
8.127173 29.049370 1.537059 13.000000
8.288020 29.095320 1.541538 15.000000
8.421189 29.042459 1.540825 27.000000
8.602567 29.153851 1.548866 28.000000
8.728391 29.241520 1.554972 14.000000
9.040132 29.276285 1.561283 7.000000
9.246750 29.291286 1.565150 3.000000
9.338725 29.262093 1.565150 5.000000
8.951613 29.316004 1.561893 10.000000
9.152302 29.312565 1.564743 20.000000
7.868937 29.740694 1.567593 19.000000
7.228978 29.972555 1.571053 30.000000
3.284418 -32.905586 1.685045 1.000000
13.125271 -30.418074 1.688099 75.000000
13.206422 -30.343723 1.686267 93.000000
13.316135 -30.335005 1.688099 78.000000
-7.228696 -23.395510 1.674496 7.000000
-7.272409 -23.277458 1.667673 1.000000
-6.979998 -23.104292 1.650481 7.000000
-10.217551 -22.555857 1.693326 12.000000
-9.991523 -22.525948 1.685139 12.000000
11.086449 -22.255432 1.700285 7.500000
-12.476788 -21.342916 1.690597 21.000000
-12.567114 -21.266647 1.689232 11.500000
11.765414 -20.991465 1.645569 10.000000
12.083653 -20.786819 1.644204 9.000000
11.918553 -20.651861 1.630559 1.000000
12.351158 -20.354082 1.628103 7.000000
12.826511 -20.266035 1.640111 4.000000
12.130633 -20.133001 1.607363 1.000000
13.492580 -19.905998 1.644477 8.000000
12.867264 -19.844162 1.617324 31.000000
13.258545 -19.827833 1.631105 1.000000
13.568547 -19.883289 1.646115 113.000000
13.045810 -19.777496 1.620189 7.000000
13.103463 -19.729763 1.619644 1.000000
13.529257 -19.692549 1.633834 43.000000
13.554711 -19.531876 1.625784 10.500000
13.632988 -19.318830 1.616915 18.000000
14.126075 -18.986141 1.618279 14.000000
8.540653 -17.627920 1.682032 19.000000
9.211592 -17.449188 1.694352 6.000000
9.077332 -17.064793 1.659787 29.000000
2.081765 -13.813953 1.691785 9.000000
2.033142 -13.785069 1.687457 4.000000
-1.914226 -13.637696 1.667740 56.000000
-1.613412 -13.672547 1.667259 12.000000
3.252919 -13.622679 1.696113 8.000000
2.083064 -13.393934 1.641531 10.500000
-3.242116 -13.249438 1.651871 20.000000
-3.471961 -13.113040 1.642734 2.000000
-2.626405 -13.119925 1.620372 11.500000
-4.815553 -13.067171 1.686495 3.000000
2.937086 -12.927679 1.605464 23.000000
-3.584919 -12.728170 1.601377 0.000000
4.901645 -12.656845 1.643695 0.000000
4.279532 -12.549504 1.605705 16.000000
1.388803 -12.039893 1.682829 5.000000
1.543514 -12.048999 1.686680 27.000000
2.497880 -11.956684 1.696032 85.000000
-7.498340 -11.824637 1.695632 37.500000
-1.896399 -11.866133 1.668526 113.000000
-1.741379 -11.849828 1.663025 57.000000
2.529340 -11.828533 1.679529 55.000000
-2.903485 -11.697413 1.673477 34.000000
-2.596606 -11.712531 1.665775 78.000000
-1.779386 -11.723959 1.646521 34.000000
2.640086 -11.714991 1.667426 9.000000
-3.718975 -11.639060 1.696582 5.000000
-1.972395 -11.636795 1.638819 15.000000
-7.460310 -11.562958 1.666458 39.000000
-2.588166 -11.503317 1.637169 46.000000
-1.807622 -11.543233 1.622316 28.000000
3.847657 -11.526170 1.687230 4.000000
-3.603586 -11.401353 1.660274 0.000000
-3.457739 -11.438150 1.659174 3.000000
-2.727004 -11.446760 1.633868 59.000000
3.770418 -11.414054 1.669076 4.000000
4.092158 -11.416399 1.683930 26.000000
4.455084 -11.403168 1.699883 66.000000
-7.386527 -11.292098 1.634078 36.000000
-2.773426 -11.325498 1.619015 41.000000
-2.370443 -11.307316 1.604162 28.333334
2.982024 -11.382987 1.633868 2.000000
3.341480 -11.295038 1.635519 10.000000
3.675464 -11.365893 1.658624 4.000000
-3.047813 -11.217813 1.614064 15.000000
3.972790 -11.193968 1.649272 50.000000
-7.358573 -11.096539 1.612437 38.000000
4.285467 -11.175681 1.661925 47.000000
4.504279 -11.114952 1.665225 22.000000
-7.497369 -11.003185 1.612437 41.000000
-7.338480 -11.016000 1.602980 36.666668
-3.938591 -11.000055 1.622316 9.000000
-4.467877 -10.937281 1.640470 19.000000
-4.397812 -10.863125 1.627267 16.000000
4.461142 -10.717206 1.611863 5.000000
-1.669484 -10.446279 1.658116 6.000000
2.470044 -10.424553 1.679175 10.500000
9.440226 -10.378272 1.698998 21.000000
-2.816198 -10.238096 1.664310 70.000000
9.510650 -10.281362 1.696113 0.000000
2.330385 -10.118326 1.627456 32.500000
9.652678 -10.127508 1.694309 18.750000
-4.099169 -10.034690 1.698996 59.000000
-4.033369 -10.008066 1.691254 24.000000
-3.894410 -10.024807 1.685679 19.500000
-2.672154 -10.066974 1.632544 20.000000
3.353466 -10.045753 1.659974 4.000000
3.412692 -10.013263 1.658116 1.000000
3.659189 -10.010030 1.670504 25.000000
9.735010 -10.038757 1.693468 22.500000
-3.125515 -9.943066 1.633650 12.500000
2.895926 -9.903296 1.617236 22.000000
2.978486 -9.953052 1.628385 7.000000
3.486281 -9.946997 1.652077 24.250000
3.580468 -9.939791 1.655948 58.500000
4.478179 -9.749731 1.681653 3.500000
-10.319960 -9.486365 1.697556 32.000000
4.811937 -9.403350 1.655638 5.000000
-7.914097 -9.299032 1.695482 30.000000
4.152895 -9.389230 1.609184 5.000000
4.844346 -9.357765 1.651612 10.500000
-10.463443 -9.202073 1.687457 3.000000
-7.843910 -9.275446 1.686680 14.000000
4.890401 -9.197506 1.632721 9.000000
-8.085340 -9.145244 1.694932 10.000000
-7.905238 -9.142179 1.678153 39.500000
2.748455 -9.184366 1.674887 6.000000
4.917406 -9.178614 1.632101 21.000000
-7.925156 -9.059224 1.671277 45.000000
3.108325 -9.027233 1.668003 4.000000
-7.996130 -8.874372 1.658624 22.000000
-8.175461 -8.573088 1.644871 41.000000
-8.038694 -8.563385 1.630843 40.500000
-7.840917 -8.538889 1.609663 47.000000
-8.118148 -8.197884 1.601961 47.000000
-9.039300 -8.150457 1.689981 39.000000
-8.243059 -8.142879 1.608838 42.500000
-7.175266 -8.013833 1.685989 90.000000
-8.978168 -7.943272 1.664492 42.333332
-7.271786 -7.969205 1.690944 1.000000
-9.028714 -7.837505 1.660091 43.666668
-8.649819 -7.848679 1.621765 42.000000
-8.541124 -7.823803 1.608288 42.500000
-8.421360 -7.886084 1.601961 27.000000
-7.036181 -7.821208 1.648980 42.750000
-7.288498 -7.707314 1.662658 66.000000
-9.383066 -7.519951 1.669626 46.500000
-9.114901 -7.518971 1.640653 42.666668
-8.945212 -7.497929 1.620665 47.000000
-8.828685 -7.519170 1.610213 52.333332
-7.815544 -7.505320 1.698377 46.000000
-7.574756 -7.553631 1.676698 72.000000
-7.377008 -7.543683 1.653780 97.000000
-9.227985 -7.491343 1.650372 43.000000
-6.124416 0.086588 1.636958 0.000000
-6.047375 0.066496 1.616302 2.000000
-6.089194 0.421518 1.631277 14.000000
-5.996191 0.481325 1.607696 31.000000
-5.964315 0.592163 1.601843 21.000000
13.752085 1.984156 1.682648 7.000000
-5.668226 2.070811 1.612816 19.750000
13.742563 2.048942 1.682648 9.000000
-5.944456 3.329057 1.691514 26.000000
-4.280164 4.402926 1.641089 0.000000
-4.468329 4.510642 1.696859 7.000000
-4.367490 4.549606 1.685498 0.000000
-4.246593 4.536420 1.660712 3.000000
-4.276497 4.661472 1.690662 38.799999
-3.829438 4.842040 1.649868 45.500000
-3.250634 5.104440 1.617335 14.000000
-3.455244 5.206476 1.670007 6.000000
-3.308892 5.268740 1.662777 7.500000
-3.993382 5.388989 1.665250 16.250000
-3.192008 5.416791 1.680334 11.000000
-2.517010 5.535879 1.625253 26.000000
-2.446928 5.534842 1.617335 26.000000
-2.532216 5.708340 1.668974 29.400000
-2.370588 5.647679 1.636958 0.000000
-3.640958 5.747185 1.689105 15.000000
-3.439742 5.795490 1.673202 0.000000
-3.499763 5.854630 1.693442 4.000000
-3.158027 6.270858 1.612706 10.000000
-3.003864 6.462411 1.636883 0.000000
-3.556588 8.736944 1.648039 3.000000
-3.541816 8.819433 1.660431 1.000000
-3.546141 8.911062 1.675576 0.000000
-12.408527 9.680643 1.627482 5.500000
-12.463510 9.882067 1.644832 11.333333
-12.597713 10.117970 1.670890 46.000000
-15.616908 10.713149 1.626249 4.000000
-9.473736 12.244323 1.600944 12.000000
-10.343376 16.342646 1.660814 5.000000
-8.385040 17.100784 1.635489 14.000000
-8.314755 17.161669 1.637543 29.000000
-8.245642 17.202326 1.638113 25.333334
-8.193536 17.325735 1.645756 23.000000
-8.194920 17.470457 1.657050 12.000000
-7.810570 17.501719 1.645756 3.000000
-8.116663 17.517908 1.657905 15.000000
-8.064731 17.623016 1.664236 6.000000
-8.039038 17.787909 1.676214 12.500000
3.122988 18.444635 1.606400 16.000000
3.080046 18.544781 1.614271 20.000000
1.671536 18.692347 1.611534 15.000000
2.375371 18.620018 1.611876 13.000000
2.644819 18.629927 1.615811 25.500000
2.904230 18.695452 1.624652 30.666666
2.157569 18.790932 1.624196 6.000000
2.335063 18.773718 1.624538 7.000000
2.518245 18.798277 1.628645 21.000000
2.746163 18.709948 1.623854 35.000000
3.019775 18.790167 1.634235 32.000000
1.390304 18.887203 1.626249 2.000000
1.569897 18.893120 1.627960 4.000000
1.625134 18.840448 1.623854 13.000000
2.587036 18.861343 1.634805 2.000000
2.825618 18.839170 1.635832 48.000000
1.753032 18.933043 1.632752 20.000000
1.492632 19.051268 1.640965 2.000000
1.822381 19.030588 1.641649 35.000000
1.890790 19.112020 1.649178 18.000000
2.327376 19.204294 1.661156 31.000000
1.972683 19.320082 1.667658 25.000000
2.280110 19.322332 1.670738 9.000000
3.343556 19.377285 1.688534 1.000000
3.566506 19.394199 1.693325 23.500000
-16.304829 28.971903 1.694002 43.500000
-16.189531 29.086836 1.696241 85.000000
-16.117384 29.172525 1.698277 88.000000
-10.520679 30.519676 1.644945 1.000000
-10.373458 30.717640 1.652069 1.000000
7.935288 30.772089 1.619296 4.000000
-10.522795 30.839912 1.660415 1.000000
8.261139 30.830990 1.626421 21.000000
8.256203 31.204363 1.644741 4.000000
8.461514 31.186571 1.646573 3.000000
-10.461769 31.303247 1.681788 1.000000
4.847081 32.705841 1.684740 7.500000
5.014144 32.767578 1.689116 21.000000
14.164511 -31.066965 1.739802 6.000000
14.310829 -30.999882 1.739802 2.000000
14.457035 -31.059797 1.745705 2.000000
14.552838 -31.010614 1.745502 9.000000
14.645065 -30.953907 1.744891 11.000000
14.747398 -30.918562 1.745502 11.000000
14.835805 -30.854078 1.744484 15.000000
14.934406 -30.810911 1.744688 15.000000
15.032875 -30.767431 1.744891 4.000000
15.124167 -30.709303 1.744280 5.000000
15.215240 -30.650904 1.743670 4.000000
15.503436 -30.506144 1.743670 5.000000
15.651567 -30.441591 1.744179 4.500000
15.775513 -30.330318 1.742041 9.000000
16.162949 -30.143772 1.742856 3.000000
16.363483 -30.062675 1.744077 2.000000
16.457850 -30.011120 1.744077 2.000000
16.751690 -29.875584 1.745298 1.000000
16.855282 -29.840204 1.746316 1.000000
16.937092 -29.766273 1.745095 8.000000
17.428938 -29.541290 1.747741 4.000000
17.566925 -29.457069 1.747639 1.500000
17.710711 -29.382557 1.748148 1.000000
18.005690 -29.244953 1.749980 2.000000
18.093267 -29.181450 1.749573 1.000000
18.778515 -28.850193 1.754051 3.000000
18.915354 -28.763002 1.754153 5.500000
19.451168 -28.492975 1.757919 7.000000
19.538326 -28.428434 1.757715 5.000000
-10.274994 -23.869743 1.777105 1.000000
-10.700299 -23.041285 1.737262 3.000000
-10.500597 -22.988276 1.728257 13.000000
12.332262 -22.666014 1.764552 5.000000
11.455070 -22.375540 1.718978 11.000000
14.080772 -21.346504 1.748724 35.000000
14.985572 -21.377783 1.785292 5.000000
13.724377 -21.093369 1.720888 13.000000
13.389850 -21.009762 1.703696 3.000000
13.812447 -21.083529 1.723617 29.000000
14.291924 -21.085295 1.741901 26.000000
14.551303 -21.038280 1.749270 39.000000
13.889451 -20.913218 1.716795 54.000000
14.082976 -20.918226 1.724436 42.000000
13.968389 -20.889387 1.718432 55.000000
15.626361 -20.729349 1.775195 5.000000
14.481624 -20.658871 1.725255 3.000000
15.455902 -20.637794 1.763187 8.000000
15.773251 -20.652960 1.777105 8.000000
15.845353 -20.612797 1.777924 19.000000
15.619041 -20.584782 1.767008 3.000000
15.892939 -20.540821 1.776013 35.000000
16.021143 -20.572653 1.783109 8.000000
14.476043 -20.242311 1.701786 63.000000
14.562881 -20.229120 1.704515 12.000000
14.704962 -20.224804 1.709972 7.000000
14.785957 -20.136003 1.708335 26.000000
14.858628 -20.102291 1.709427 7.000000
7.989344 -19.354836 1.798046 1.000000
8.217662 -18.729237 1.756294 4.000000
8.666065 -18.780899 1.776144 14.000000
9.370770 -18.591270 1.787779 26.000000
9.145720 -18.432009 1.766903 47.000000
9.518163 -18.449001 1.782646 18.000000
9.169712 -18.335461 1.760401 96.000000
9.328052 -18.362762 1.768615 29.000000
9.240405 -18.049566 1.741237 45.000000
9.750587 -18.055918 1.762112 16.000000
9.320542 -17.927504 1.735077 30.000000
9.942724 -17.937136 1.761086 27.500000
10.123591 -17.799040 1.758348 1.000000
10.213140 -17.825933 1.764166 0.000000
10.692587 -17.873085 1.788464 3.000000
9.840090 -17.556364 1.728232 42.000000
10.713007 -17.530077 1.764166 13.000000
9.867760 -17.476778 1.723441 9.000000
11.038571 -17.260695 1.759374 5.500000
10.538253 -17.122988 1.726521 7.000000
-1.954472 -14.249502 1.741798 22.000000
1.686621 -14.207707 1.732661 1.000000
-3.227011 -14.146595 1.757186 3.000000
2.005706 -13.901436 1.700922 6.000000
-3.303182 -13.876043 1.727371 14.000000
5.341025 -13.538195 1.762476 1.000000
-4.345106 -13.460734 1.712944 1.000000
5.114052 -13.455764 1.743240 27.000000
5.257990 -13.451349 1.749011 5.000000
5.688855 -13.421635 1.765362 22.000000
1.592574 -12.749653 1.784052 0.000000
-1.760453 -12.622211 1.769565 37.000000
2.122526 -12.615883 1.776350 28.500000
-7.698426 -12.528308 1.780750 4.000000
3.441518 -12.494357 1.799456 6.000000
-7.689687 -12.426395 1.769690 31.000000
-2.680439 -12.460686 1.769749 2.000000
-1.785319 -12.419962 1.742243 37.000000
-1.668711 -12.440164 1.742793 23.000000
2.193321 -12.438933 1.753795 15.000000
2.730694 -12.482215 1.774150 7.000000
-2.448088 -12.318608 1.743893 15.000000
-2.163573 -12.295322 1.733441 75.000000
3.848666 -12.296150 1.789003 14.000000
-7.653082 -12.280849 1.752377 46.000000
1.265446 -12.203513 1.703551 7.333333
1.371289 -12.225311 1.708135 13.000000
2.246494 -12.288498 1.734541 6.000000
3.065359 -12.249115 1.753245 4.000000
-7.645187 -12.182751 1.741798 45.000000
-2.063117 -12.171890 1.714186 25.000000
-1.984673 -12.172945 1.712536 21.000000
1.599409 -12.181581 1.705935 9.000000
1.636615 -12.168643 1.704834 16.000000
3.182376 -11.993939 1.722988 11.000000
3.350931 -12.017881 1.732340 25.000000
3.719805 -12.016750 1.746644 28.000000
-3.860249 -11.951557 1.743893 13.000000
3.668121 -11.982915 1.740042 3.000000
7.730005 -11.921379 1.720638 7.500000
3.380676 -11.836584 1.709235 13.000000
4.061887 -11.796579 1.732340 46.000000
7.800410 -11.865927 1.719677 8.000000
8.580801 -11.880078 1.774739 20.500000
8.665951 -11.879628 1.780750 42.000000
8.818594 -11.813847 1.785319 27.500000
3.741147 -11.694366 1.704834 29.000000
4.614420 -11.702409 1.746644 121.000000
8.592765 -11.701909 1.758148 27.000000
4.085379 -11.685667 1.718862 12.500000
8.584636 -11.614184 1.749011 39.000000
8.823516 -11.628765 1.767766 1.000000
4.351901 -11.565787 1.715837 12.000000
5.324866 -11.545225 1.765348 4.000000
4.412427 -11.470638 1.706485 24.666666
8.631032 -11.301181 1.722081 24.000000
-5.442321 -11.225576 1.732203 2.000000
2.021976 -11.260224 1.793144 6.000000
8.660559 -11.193336 1.713906 22.000000
-5.319043 -11.171670 1.718037 34.000000
2.266931 -11.112537 1.777659 34.500000
2.364007 -11.140903 1.785092 33.000000
8.738994 -11.118379 1.712601 35.000000
9.019528 -11.142168 1.736027 102.000000
-2.647137 -11.009302 1.774768 27.000000
2.248009 -11.019716 1.762794 41.000000
8.830350 -11.049717 1.712944 26.000000
-3.265531 -10.989090 1.796860 5.000000
-3.042335 -10.925865 1.777659 100.000000
-2.572917 -10.952489 1.763413 24.000000
-2.319990 -10.952294 1.754741 2.000000
8.904976 -10.953724 1.709578 17.666666
9.072571 -10.924083 1.719677 20.000000
9.119576 -10.910762 1.722081 2.000000
-2.489464 -10.825817 1.741115 31.500000
-2.358368 -10.852435 1.740702 37.333332
8.975019 -10.875962 1.707654 23.000000
9.172848 -10.800951 1.716070 17.000000
9.330921 -10.882726 1.736027 48.000000
-3.777121 -10.734907 1.783698 26.250000
-2.389446 -10.698563 1.718197 27.500000
1.656103 -10.772377 1.708287 5.000000
2.423889 -10.755650 1.728107 56.000000
3.988497 -10.650822 1.782614 7.000000
9.235173 -10.657673 1.707815 29.666666
9.324696 -10.625268 1.711982 30.666666
3.457249 -10.577469 1.744212 8.000000
9.376485 -10.561012 1.710299 41.500000
9.438685 -10.497452 1.709578 13.000000
9.709415 -10.562612 1.737470 4.000000
-10.511603 -10.485948 1.798062 1.000000
4.452328 -10.418173 1.775801 1.000000
4.585234 -10.455368 1.789427 7.000000
-7.700379 -10.226173 1.777451 61.000000
4.223093 -10.235851 1.735540 85.000000
4.392533 -10.278213 1.751954 12.500000
4.459394 -10.255905 1.752883 48.000000
5.035555 -10.193205 1.781995 8.000000
10.311910 -10.208050 1.757186 80.000000
4.209670 -10.113084 1.716958 2.000000
4.517217 -10.126806 1.738018 10.000000
-7.724090 -9.993805 1.753795 35.000000
-7.641526 -10.081945 1.756546 38.000000
2.262680 -10.040308 1.798112 7.000000
-7.866981 -9.982802 1.764798 47.000000
-7.763783 -9.947908 1.752145 36.000000
-7.596247 -9.924670 1.735366 38.500000
10.091983 -9.927756 1.714387 1.000000
-8.255247 -9.887181 1.788453 29.000000
2.780441 -9.852116 1.788474 11.000000
2.839590 -9.863890 1.793293 15.666667
2.947330 -9.848680 1.796046 7.000000
-7.802630 -9.742873 1.733166 46.250000
3.008066 -9.717631 1.777230 8.666667
-7.899238 -9.675023 1.734266 40.500000
2.663281 -9.639334 1.747170 11.750000
3.418627 -9.632526 1.785720 38.000000
-10.499915 -9.530762 1.717272 5.000000
-10.466989 -9.561024 1.716791 16.000000
3.345243 -9.520541 1.763003 36.000000
5.985546 -9.460885 1.754741 12.000000
-10.549118 -9.365957 1.708376 6.000000
-7.195253 -8.400779 1.733682 0.000000
-7.086868 -8.327042 1.713861 43.000000
-9.120926 -8.172254 1.700433 30.000000
-7.162017 -8.152353 1.700854 106.000000
-8.085209 -8.088085 1.792524 42.000000
