# This PCD file was generated using the MATLAB® pcwrite function
# from Computer Vision Toolbox®.
# .PCD v.7 - Point Cloud Data file format
VERSION .7
FIELDS x y z intensity
SIZE 4 4 4 4
TYPE F F F F
COUNT 1 1 1 1
WIDTH 1213
HEIGHT 1
VIEWPOINT 0 0 0 1 0 0 0
POINTS 1213
DATA ascii
7.409032 -3.664969 -0.728268 18.500000
-6.555524 -3.551208 -0.755386 18.625000
-6.444229 -3.536890 -0.777165 8.000000
-5.975330 -3.578994 -0.736372 5.000000
-5.824900 -3.589111 -0.723335 2.000000
-5.758755 -3.504755 -0.712717 34.250000
8.313470 -3.573467 -0.797251 13.000000
7.331278 -3.476206 -0.714852 32.571430
-8.027461 -3.318521 -0.765304 7.000000
7.270235 -3.328207 -0.704471 40.428570
7.397809 -3.290518 -0.713348 34.333332
7.854279 -3.288738 -0.750209 40.000000
-9.989890 -3.111523 -0.739186 40.000000
-9.441442 -3.093236 -0.701884 36.000000
7.319101 -3.182436 -0.703167 27.000000
7.517666 -3.157170 -0.718380 65.666664
7.691506 -3.121523 -0.731340 51.750000
-9.925291 -3.045836 -0.733455 22.000000
-8.431551 -3.058838 -0.790229 4.000000
7.488942 -2.971132 -0.709837 53.000000
-7.028258 -2.845256 -0.712398 3.000000
-6.890642 -2.842113 -0.722445 3.250000
-6.730866 -2.844573 -0.772539 8.500000
-6.582950 -2.843138 -0.758100 7.000000
-6.413363 -2.837164 -0.741419 14.800000
7.416241 -2.861689 -0.700359 24.000000
7.510148 -2.887661 -0.708916 42.250000
-8.659653 -2.598021 -0.796548 39.000000
-8.398838 -2.606301 -0.774783 140.000000
8.119154 -2.644341 -0.752315 11.000000
-8.488594 -2.430857 -0.777942 62.000000
-8.764265 -2.361497 -0.799708 31.000000
7.810441 -2.363975 -0.718965 38.000000
-8.627330 -2.266510 -0.785900 32.333332
-8.500819 -2.147966 -0.772501 42.500000
-8.433276 -2.130814 -0.766358 35.000000
-8.367796 -2.030567 -0.758634 47.000000
-8.261268 -1.936164 -0.747576 41.500000
-7.792600 -1.916932 -0.707029 109.000000
-8.227957 -1.826266 -0.742573 44.250000
-7.919651 -1.829692 -0.716156 79.500000
7.258054 -1.759883 -0.789571 27.000000
-8.168558 -1.645614 -0.734148 46.000000
-7.971173 -1.671073 -0.717561 56.000000
-7.796944 -1.685759 -0.702816 73.000000
7.235059 -1.651265 -0.758549 47.400002
7.350367 -1.664425 -0.796790 46.000000
-8.169578 -1.552521 -0.732656 47.000000
-7.898634 -1.526756 -0.708784 53.000000
7.243102 -1.528967 -0.782632 46.333332
-8.035883 -1.442382 -0.719316 47.500000
-7.814067 -1.459538 -0.700359 60.000000
7.105887 -1.395385 -0.765600 44.500000
7.123977 -1.457160 -0.768754 38.000000
7.997288 -1.462035 -0.716273 24.000000
8.041819 -1.409308 -0.719316 5.000000
-7.951727 -1.356567 -0.710715 49.250000
7.174886 -1.320460 -0.752703 52.285713
-8.015491 -1.225135 -0.714401 36.000000
-7.952895 -1.202711 -0.708667 34.666668
7.240096 -1.245262 -0.724638 36.000000
7.357470 -1.229989 -0.755546 46.250000
-7.933807 -1.123498 -0.705976 39.000000
-8.087440 -1.080363 -0.718877 19.750000
7.084932 -1.070146 -0.757540 43.333332
7.158081 -1.000907 -0.764128 50.000000
-8.088044 -0.990220 -0.717912 34.000000
7.134122 -0.940526 -0.760764 54.500000
7.219084 -0.871011 -0.768754 48.500000
7.109957 -0.756115 -0.755928 43.000000
7.096981 -0.612891 -0.753110 44.000000
7.438909 -0.684849 -0.789781 77.000000
6.973629 -0.399655 -0.738475 45.000000
7.056671 -0.482475 -0.747797 48.333332
6.943074 -0.376023 -0.735111 41.000000
7.234226 -0.369001 -0.765810 67.000000
-5.892933 -0.273781 -0.727686 19.000000
-5.791402 -0.232606 -0.714954 39.000000
7.080802 -0.283178 -0.749199 47.500000
7.514946 -0.217787 -0.794828 67.000000
-5.631612 -0.160524 -0.731259 47.181820
-5.575655 -0.110946 -0.786840 47.000000
7.100766 -0.144461 -0.750881 48.250000
7.223593 -0.175370 -0.763918 56.500000
-5.628993 -0.036669 -0.708573 51.000000
-5.564911 -0.000079 -0.758421 48.727272
7.083071 -0.016127 -0.748848 52.000000
-5.581293 0.108851 -0.713338 49.250000
-5.624782 0.144730 -0.754809 51.739132
7.061056 0.128014 -0.746646 48.571430
-5.616250 0.274767 -0.738938 58.454544
-5.572187 0.301261 -0.744909 48.428570
7.055957 0.283439 -0.746585 50.142857
-5.582874 0.395615 -0.756626 47.333332
-5.640147 0.443095 -0.739608 53.416668
7.059364 0.439195 -0.747787 54.857143
-5.640102 0.576311 -0.719388 48.000000
7.054338 0.583742 -0.748358 50.000000
-5.660809 0.699108 -0.703582 46.666668
6.853108 0.708200 -0.728382 38.000000
-5.790839 0.754153 -0.720341 26.000000
6.926420 0.744935 -0.736512 42.666668
7.087789 0.717895 -0.753194 56.333332
7.247889 0.795053 -0.770857 46.000000
-6.205889 0.897615 -0.773473 34.000000
-5.846859 0.869142 -0.729155 33.500000
-5.655122 0.863335 -0.705650 28.000000
6.951848 0.873277 -0.740746 48.599998
7.009740 0.970188 -0.748147 37.000000
7.241388 0.979074 -0.772539 56.000000
-6.701274 1.044600 -0.717027 2.000000
-5.845762 1.076006 -0.733206 34.363636
6.935604 1.037783 -0.741419 49.500000
-5.823703 1.168342 -0.732681 22.200001
6.931390 1.182475 -0.743401 53.428570
-5.977315 1.255235 -0.753395 19.333332
-5.783895 1.328931 -0.732061 36.933334
6.940839 1.330323 -0.747166 45.000000
-5.813530 1.477799 -0.739929 48.142857
6.949647 1.479579 -0.751211 49.142857
-5.980008 1.670725 -0.738581 46.750000
-5.814595 1.644237 -0.745397 43.666668
6.915388 1.632226 -0.751211 50.000000
-5.804964 1.780526 -0.748988 43.000000
6.947644 1.755618 -0.757610 45.500000
6.658147 1.861493 -0.730905 41.000000
7.093328 1.851731 -0.775062 47.750000
7.179016 1.886058 -0.784735 60.000000
-5.947100 1.921373 -0.742995 45.000000
-5.818898 1.967494 -0.742215 47.142857
-5.691399 1.993101 -0.743846 39.000000
6.805118 1.925836 -0.747727 45.666668
6.897847 1.934108 -0.757399 49.250000
-5.711308 2.020237 -0.747274 50.000000
6.825395 2.098516 -0.754946 48.000000
6.923926 2.101010 -0.764969 53.000000
6.814314 2.185213 -0.756558 52.000000
-5.831333 2.253609 -0.734382 43.666668
6.902911 2.285571 -0.768754 52.000000
7.045807 2.283885 -0.783053 73.000000
-5.790684 2.373262 -0.707371 42.750000
6.892337 2.378790 -0.770857 44.400002
-5.697617 2.419370 -0.720015 47.799999
6.780915 2.435867 -0.761745 42.333332
-5.955954 2.560110 -0.799671 41.000000
-5.783946 2.564103 -0.713595 40.200001
6.699100 2.550102 -0.757820 46.000000
6.747335 2.540210 -0.762236 46.500000
6.765989 2.698146 -0.770100 44.400002
-6.109035 2.786623 -0.709878 40.000000
-6.013556 2.881208 -0.704972 38.666668
6.735374 2.821645 -0.772048 51.333332
-6.353798 2.958775 -0.740998 50.500000
-6.278105 2.923279 -0.732167 57.000000
-6.111020 3.008854 -0.720139 38.799999
6.697545 2.980812 -0.775062 42.000000
6.734867 2.979376 -0.778595 45.200001
-6.309921 3.096664 -0.743101 83.000000
-6.145858 3.100447 -0.727751 42.000000
-5.942687 3.056749 -0.706514 53.000000
-5.991660 3.177779 -0.717027 50.000000
6.740313 3.140255 -0.764409 46.000000
-6.284575 3.270226 -0.748989 37.000000
-6.160480 3.283812 -0.738054 44.000000
-6.003402 3.256869 -0.722074 23.000000
6.675530 3.302189 -0.714624 38.444443
6.754176 3.271558 -0.740528 40.200001
-6.142026 3.404111 -0.742418 52.375000
-5.986098 3.482354 -0.732167 24.000000
-5.857222 3.481921 -0.720392 38.000000
6.675679 3.453071 -0.706512 48.833332
-6.117950 3.520639 -0.746255 8.000000
-5.935711 3.579262 -0.732798 40.500000
6.638241 3.583920 -0.717714 41.799999
-7.142794 3.631510 -0.705976 27.500000
6.781214 4.178360 -0.701763 36.000000
6.911953 4.303996 -0.717385 33.500000
6.697235 4.377556 -0.704923 31.500000
6.856196 4.314235 -0.713699 34.000000
6.598001 4.484978 -0.702904 41.250000
6.749696 4.457368 -0.712646 32.000000
6.535393 4.525321 -0.700359 45.000000
6.911517 4.595479 -0.731252 45.000000
6.582901 4.619703 -0.708550 41.666668
6.617422 4.800802 -0.720299 41.000000
6.741029 4.794142 -0.728794 40.000000
6.602621 4.966400 -0.727917 44.250000
6.735951 4.984342 -0.738273 39.000000
6.550548 5.077977 -0.730243 38.625000
6.522519 5.218094 -0.735933 41.333332
6.617191 5.396850 -0.752315 38.000000
6.372606 5.435013 -0.737922 40.666668
6.486308 5.409861 -0.744153 38.000000
6.661802 5.468173 -0.759336 54.000000
6.379968 5.563711 -0.745821 48.500000
6.881770 5.576726 -0.780400 91.000000
6.330884 5.692245 -0.750092 41.000000
6.412200 5.681021 -0.754773 41.000000
6.414564 5.791938 -0.761443 34.000000
6.351867 5.844906 -0.760507 36.666668
6.339894 5.964003 -0.766884 40.750000
6.351022 6.088326 -0.775134 52.000000
6.437412 6.348150 -0.796548 44.000000
6.256818 6.570306 -0.799357 42.000000
7.326162 6.699090 -0.701320 6.000000
6.358020 7.848694 -0.713582 34.000000
6.335856 7.948356 -0.718092 32.000000
6.396915 8.024761 -0.724998 34.000000
6.496886 8.256068 -0.742193 28.000000
6.586424 8.424176 -0.755442 41.000000
6.366945 8.635915 -0.757978 15.000000
6.738336 8.702820 -0.777569 30.000000
6.470135 8.718401 -0.766999 32.000000
6.628828 8.873846 -0.782502 31.000000
6.756809 8.812012 -0.784475 35.000000
6.537828 8.926270 -0.781657 1.000000
7.756502 10.874214 -0.711003 1.000000
7.832319 10.815420 -0.710821 7.857143
-3.226077 13.668566 -0.747574 24.000000
-3.179494 13.663072 -0.746723 17.000000
-3.549150 13.899273 -0.763605 42.000000
-3.417995 13.894805 -0.761677 52.666668
-3.168709 13.813148 -0.754377 4.000000
-3.339660 13.953595 -0.763733 38.000000
-3.194001 14.126925 -0.770962 1.000000
-4.297746 20.047318 -0.734606 0.000000
5.290598 20.267408 -0.750504 62.000000
5.465748 20.285030 -0.752724 78.000000
5.234880 20.314899 -0.751650 41.000000
5.371614 20.316387 -0.752939 72.000000
5.575549 20.311119 -0.754658 57.000000
5.669298 20.401342 -0.758668 49.000000
5.760423 20.479635 -0.762249 17.000000
5.222271 20.532698 -0.759098 10.000000
17.892973 35.041309 -0.726616 87.000000
18.043232 35.063160 -0.728241 76.000000
18.206686 35.109261 -0.730383 36.000000
18.315044 35.048344 -0.730309 25.000000
17.554789 35.194073 -0.726321 44.000000
17.720430 35.110909 -0.726321 85.500000
17.449459 35.259804 -0.726542 83.000000
17.305023 35.386520 -0.727466 80.000000
17.161612 35.516319 -0.728463 68.000000
17.086250 35.645790 -0.730014 37.000000
17.037724 35.832932 -0.732747 5.000000
6.362012 -36.641445 -0.686807 18.000000
6.429035 -36.349545 -0.681711 33.000000
0.645370 -35.896076 -0.663024 4.000000
6.473719 -35.943443 -0.674473 44.000000
-0.256073 -35.784985 -0.660883 4.000000
6.557035 -35.761642 -0.671444 33.000000
-0.143191 -35.669632 -0.658741 6.000000
0.024853 -35.617874 -0.657781 16.000000
0.192821 -35.637402 -0.658150 43.000000
0.304814 -35.640617 -0.658224 24.000000
0.473466 -35.688728 -0.659147 5.000000
-6.234540 -35.539139 -0.666348 16.000000
-5.659819 -35.533943 -0.664502 38.000000
-5.434021 -35.552986 -0.664206 16.000000
6.629738 -35.528564 -0.667456 44.000000
-5.530273 -35.436958 -0.662360 37.000000
-6.293396 -35.224102 -0.660809 24.000000
6.699549 -35.287533 -0.663320 22.000000
6.791419 -35.168140 -0.661473 39.000000
6.776248 -34.506958 -0.649435 14.000000
2.536749 -33.975620 -0.629197 4.000000
2.632925 -33.831917 -0.626686 14.000000
2.741459 -33.851379 -0.627203 22.000000
6.751518 -33.818771 -0.636879 7.000000
2.835722 -33.699135 -0.624544 14.000000
3.477365 -33.707329 -0.625800 3.000000
2.925220 -33.502804 -0.621073 14.000000
3.033703 -33.529297 -0.621738 17.000000
3.136415 -33.491726 -0.621221 7.000000
3.564636 -33.521252 -0.622550 15.000000
4.642639 -33.586864 -0.626169 14.000000
6.801266 -33.519115 -0.631635 11.000000
-6.166546 -33.304138 -0.625505 28.000000
6.924074 -33.318295 -0.628459 9.500000
7.227631 -33.204651 -0.627573 42.500000
7.509370 -33.240524 -0.629345 2.000000
7.058613 -33.179703 -0.626465 36.000000
7.388391 -33.189777 -0.627942 23.000000
7.583374 -33.084229 -0.626834 5.000000
3.917493 -32.901951 -0.611915 4.000000
4.763128 -32.931648 -0.614500 2.000000
3.810894 -32.886284 -0.611398 12.000000
4.640603 -32.811813 -0.611988 24.000000
7.574054 -32.573318 -0.617602 11.000000
4.217546 -32.384918 -0.603126 29.000000
7.607501 -32.257423 -0.612062 21.000000
7.631595 -31.910524 -0.605932 13.000000
8.450712 -31.984766 -0.610955 16.000000
8.581624 -31.871248 -0.609551 33.000000
8.692227 -31.882711 -0.610290 7.000000
7.696938 -31.742580 -0.603199 3.000000
7.767022 -31.597851 -0.600910 7.000000
-5.402828 -18.536268 -0.691782 22.000000
-5.353424 -18.583879 -0.692927 27.000000
-5.383187 -18.150356 -0.678318 32.500000
-5.404080 -17.910471 -0.670298 27.000000
4.412217 -17.949810 -0.662277 6.000000
4.453125 -17.873798 -0.659985 58.000000
4.543274 -17.875822 -0.660845 43.500000
-2.311182 -17.722467 -0.640364 53.000000
-2.226866 -17.727192 -0.640149 52.500000
7.758914 -17.666922 -0.691352 22.000000
7.770669 -17.543776 -0.687485 41.000000
7.807813 -17.479126 -0.685909 45.000000
7.998834 -17.462915 -0.688201 32.000000
-5.298146 -17.361956 -0.650389 47.000000
-5.323192 -17.249735 -0.646809 35.000000
7.780592 -17.272278 -0.678748 31.000000
7.993603 -17.236418 -0.680753 38.000000
7.805058 -17.182238 -0.676170 17.000000
-5.317822 -17.042128 -0.639647 37.000000
-5.475750 -16.983643 -0.639361 43.000000
-5.389563 -16.990198 -0.638645 36.500000
-5.422557 -16.639498 -0.627043 48.000000
7.946766 -16.653261 -0.661131 53.000000
7.794080 -16.533199 -0.654901 32.000000
7.952258 -16.530951 -0.657264 34.000000
-5.416031 -16.443930 -0.620312 34.000000
8.407095 -16.407715 -0.660558 3.000000
-5.441154 -16.347183 -0.617304 38.000000
4.151308 -16.333885 -0.603841 6.500000
4.344018 -16.337492 -0.605703 1.000000
4.427658 -16.240456 -0.603125 12.000000
6.656536 -16.254545 -0.629335 11.000000
6.754878 -16.203756 -0.629001 33.666668
6.864949 -16.180655 -0.629765 6.000000
7.833220 -16.153397 -0.643228 56.000000
7.681139 -15.651583 -0.624680 35.500000
8.044107 -15.578499 -0.628189 37.000000
7.682847 -15.470214 -0.618880 39.000000
7.995393 -15.444596 -0.623129 24.666666
7.696373 -15.315973 -0.614153 41.000000
7.766707 -15.275966 -0.614010 35.000000
8.119634 -15.023212 -0.611862 60.000000
7.957130 -14.833767 -0.603125 47.000000
-5.213196 -12.023948 -0.697608 53.000000
-5.220447 -11.802683 -0.686977 25.333334
-5.190316 -11.768020 -0.684638 43.000000
-5.229551 -11.560879 -0.675424 25.666666
-5.268908 -11.408236 -0.668904 34.000000
-5.239731 -11.205989 -0.658486 14.000000
-5.184773 -10.953727 -0.645090 32.500000
6.214461 -10.912808 -0.668479 3.000000
-5.210492 -10.875134 -0.641901 34.000000
6.263492 -10.840075 -0.666423 71.833328
6.628050 -10.807479 -0.674857 38.000000
6.345088 -10.707560 -0.662525 54.000000
6.490923 -10.759949 -0.668904 55.000000
-5.206803 -10.670220 -0.631999 32.285713
7.608056 -10.626817 -0.695694 23.000000
-5.260064 -10.494974 -0.624892 17.000000
7.674674 -10.578806 -0.695694 70.000000
7.874581 -10.503252 -0.698777 53.000000
-5.321321 -10.466287 -0.624998 27.000000
7.632164 -10.382332 -0.685914 28.000000
7.852287 -10.337509 -0.691016 65.000000
-5.274685 -10.254619 -0.613835 38.000000
-5.350631 -10.165571 -0.611496 42.000000
-5.631686 -10.076713 -0.614473 13.000000
-5.303936 -10.000504 -0.602566 35.000000
-5.230743 -10.052475 -0.603204 33.500000
8.458632 -10.044989 -0.699025 14.333333
7.775276 -9.973409 -0.673156 58.000000
8.099116 -9.898752 -0.680811 51.000000
8.291553 -9.973047 -0.690379 16.000000
8.520022 -9.926447 -0.696332 13.000000
7.907473 -9.884274 -0.673794 60.000000
7.489086 -9.731893 -0.653666 14.000000
7.742167 -9.740216 -0.662313 58.000000
8.458157 -9.760885 -0.687508 12.500000
7.632309 -9.664182 -0.655509 42.000000
7.785841 -9.607851 -0.658273 80.000000
7.970171 -9.647987 -0.666140 37.000000
-2.275027 -9.490801 -0.689481 5.333333
7.675457 -9.532706 -0.651469 39.000000
-2.348520 -9.453461 -0.688152 11.000000
8.282171 -9.437374 -0.668372 48.000000
14.501340 -9.413683 -0.619452 2.000000
7.716380 -9.047503 -0.632971 101.000000
8.313676 -8.921568 -0.649130 0.000000
8.457686 -8.685088 -0.645303 12.000000
7.527950 -8.496838 -0.604267 96.000000
-5.178944 -8.438064 -0.699441 31.666666
8.413742 -8.425497 -0.633822 7.000000
-5.186193 -8.273931 -0.689857 33.000000
-5.215786 -8.121235 -0.681871 30.500000
-5.502402 -7.949322 -0.682998 36.000000
-5.264539 -7.975220 -0.675105 30.250000
-5.355945 -7.869150 -0.672475 31.666666
-5.287107 -7.873983 -0.670032 30.000000
8.197606 -7.806476 -0.602566 30.000000
8.340713 -7.600114 -0.600653 12.000000
-5.304261 -7.586536 -0.653964 31.000000
-5.282137 -7.504579 -0.648327 34.000000
-5.361939 -7.467427 -0.649454 2.000000
-5.194961 -7.331677 -0.634796 31.000000
-5.188979 -7.242805 -0.629441 26.333334
-5.458447 -7.026851 -0.628595 51.000000
-5.375275 -7.019327 -0.624592 27.400000
-5.216855 -7.081948 -0.621407 29.125000
-5.277469 -6.957854 -0.616944 30.333334
-5.309228 -6.768748 -0.607736 35.000000
-5.547720 -6.569490 -0.607454 38.000000
7.433742 -6.317665 -0.689200 45.000000
7.601648 -6.297573 -0.697374 35.000000
7.410208 -6.178336 -0.681589 14.000000
-6.409648 -6.029711 -0.621689 17.000000
7.428345 -6.036971 -0.676233 17.000000
7.368098 -5.892406 -0.666508 25.000000
7.525596 -5.960438 -0.678206 46.000000
-6.380946 -5.834777 -0.610837 4.000000
-6.214746 -5.791290 -0.600125 10.000000
-5.315899 -5.797224 -0.692987 32.000000
7.555419 -5.868966 -0.675881 46.250000
7.665785 -5.877914 -0.682434 63.000000
-5.359391 -5.720886 -0.690670 30.799999
7.476005 -5.639681 -0.661575 39.500000
7.397824 -5.580842 -0.654669 28.500000
-5.801890 -5.406610 -0.698721 22.333334
-5.720901 -5.432728 -0.695093 33.000000
7.431575 -5.479030 -0.652273 70.000000
-5.704801 -5.316092 -0.687019 29.000000
7.332509 -5.382397 -0.642595 37.333332
7.506975 -5.354673 -0.651427 45.000000
7.397202 -5.276476 -0.641914 41.250000
7.501569 -5.209845 -0.645226 39.000000
7.649274 -5.276880 -0.656501 31.000000
7.391039 -5.133346 -0.635736 31.666666
7.783968 -5.156003 -0.659602 48.000000
-6.003093 -5.038980 -0.690529 22.000000
7.391225 -4.996714 -0.630286 40.333332
7.536069 -4.991882 -0.638602 60.500000
-6.064471 -4.946064 -0.689476 20.000000
-5.415727 -4.866934 -0.609697 42.000000
7.475503 -4.884382 -0.630850 72.000000
-6.136451 -4.753059 -0.683859 23.000000
-6.077493 -4.738018 -0.678944 21.000000
-5.884951 -4.768941 -0.667359 1.000000
7.375827 -4.764362 -0.620327 28.000000
7.498538 -4.700281 -0.625212 47.000000
7.817064 -4.780885 -0.647340 38.000000
-6.418179 -4.656236 -0.698604 6.000000
-5.832775 -4.681289 -0.658934 30.500000
7.368228 -4.672505 -0.616380 41.333332
7.747643 -4.647082 -0.638249 47.000000
8.342131 -4.645084 -0.674542 17.000000
-6.348728 -4.575479 -0.689476 6.000000
-5.845710 -4.542645 -0.652264 46.000000
7.405821 -4.577499 -0.615065 40.000000
7.719043 -4.539618 -0.632635 30.000000
-5.639547 -4.482686 -0.634711 15.000000
-5.800307 -4.306127 -0.636466 35.000000
-5.616886 -4.388818 -0.628041 23.666666
7.559793 -4.366516 -0.616756 39.500000
-6.257720 -4.275133 -0.667711 20.000000
-5.565945 -4.200337 -0.614350 41.000000
-6.119454 -4.152533 -0.651562 28.000000
-5.926272 -4.158874 -0.637871 55.000000
-6.003291 -4.032615 -0.637169 35.000000
-5.641370 -4.045617 -0.611629 27.500000
-5.550788 -4.053644 -0.605573 31.000000
8.232903 -4.072532 -0.648890 4.000000
-6.219942 -3.941205 -0.648753 6.000000
-5.777548 -3.907339 -0.614525 25.500000
-5.652872 -3.927497 -0.606451 25.500000
-5.831269 -3.759424 -0.611278 43.250000
-6.297673 -3.612518 -0.611492 28.444445
-6.257487 -3.537433 -0.633307 34.000000
7.831955 -3.493632 -0.605857 53.333332
8.154592 -3.586383 -0.629347 35.333332
8.292078 -3.533450 -0.636770 22.000000
8.082986 -3.474396 -0.621548 52.000000
8.143342 -3.319920 -0.621266 57.000000
7.954461 -3.194460 -0.605575 56.000000
-8.806631 -3.101117 -0.659602 2.500000
-8.548194 -3.101154 -0.642407 1.000000
7.293909 -3.135266 -0.699481 42.000000
-9.384701 -3.031162 -0.696716 39.333332
-9.124866 -3.021292 -0.679052 52.000000
-8.910999 -2.981580 -0.663830 7.000000
-7.417938 -2.823751 -0.699306 15.000000
-7.342679 -2.828009 -0.693250 14.000000
-7.156971 -2.840823 -0.678418 7.500000
-6.415479 -2.838088 -0.618071 14.600000
8.147492 -2.810172 -0.608863 10.500000
-9.081378 -2.693473 -0.669186 34.000000
-8.983962 -2.695265 -0.662632 32.250000
-8.496535 -2.695261 -0.629723 12.000000
-7.441537 -2.726215 -0.698252 5.333333
7.360730 -2.695014 -0.690617 50.250000
-9.007737 -2.589760 -0.662139 40.000000
-8.857272 -2.506356 -0.650300 22.000000
-7.461645 -2.568501 -0.695269 1.250000
7.371096 -2.587765 -0.688291 45.750000
7.492447 -2.571083 -0.697901 31.000000
-8.800324 -2.420746 -0.644803 35.166668
-7.479624 -2.398572 -0.692050 5.000000
7.254692 -2.418355 -0.673749 37.200001
7.342365 -2.365860 -0.679646 28.000000
-8.629505 -2.238154 -0.629817 43.333332
-8.464535 -2.209616 -0.618024 50.500000
-7.493232 -2.248158 -0.689265 0.400000
7.262060 -2.289710 -0.670870 42.000000
7.367165 -2.246693 -0.678593 57.000000
-8.600285 -2.153877 -0.626340 51.000000
-7.508179 -2.124644 -0.687487 5.000000
-8.516720 -2.076230 -0.619293 42.000000
-8.604146 -1.902757 -0.622535 32.000000
-8.445288 -1.953754 -0.612387 45.583336
-7.535603 -1.957624 -0.685965 1.125000
-8.653975 -1.871056 -0.625494 20.000000
-8.445168 -1.798159 -0.609991 45.000000
-7.566166 -1.886457 -0.687019 0.000000
7.348638 -1.769679 -0.665955 24.000000
7.169807 -1.538546 -0.629918 52.875000
7.376871 -1.412412 -0.661743 80.500000
-7.785295 -1.227499 -0.694391 42.000000
-7.781795 -1.019011 -0.691465 17.666666
-7.849767 -0.936028 -0.696497 48.000000
-7.694349 -0.892990 -0.682455 41.000000
7.172221 -0.920293 -0.637098 42.400002
-7.684239 -0.830725 -0.680963 53.500000
7.330233 -0.884459 -0.650509 53.000000
-7.865155 -0.713015 -0.695795 36.000000
-7.734910 -0.750196 -0.684678 39.666668
7.320151 -0.720327 -0.648051 66.000000
-7.867356 -0.688304 -0.695795 40.000000
-7.784423 -0.607305 -0.687931 33.599998
7.171647 -0.682972 -0.634711 43.000000
7.348316 -0.583487 -0.649456 47.000000
6.993404 -0.433858 -0.617334 49.500000
9.376410 -0.478269 -0.663266 27.000000
9.449606 -0.452244 -0.668340 0.000000
-5.591802 -0.330254 -0.690959 0.000000
7.000259 -0.346038 -0.617509 46.500000
-5.723758 -0.267655 -0.605793 24.799999
-5.620941 -0.275239 -0.694191 16.400000
7.167760 -0.252808 -0.631903 53.000000
7.359679 -0.236431 -0.648753 49.000000
7.075215 -0.160581 -0.623527 44.000000
7.425318 -0.168504 -0.654370 39.000000
7.072335 -0.060460 -0.623126 28.000000
7.192098 0.000596 -0.633658 48.500000
7.367439 0.018002 -0.649104 30.000000
7.530541 0.065718 -0.663498 59.000000
7.180426 0.152904 -0.632780 37.500000
7.098255 0.296292 -0.625935 45.000000
7.223858 0.244689 -0.636818 23.000000
7.559137 0.232273 -0.666306 19.000000
7.373145 0.388991 -0.650509 78.000000
7.732501 0.383593 -0.682104 38.000000
6.990674 0.456948 -0.617229 50.000000
6.840250 0.661299 -0.605468 41.700001
7.002027 0.612598 -0.619265 48.000000
6.909526 0.762332 -0.612454 39.200001
-5.773955 0.862864 -0.617218 27.333334
6.951408 0.884236 -0.617392 43.833332
6.820432 0.971365 -0.606978 41.000000
-6.413542 1.103202 -0.688010 94.000000
-6.235135 1.072544 -0.668875 29.000000
-5.932640 1.020694 -0.610051 47.250000
6.916099 1.046218 -0.616281 43.750000
6.920798 1.180368 -0.618563 62.599998
7.014275 1.128528 -0.625935 56.000000
6.799612 1.225894 -0.608733 36.000000
6.907182 1.301491 -0.619265 43.500000
7.049291 1.385572 -0.632956 49.000000
7.087884 1.416299 -0.636818 34.000000
6.842599 1.535760 -0.617860 39.500000
7.206814 1.510834 -0.648753 37.000000
7.403156 1.515677 -0.665780 40.000000
7.015327 1.655768 -0.635062 48.000000
7.057964 1.783336 -0.641381 41.666668
7.244861 1.758071 -0.656828 82.000000
6.905829 1.915097 -0.610529 48.000000
7.056997 1.973004 -0.645594 69.000000
-5.828572 2.073672 -0.685248 38.571430
-5.938613 2.207566 -0.692126 41.733334
6.959475 2.135697 -0.641381 42.000000
-5.734695 2.507874 -0.661726 38.000000
-5.871309 2.655935 -0.681281 39.000000
6.933874 2.639472 -0.653668 64.000000
-7.027201 2.724285 -0.664024 11.500000
-7.194741 2.880604 -0.682806 2.000000
6.720890 2.821765 -0.610417 41.500000
-5.860142 2.991048 -0.695579 34.000000
6.738573 2.973487 -0.648929 35.000000
-6.250138 3.091501 -0.614350 60.000000
-6.068806 3.097551 -0.600308 0.000000
6.698866 3.095310 -0.650158 32.000000
6.955502 3.108433 -0.671221 99.000000
-6.582208 3.128278 -0.642083 105.000000
-6.435922 3.158478 -0.631639 27.500000
-7.042089 3.292762 -0.684912 3.000000
-6.769986 3.243632 -0.661391 28.000000
-6.290070 3.285573 -0.625233 25.500000
-6.114446 3.242901 -0.609786 5.000000
-6.704084 3.368872 -0.661040 23.000000
-6.296361 3.480121 -0.633834 19.500000
-5.941072 3.456419 -0.605573 14.000000
-5.865078 3.478217 -0.600776 22.000000
-6.267966 3.559222 -0.635062 20.333334
6.724406 3.568109 -0.670694 43.500000
-6.064150 3.774583 -0.629328 38.666668
6.675725 3.732502 -0.673854 44.250000
6.769512 3.715418 -0.680349 54.000000
6.943439 3.754303 -0.695444 40.000000
-6.167750 3.825653 -0.639450 37.000000
6.507886 3.856412 -0.666482 35.500000
6.643614 3.894654 -0.678506 39.500000
6.733714 3.848609 -0.683333 35.000000
6.663062 4.062301 -0.687545 45.000000
6.724760 4.056634 -0.691933 42.000000
6.536716 4.170766 -0.683157 21.000000
6.602849 4.232414 -0.690997 39.333332
6.515748 4.391619 -0.692285 48.000000
6.462775 5.689767 -0.608300 35.333332
6.447993 5.803848 -0.612880 36.250000
6.876246 5.864572 -0.638461 81.000000
6.486249 5.991346 -0.623803 35.599998
6.393717 6.014617 -0.620139 40.000000
6.365057 6.121061 -0.623859 46.000000
6.356196 6.268260 -0.630662 45.000000
6.748170 6.248875 -0.649736 102.000000
7.351235 6.229891 -0.680743 1.000000
6.217061 6.487623 -0.634796 40.000000
6.310189 6.461806 -0.638066 43.599998
6.425741 6.436979 -0.642548 43.500000
6.194936 6.671177 -0.643159 38.333332
6.264173 6.630014 -0.644380 39.500000
6.308587 6.945143 -0.662844 38.000000
6.256962 7.042405 -0.665521 38.333336
6.450433 7.034481 -0.674260 32.000000
6.284205 7.186002 -0.674401 39.000000
6.241552 7.228353 -0.674683 39.000000
6.262697 7.369153 -0.683210 31.500000
6.239782 7.471921 -0.687720 37.250000
6.238872 7.603489 -0.694837 33.500000
6.963856 9.141367 -0.611709 28.000000
7.207493 9.523104 -0.635735 78.000000
7.693651 10.232096 -0.681449 26.000000
-6.611648 11.360073 -0.699663 41.666668
-10.166125 35.523655 -0.682375 56.000000
-10.066435 35.597759 -0.683188 57.000000
-9.941645 35.582981 -0.682301 50.000000
-5.785733 -31.247456 -0.586877 1.000000
-5.785388 -30.706413 -0.577054 2.000000
-5.859244 -30.570251 -0.574838 46.000000
-5.939945 -30.473186 -0.573361 33.000000
8.025320 -29.805197 -0.570037 1.000000
8.002151 -29.351543 -0.561839 4.000000
-5.778302 -29.155857 -0.548914 41.000000
8.050691 -29.168198 -0.558811 2.000000
8.093859 -28.969431 -0.555487 9.000000
-5.803527 -28.808233 -0.542710 41.000000
-5.833042 -28.492085 -0.537096 44.000000
-5.823164 -27.995928 -0.528086 44.000000
-5.830063 -27.594028 -0.520848 35.000000
-5.919901 -27.173901 -0.513609 10.000000
-5.824433 -27.145441 -0.512723 12.000000
7.520017 -26.434448 -0.507553 6.500000
7.602296 -26.252758 -0.504746 18.000000
3.822604 -16.208656 -0.596680 3.000000
3.508832 -16.119926 -0.591094 10.500000
3.751746 -16.134928 -0.593529 17.000000
4.444620 -16.103159 -0.598541 35.000000
4.481204 -16.039066 -0.596680 25.000000
3.550004 -15.947161 -0.585365 30.000000
3.627262 -15.939993 -0.585723 19.500000
4.545097 -15.788239 -0.588659 18.000000
4.617208 -15.758992 -0.588372 13.000000
-5.254179 -15.621490 -0.590521 36.000000
-5.234026 -15.322289 -0.580137 43.500000
4.707044 -15.348125 -0.575196 11.000000
-5.265745 -15.104134 -0.573119 39.000000
4.481526 -15.119691 -0.565027 0.000000
4.544680 -15.071584 -0.564024 20.000000
-5.300179 -14.975545 -0.569180 41.000000
-5.301448 -14.830838 -0.564310 36.000000
4.601306 -14.836918 -0.556576 4.000000
4.649091 -14.826203 -0.556719 2.000000
-5.296435 -14.671234 -0.558868 39.000000
-5.311010 -14.568143 -0.555574 35.000000
7.675156 -14.526434 -0.588659 35.666668
-5.284941 -14.356317 -0.548126 35.000000
-5.289628 -14.230979 -0.543972 38.000000
7.803082 -14.276198 -0.582930 38.000000
8.399694 -14.231440 -0.592096 8.000000
7.736822 -13.997900 -0.573047 44.000000
-5.228970 -13.933599 -0.533230 37.000000
7.804651 -13.964752 -0.573191 53.500000
-5.189159 -13.696553 -0.524780 33.000000
7.751088 -13.641587 -0.562162 41.500000
8.440900 -13.608474 -0.573763 23.000000
-5.223650 -13.530663 -0.519672 34.666668
-5.254053 -13.358702 -0.514325 35.000000
-5.317074 -13.273474 -0.512319 39.000000
-5.254701 -13.238097 -0.510314 35.000000
7.637098 -13.174715 -0.545619 41.500000
-5.262869 -13.019513 -0.503153 33.000000
7.672663 -13.062170 -0.542779 25.333334
-5.422968 -12.944980 -0.502867 46.000000
7.821601 -12.698928 -0.534376 19.000000
7.834066 -12.630132 -0.532514 9.000000
7.723348 -12.364739 -0.522345 74.000000
7.822340 -12.264440 -0.521199 40.000000
7.570599 -12.035881 -0.509455 54.000000
7.631904 -12.049186 -0.511030 41.000000
7.799394 -12.060638 -0.514611 63.000000
7.763079 -11.922183 -0.509741 50.000000
7.580010 -11.802547 -0.502580 45.000000
7.693099 -11.733929 -0.502723 55.000000
8.441452 -11.412135 -0.508596 9.000000
8.433079 -11.178890 -0.501721 37.000000
-5.284498 -9.888674 -0.596826 29.000000
-5.236004 -9.724312 -0.587896 35.000000
-5.188433 -9.563867 -0.579178 37.000000
-5.183970 -9.484429 -0.575351 33.000000
-2.348436 -9.453100 -0.518490 13.142858
-2.273757 -9.485466 -0.519219 5.333333
-5.148417 -9.314802 -0.566527 30.500000
-5.169152 -9.147637 -0.559298 27.000000
-5.173800 -9.023195 -0.553664 29.000000
-5.182045 -8.875342 -0.547072 34.000000
-5.191421 -8.733082 -0.540800 33.500000
-5.198924 -8.560818 -0.533146 31.500000
-5.136927 -8.549284 -0.530913 29.000000
-5.197687 -8.409309 -0.526236 30.333334
-5.179600 -8.234678 -0.517837 32.000000
7.427730 -8.252416 -0.591014 47.666668
-5.410802 -8.168633 -0.521558 33.000000
-5.181242 -8.095641 -0.511636 33.000000
7.465705 -8.138853 -0.587896 15.500000
-5.215137 -7.981759 -0.507525 31.333334
7.424607 -7.955094 -0.579231 35.250000
7.559252 -7.960356 -0.584352 68.666664
7.975833 -7.936949 -0.598952 32.000000
-5.249364 -7.791299 -0.500083 33.500000
7.472050 -7.819158 -0.575705 44.500000
-5.512925 -7.754594 -0.506462 32.500000
7.476206 -7.613111 -0.567980 35.666668
7.811871 -7.676705 -0.583005 52.000000
7.586064 -7.501798 -0.567909 67.000000
7.758791 -7.576777 -0.577265 38.000000
7.430619 -7.487903 -0.561531 12.000000
8.101883 -7.429212 -0.585132 42.000000
7.547503 -7.324263 -0.559830 68.000000
7.990437 -7.373364 -0.578753 53.000000
7.526495 -7.212461 -0.554897 72.400002
7.636485 -7.091295 -0.554727 55.000000
7.531724 -7.082798 -0.550347 37.799999
8.369686 -6.845632 -0.575564 10.000000
7.861977 -6.724260 -0.550687 45.000000
7.943936 -6.751261 -0.554939 57.000000
-5.295981 -6.601014 -0.597870 38.000000
-5.280902 -6.646229 -0.599702 29.000000
7.399452 -6.615936 -0.528362 37.571430
7.488983 -6.653706 -0.533252 67.000000
7.654569 -6.630457 -0.539064 45.000000
7.425549 -6.514323 -0.525810 35.000000
7.742326 -6.538143 -0.539418 64.000000
7.824026 -6.565138 -0.543671 65.000000
-5.523944 -6.450356 -0.599956 34.599998
-5.304909 -6.485950 -0.591950 34.000000
-5.276860 -6.479574 -0.590353 37.333332
-5.252534 -6.299756 -0.579454 35.666668
-5.410388 -6.245923 -0.583776 31.000000
-5.696386 -6.186465 -0.594112 52.666668
-5.541068 -6.119526 -0.583212 52.000000
-5.369680 -6.159719 -0.577293 19.000000
7.461620 -6.150347 -0.514728 39.291664
7.752871 -6.140445 -0.526448 64.000000
-5.317499 -6.023226 -0.567615 32.333332
7.530424 -6.022241 -0.513266 24.500000
-5.287089 -5.913288 -0.560380 34.000000
7.489615 -5.893746 -0.507312 58.000000
7.703148 -5.983791 -0.519219 35.000000
-5.958955 -5.839516 -0.589414 88.000000
-5.848509 -5.803768 -0.582085 91.000000
-5.464089 -5.810528 -0.563480 43.000000
-5.297634 -5.887750 -0.559534 32.000000
7.608070 -5.871707 -0.511565 28.000000
-5.463941 -5.755762 -0.560662 37.500000
-5.342384 -5.771270 -0.555588 24.000000
7.547324 -5.749572 -0.505045 60.000000
-5.733186 -5.653689 -0.568836 30.000000
-5.715850 -5.548729 -0.562776 26.000000
-5.468560 -5.495349 -0.547695 33.000000
-5.382308 -5.546437 -0.546004 33.200001
7.742675 -5.522797 -0.506249 35.000000
7.867538 -5.574651 -0.513266 50.000000
8.088211 -5.579683 -0.523046 47.000000
-5.494266 -5.486601 -0.548541 35.000000
-5.389546 -5.450087 -0.541494 32.000000
7.767772 -5.449257 -0.505080 73.000000
-6.109995 -5.311337 -0.571937 31.000000
-5.662920 -5.243967 -0.545252 47.000000
-5.520851 -5.125252 -0.532192 13.200000
-5.388600 -5.149383 -0.526554 25.666666
-5.831390 -5.005173 -0.542903 16.000000
-6.649519 -4.952789 -0.585749 3.000000
-5.606778 -4.904907 -0.526272 52.000000
-5.401257 -4.914062 -0.592110 27.799999
-5.628427 -4.861756 -0.525427 54.000000
-5.459232 -4.842911 -0.541041 24.600000
-5.499465 -4.616240 -0.507245 28.500000
-5.424741 -4.611949 -0.503017 29.500000
-6.589215 -4.501602 -0.563762 5.000000
-5.476545 -4.524231 -0.501842 32.333332
8.359744 -4.501258 -0.505399 19.000000
-5.513335 -4.439178 -0.500057 33.000000
-6.496062 -4.260624 -0.548823 5.000000
-5.817433 -4.253711 -0.509134 36.400002
-5.678017 -4.248951 -0.589242 35.714287
-5.754361 -4.101604 -0.581309 38.333332
7.302370 -4.141583 -0.593078 31.000000
7.322653 -4.137962 -0.594205 31.500000
7.273507 -4.050228 -0.588145 33.000000
-6.389075 -3.909138 -0.529147 17.799999
7.287039 -3.938465 -0.585185 39.500000
7.339841 -3.922372 -0.587934 44.750000
-6.409614 -3.811806 -0.526836 35.000000
-6.083700 -3.845906 -0.550576 40.333332
-5.990031 -3.875126 -0.504004 49.000000
-6.256639 -3.694271 -0.513306 39.000000
-5.635023 -3.708524 -0.594340 39.000000
7.286325 -3.757590 -0.579172 39.000000
7.311581 -3.789963 -0.581803 41.000000
-9.867476 -3.667751 -0.560361 5.000000
-6.169312 -3.636212 -0.568482 19.250000
7.282903 -3.688437 -0.576729 32.000000
7.347416 -3.623751 -0.578773 36.375000
7.551070 -3.647060 -0.592420 49.000000
-6.416759 -3.502040 -0.548312 17.250000
-6.381973 -3.568244 -0.516547 37.000000
-5.805242 -3.526845 -0.598465 37.750000
-5.729801 -3.567882 -0.594691 30.500000
7.393682 -3.513839 -0.578326 37.333332
-6.156023 -3.448340 -0.590745 37.000000
-5.731236 -3.481906 -0.590829 28.000000
7.491349 -3.462799 -0.583043 36.400002
-8.999396 -3.232888 -0.509013 0.000000
-8.974670 -3.271831 -0.508482 4.000000
-10.060652 -3.139299 -0.560999 4.500000
-9.341759 -3.114826 -0.524180 16.333332
7.319346 -3.118946 -0.562071 10.000000
7.497641 -3.153214 -0.574615 105.000000
7.521213 -3.020232 -0.572595 67.666664
7.699989 -2.999005 -0.583776 57.000000
7.892977 -3.002994 -0.596601 14.500000
7.605142 -2.934580 -0.575883 49.000000
-9.514948 -2.854622 -0.528787 43.000000
-9.429488 -2.861301 -0.524535 40.000000
-9.145514 -2.806541 -0.509226 17.000000
-7.404383 -2.845241 -0.560380 19.000000
-7.345684 -2.833193 -0.556208 12.000000
-7.163122 -2.843271 -0.544454 6.500000
-7.037842 -2.844844 -0.536279 3.000000
-6.869640 -2.839755 -0.525145 4.333333
-6.703279 -2.845252 -0.578036 8.000000
-6.556950 -2.844198 -0.567323 5.500000
7.669820 -2.876786 -0.578702 39.000000
-7.427533 -2.740912 -0.559323 5.500000
-9.094358 -2.604330 -0.503556 46.333332
-9.083868 -2.678663 -0.504123 50.500000
7.263323 -2.672396 -0.546756 46.333332
7.415745 -2.636197 -0.556011 23.500000
7.655908 -2.681061 -0.573064 72.000000
8.011076 -2.595101 -0.594910 9.500000
-7.436057 -2.559787 -0.555588 2.000000
7.277136 -2.582762 -0.545534 28.000000
7.860785 -2.569205 -0.584246 11.666667
-7.459494 -2.418010 -0.553990 2.333333
7.295472 -2.477899 -0.544313 11.000000
7.329695 -2.463867 -0.546286 13.000000
7.831480 -2.469256 -0.580112 15.000000
7.553250 -2.329457 -0.558407 64.000000
-7.494243 -2.242001 -0.552628 0.750000
7.290682 -2.273587 -0.539521 15.000000
7.419320 -2.262651 -0.547977 47.000000
-7.507001 -2.124337 -0.551172 4.333333
7.192922 -2.156638 -0.530500 27.500000
-7.521191 -1.976031 -0.549386 2.000000
-7.807485 -1.868648 -0.567145 114.000000
-7.574531 -1.812790 -0.550232 3.000000
-8.323561 -1.676835 -0.599843 43.750000
-7.841571 -1.643903 -0.566017 79.000000
-7.565891 -1.635804 -0.546849 6.000000
7.210163 -1.659248 -0.572648 45.444443
-8.239633 -1.565834 -0.592514 57.000000
-8.083237 -1.522702 -0.581098 60.000000
7.494678 -1.541122 -0.540554 61.666668
7.642798 -1.550832 -0.550937 50.500000
-8.120350 -1.411416 -0.582273 52.000000
-7.860135 -1.468143 -0.564890 80.000000
-8.166094 -1.340176 -0.584622 34.000000
-7.948701 -1.368520 -0.569823 53.500000
7.177125 -1.364403 -0.552702 43.714287
-8.038309 -1.215559 -0.574333 37.000000
-7.949564 -1.202258 -0.567991 37.000000
-7.776316 -1.226084 -0.556152 23.000000
7.095626 -1.197538 -0.550182 41.555557
7.162546 -1.232076 -0.513447 41.500000
7.333742 -1.237776 -0.525427 60.000000
-8.210098 -1.118810 -0.585373 28.000000
-8.166251 -1.182594 -0.582930 30.000000
-8.039917 -1.095587 -0.573252 33.666668
-7.923972 -1.071363 -0.564890 40.000000
-7.748509 -0.998105 -0.551923 18.000000
7.096030 -1.066247 -0.569574 44.500000
7.213655 -1.043630 -0.578056 48.000000
-7.784931 -0.903549 -0.553671 34.400002
7.117581 -0.914053 -0.524911 48.000000
-7.792598 -0.768208 -0.553192 30.333334
7.155261 -0.769590 -0.556798 50.557144
-7.735080 -0.617996 -0.548203 34.799999
-7.685444 -0.599460 -0.544594 30.000000
7.123297 -0.608905 -0.557075 45.666668
-7.807812 -0.510349 -0.552769 33.666668
-7.872909 -0.448462 -0.557091 19.333334
7.069217 -0.483349 -0.582948 45.500000
-7.767067 -0.385307 -0.549386 17.000000
-7.685622 -0.332872 -0.543467 0.000000
7.086905 -0.323146 -0.572048 35.857143
7.764871 -0.347169 -0.549105 46.000000
8.006857 -0.383196 -0.566299 27.000000
-5.939364 -0.257241 -0.523777 12.166667
-5.814110 -0.196967 -0.512543 30.666666
7.669618 -0.282660 -0.542198 50.000000
-5.673717 -0.153568 -0.566597 42.666668
-5.633706 -0.002806 -0.595619 49.846153
-5.586443 -0.066323 -0.590654 42.000000
-5.581977 0.100354 -0.590233 48.000000
-5.637592 0.155418 -0.596255 52.636364
7.130440 0.129373 -0.587089 45.000000
-5.650419 0.273929 -0.598097 54.799999
-5.551118 0.283208 -0.587640 47.333332
-5.663971 0.441722 -0.582450 59.000000
7.059216 0.431879 -0.540568 34.666668
-5.694407 0.578460 -0.566300 52.307693
7.043056 0.571626 -0.587054 44.857143
-5.900692 0.655612 -0.523075 27.000000
-5.776303 0.660135 -0.537905 42.125000
-5.682387 0.746194 -0.553003 39.238094
7.077709 0.727005 -0.502651 43.599998
-5.718575 0.854653 -0.555787 33.636364
7.041117 0.844062 -0.525630 52.400002
7.275551 0.821227 -0.517252 51.000000
-6.191995 0.945296 -0.551862 23.000000
-5.984648 0.932826 -0.560397 18.750000
-6.271250 1.078726 -0.560638 37.000000
-6.160667 1.039787 -0.550457 45.000000
-5.752925 1.060481 -0.534823 49.187500
-5.805678 1.193546 -0.566416 31.538462
7.166410 1.268791 -0.514151 54.000000
-5.922071 1.337831 -0.588519 43.500000
-5.816092 1.343834 -0.594400 35.549999
-6.645343 1.468369 -0.599605 4.000000
-6.157551 1.421584 -0.556776 101.000000
-5.954661 1.414207 -0.539224 64.000000
-5.810517 1.476820 -0.581239 46.142857
6.933319 1.510406 -0.594065 53.000000
-5.909718 1.681197 -0.541330 57.000000
-5.838253 1.638169 -0.580040 38.607143
6.916251 1.627296 -0.543293 44.222221
-5.739549 1.786480 -0.581158 41.388161
6.901239 1.777051 -0.545058 44.888889
-7.212167 1.832996 -0.525708 1.000000
-5.998940 1.829480 -0.552564 8.000000
6.839464 1.819896 -0.561629 47.500000
-5.797722 1.940591 -0.583641 46.250000
6.834297 1.952560 -0.551858 49.400002
-5.807734 2.095601 -0.543988 41.571430
6.782740 2.084882 -0.567970 43.230770
-5.790787 2.196324 -0.545660 35.666668
6.749423 2.250562 -0.585368 47.111111
-5.930958 2.402535 -0.563798 35.571430
-5.888153 2.331777 -0.557970 36.000000
6.679041 2.383625 -0.542311 43.666668
6.747192 2.373037 -0.583337 45.875000
-5.913887 2.465320 -0.564500 39.000000
-7.324999 2.539371 -0.547695 0.000000
-5.838926 2.524334 -0.560463 36.333332
6.676237 2.565466 -0.546966 40.333332
6.737851 2.519557 -0.571032 45.125000
-5.924786 2.667367 -0.572474 47.428570
-5.733193 2.653449 -0.556601 33.250000
6.747540 2.696386 -0.572069 44.615383
6.633625 2.742314 -0.507104 49.000000
6.676974 2.841365 -0.566900 41.000000
6.669940 2.987642 -0.562707 38.454544
-6.021685 3.145385 -0.598552 41.000000
6.646357 3.136545 -0.574037 35.000000
6.770663 3.154335 -0.527682 68.000000
-7.372116 3.306975 -0.570809 1.000000
-5.968172 3.249925 -0.598728 38.000000
6.681982 3.267684 -0.525483 45.799999
6.707324 3.358777 -0.529937 43.000000
-7.149933 3.439510 -0.560521 6.500000
6.747729 3.458956 -0.535687 44.599998
-6.687384 3.519892 -0.533883 1.000000
-6.157356 3.574580 -0.502989 23.200001
6.637347 3.575427 -0.532614 38.166668
6.717025 3.523527 -0.535856 41.000000
-5.977816 3.786227 -0.592396 40.000000
6.641194 3.740706 -0.538487 37.833332
-7.034038 3.902241 -0.568272 8.000000
-5.953807 3.877923 -0.558162 43.272728
6.647092 3.903882 -0.544594 36.000000
6.734930 3.919822 -0.550514 48.000000
-5.944338 4.045928 -0.570866 40.200001
6.631813 4.051992 -0.549048 39.000000
6.593077 4.177747 -0.551416 38.400002
6.833107 4.121993 -0.563762 58.000000
6.578495 4.325802 -0.556222 37.750000
6.590179 4.464563 -0.562353 42.750000
6.616762 4.606229 -0.569569 40.200001
-3.958733 4.776772 -0.546596 1.500000
6.609390 4.779112 -0.576212 38.166668
6.576959 4.898759 -0.579360 38.666668
6.533665 4.962954 -0.579642 38.000000
6.535865 5.078891 -0.584763 36.799999
6.490239 5.242616 -0.589414 49.250000
6.383246 5.409557 -0.591105 37.000000
6.450449 5.362880 -0.592627 41.400002
6.347537 5.500266 -0.593360 45.500000
6.418769 5.509328 -0.597588 39.000000
6.200858 7.068234 -0.500509 35.000000
6.296428 7.042241 -0.502847 38.000000
6.283751 7.162827 -0.507206 34.500000
6.245243 7.209705 -0.507738 36.000000
6.262055 7.321677 -0.512841 37.000000
6.233927 7.429306 -0.516243 38.000000
6.326819 7.492082 -0.521983 49.000000
6.353237 7.644495 -0.529106 35.500000
6.422565 7.802287 -0.537930 35.000000
6.348195 7.811471 -0.535804 36.000000
6.380205 7.978091 -0.543777 35.000000
6.420683 8.106698 -0.550474 35.000000
6.467415 8.245312 -0.557810 35.000000
6.584131 8.475986 -0.571311 47.000000
6.366679 8.635553 -0.571099 14.000000
6.422341 8.654000 -0.573650 17.000000
6.457529 8.816635 -0.581730 0.000000
6.631174 8.876987 -0.589809 37.000000
6.807104 8.848857 -0.594274 24.000000
-3.120381 9.277380 -0.521026 20.250000
-3.214667 9.314945 -0.524535 20.000000
-3.099047 9.459186 -0.529850 22.000000
-3.100109 9.563868 -0.535166 19.000000
-3.105902 9.738213 -0.544096 17.500000
-3.112675 9.920418 -0.553451 16.000000
-3.118189 10.048410 -0.560042 16.000000
-3.122935 10.176533 -0.566634 15.000000
-3.130385 10.316249 -0.573863 14.000000
-3.142722 10.475242 -0.582155 13.000000
-3.155231 10.638242 -0.590660 11.000000
-3.166742 10.801422 -0.599164 28.000000
-3.550656 13.915291 -0.514554 49.400002
-3.402384 13.936394 -0.514002 45.750000
-3.325282 14.099896 -0.519051 10.000000
-3.129297 14.057282 -0.515996 7.000000
-3.303600 14.207613 -0.522632 10.000000
4.006670 26.777287 -0.500020 38.000000
3.927162 26.821398 -0.500610 6.000000
9.341910 27.207987 -0.531262 44.000000
9.471902 27.306971 -0.533773 75.000000
9.302714 27.373518 -0.533920 44.000000
9.581448 27.345016 -0.535102 45.000000
9.728686 27.488209 -0.538500 49.000000
10.660343 27.483902 -0.544408 73.000000
10.817530 27.504122 -0.545812 70.000000
10.444137 27.566826 -0.544408 26.000000
10.537831 27.552555 -0.544778 46.000000
4.046518 27.636566 -0.515825 41.000000
9.298270 27.645210 -0.538647 21.000000
9.934805 27.792679 -0.545073 6.000000
10.098427 27.790352 -0.546058 56.666668
3.982921 27.811455 -0.518853 41.000000
10.273670 27.907986 -0.549209 22.000000
3.915492 27.966417 -0.521512 32.000000
3.863933 28.244062 -0.526461 25.000000
3.816494 28.565260 -0.532222 15.000000
3.766040 28.878508 -0.537835 14.000000
3.642363 28.995100 -0.539681 9.500000
-5.589599 -25.657726 -0.484953 8.000000
7.513807 -25.645372 -0.493520 46.000000
-5.445312 -25.574223 -0.482884 2.500000
4.258336 -25.474131 -0.476976 2.000000
4.365245 -25.457352 -0.477000 45.333332
7.563069 -25.370134 -0.488904 25.000000
-5.636838 -25.114809 -0.475351 11.000000
-5.558778 -25.136297 -0.475425 11.000000
7.539303 -24.861555 -0.479782 13.000000
7.573985 -24.696278 -0.477050 33.000000
-5.602926 -24.601746 -0.465971 36.000000
7.563865 -24.389694 -0.471584 3.000000
-5.609062 -24.276184 -0.460136 30.000000
7.555490 -24.094866 -0.466340 6.000000
7.616647 -24.025265 -0.465454 22.000000
-5.700447 -23.983660 -0.455262 6.000000
-5.584918 -23.830124 -0.452012 37.000000
7.613971 -23.757471 -0.460727 27.000000
7.594899 -23.444281 -0.455114 29.000000
7.644864 -23.348093 -0.453711 37.000000
7.662895 -23.156900 -0.450461 23.000000
7.695021 -23.011339 -0.448097 33.000000
7.992785 -22.939262 -0.448614 45.000000
8.058173 -22.895178 -0.448245 38.000000
7.731429 -22.880960 -0.446029 48.000000
7.828789 -22.813978 -0.445438 41.500000
8.142452 -22.791000 -0.446953 38.000000
8.305272 -22.793903 -0.448023 37.000000
8.395998 -22.709513 -0.447137 40.000000
-5.797508 -22.645653 -0.431701 16.000000
8.428141 -22.578114 -0.445069 33.000000
8.510314 -22.581463 -0.445660 30.000000
8.483081 -22.296700 -0.440564 13.000000
-5.841883 -21.546276 -0.412276 4.000000
-5.655226 -21.525702 -0.411021 13.500000
-5.456396 -21.453211 -0.408805 2.000000
-5.722443 -21.371363 -0.408583 31.000000
-5.496817 -21.331398 -0.406811 6.000000
-5.800463 -20.873352 -0.400090 28.000000
7.849614 -20.247990 -0.401050 33.000000
13.946492 -18.854488 -0.433104 7.000000
14.017223 -18.764502 -0.432550 6.000000
17.185848 -17.990248 -0.459471 1.000000
17.256140 -17.950584 -0.459841 2.000000
17.407642 -17.881926 -0.460875 1.000000
17.620461 -17.762499 -0.462056 0.000000
18.191187 -17.438629 -0.465380 1.000000
18.257465 -17.392427 -0.465676 0.000000
18.936504 -16.990742 -0.469849 4.500000
19.093784 -16.916500 -0.471104 3.000000
18.553986 -16.231426 -0.455262 3.500000
18.632954 -16.094864 -0.454708 7.500000
-5.322935 -12.876181 -0.499214 44.000000
-5.256944 -12.888173 -0.498713 40.000000
-5.370241 -12.706952 -0.494273 36.000000
-5.586922 -12.661262 -0.495848 33.000000
-5.408792 -12.631887 -0.492339 34.000000
-5.483027 -12.532260 -0.490119 41.000000
-5.567931 -12.354576 -0.485536 56.000000
-5.370452 -12.380729 -0.483531 31.000000
-5.679886 -12.241858 -0.483531 17.000000
-5.340625 -12.000872 -0.470641 65.000000
-5.329019 -11.677258 -0.459899 71.000000
7.644038 -11.579594 -0.497137 62.000000
-5.366203 -11.377980 -0.450732 39.000000
7.554253 -11.365759 -0.488974 35.000000
7.703671 -11.356915 -0.491695 48.000000
-5.336694 -11.223881 -0.445290 48.000000
-5.231733 -11.275778 -0.445376 39.000000
7.577581 -11.285255 -0.487040 35.000000
7.707751 -11.286441 -0.489690 42.000000
-5.339100 -11.138570 -0.442568 34.000000
7.731504 -11.095228 -0.484534 59.000000
-5.540912 -11.021672 -0.441995 35.000000
7.773394 -11.007248 -0.482815 49.000000
-5.380817 -10.916042 -0.436052 34.000000
-5.276670 -10.920184 -0.434548 29.000000
7.566736 -10.968667 -0.477444 41.000000
7.642355 -10.894169 -0.476799 49.000000
-5.740714 -10.819480 -0.438845 28.000000
-5.494209 -10.843747 -0.435550 38.000000
-5.385341 -10.881739 -0.435025 29.333334
7.731501 -10.875257 -0.478088 56.000000
-6.255207 -10.754051 -0.445755 14.416666
-6.094986 -10.715998 -0.441709 33.000000
6.393531 -10.755100 -0.448297 34.000000
6.611989 -10.735036 -0.451735 10.000000
-5.985292 -10.626520 -0.436983 36.000000
-5.829583 -10.621537 -0.434118 36.250000
-5.715061 -10.649649 -0.433044 32.500000
-5.499362 -10.686970 -0.430633 31.333334
6.462747 -10.679701 -0.447259 65.000000
7.616735 -10.642870 -0.468922 53.000000
-5.866045 -10.491750 -0.430681 36.000000
7.629104 -10.589698 -0.467633 47.000000
-5.467116 -10.462079 -0.422946 27.000000
7.583673 -10.422696 -0.461832 40.500000
8.547764 -10.417336 -0.482815 23.000000
7.659282 -10.354790 -0.461474 50.799999
7.863807 -10.356427 -0.465914 96.000000
7.693097 -10.264887 -0.459612 30.000000
7.827314 -10.208266 -0.460901 58.000000
-5.354682 -10.168962 -0.411775 68.000000
8.394226 -10.035819 -0.468779 8.000000
-5.270440 -9.933158 -0.402895 3.000000
7.706388 -9.888682 -0.449193 52.000000
7.848414 -9.877421 -0.452021 29.000000
8.415553 -9.808195 -0.463050 10.000000
7.708357 -9.763978 -0.445719 131.000000
8.205748 -9.624691 -0.453167 23.000000
8.366886 -9.628396 -0.457034 2.000000
7.627246 -9.537404 -0.437555 61.000000
8.358555 -9.497614 -0.453310 3.000000
7.604536 -9.448000 -0.434548 43.000000
7.834655 -9.487316 -0.440850 82.000000
7.585922 -9.334505 -0.430967 42.000000
7.680563 -9.360459 -0.433832 9.000000
7.624249 -9.173673 -0.427386 112.000000
7.547784 -8.937860 -0.419151 86.000000
7.424774 -8.876779 -0.414639 16.000000
7.477075 -8.659216 -0.409913 26.000000
7.454706 -8.551591 -0.406475 18.000000
8.403260 -8.578133 -0.430251 0.000000
