# This PCD file was generated using the MATLAB® pcwrite function
# from Computer Vision Toolbox®.
# .PCD v.7 - Point Cloud Data file format
VERSION .7
FIELDS x y z intensity
SIZE 4 4 4 4
TYPE F F F F
COUNT 1 1 1 1
WIDTH 1238
HEIGHT 1
VIEWPOINT 0 0 0 1 0 0 0
POINTS 1238
DATA ascii
-11.084446 -4.390816 1.868710 45.500000
-12.918665 -3.954567 1.875923 16.000000
-12.868636 -3.741138 1.860794 22.000000
-12.803832 3.263659 1.834664 78.000000
-13.054375 3.371230 1.872072 81.000000
-13.201170 3.475549 1.895452 51.500000
-13.120545 3.564757 1.887842 75.000000
-13.083934 3.643253 1.885825 90.000000
-13.113727 3.785086 1.895177 0.000000
-13.091373 3.711913 1.889401 67.500000
-9.661278 4.464102 1.859380 19.333332
-9.374562 4.499590 1.816699 36.000000
-9.591154 4.603684 1.858691 20.500000
-9.703028 4.770201 1.888981 30.333334
-9.549487 4.769528 1.864887 31.000000
-9.662288 4.882893 1.891390 10.000000
-14.835413 4.969660 1.894722 10.500000
-12.692829 4.953832 1.891876 32.000000
-4.633848 4.962505 1.814596 13.200000
-9.579895 5.063742 1.893111 23.000000
-4.624331 5.066063 1.833186 12.000000
-14.644886 5.240741 1.883661 4.000000
-9.127739 5.395930 1.852496 13.500000
-9.027785 5.394461 1.837351 16.000000
4.092256 5.385499 1.807711 11.666667
4.213032 5.344206 1.818727 13.000000
-6.943695 5.571852 1.879049 15.000000
4.098189 5.548505 1.843514 18.000000
4.154298 5.569410 1.856940 21.000000
-9.231185 5.674624 1.893111 2.000000
-8.914883 5.675035 1.846300 25.000000
-3.851971 5.687048 1.835768 11.000000
-9.130836 5.785635 1.888522 11.333333
-6.919798 5.718472 1.894675 27.666666
-3.970590 5.706554 1.857973 34.000000
-3.794999 5.718430 1.834219 9.000000
-8.683417 5.859232 1.830122 21.500000
-8.961601 5.985685 1.882785 7.000000
-8.689150 5.936137 1.838498 16.333334
-9.055880 6.007603 1.898619 2.000000
-3.714593 6.040347 1.895153 23.000000
-8.618499 6.136150 1.848365 17.000000
-4.282044 6.195601 1.869822 36.000000
4.057173 6.113478 1.821631 22.000000
-8.691856 6.250335 1.870394 10.000000
-4.259365 6.225319 1.872714 36.500000
-8.761550 6.342302 1.889669 8.000000
4.114804 6.372705 1.883316 43.000000
-8.652696 6.430748 1.883474 6.000000
-6.235782 6.434830 1.891233 5.000000
-6.088424 6.483453 1.877190 6.000000
-3.515320 6.418202 1.816812 1.000000
3.265275 6.483818 1.802354 0.000000
-6.106063 6.584761 1.895363 1.500000
3.319012 6.539302 1.820667 2.000000
4.696456 6.572050 1.855373 13.000000
-3.427714 6.701600 1.868858 8.500000
-3.357667 6.615460 1.841871 7.000000
3.626786 6.671376 1.885244 17.000000
-3.254097 6.740314 1.858256 1.000000
2.860998 6.756475 1.821631 44.000000
4.509697 6.795357 1.873282 9.000000
2.515245 6.884398 1.819703 1.000000
3.025160 6.901323 1.870786 23.000000
-13.432044 6.971439 1.832687 8.000000
2.502053 6.984123 1.841871 1.000000
-16.189682 7.029399 1.825183 5.000000
-16.065126 7.095619 1.816131 16.000000
-5.076126 7.056378 1.834649 33.000000
3.024752 7.020022 1.897773 42.000000
3.852226 7.033320 1.841941 10.000000
-16.324238 7.148853 1.842875 5.000000
-13.521473 7.126046 1.850961 51.000000
-4.703085 7.184329 1.812346 0.000000
-16.504337 7.351657 1.868385 2.000000
-13.164858 7.366635 1.826916 38.000000
-13.382273 7.571340 1.862021 6.000000
-13.205435 7.608803 1.845671 17.000000
-13.025959 7.651413 1.829481 33.666668
-13.028135 7.893228 1.844709 16.000000
-13.402514 7.948344 1.887028 7.000000
-8.305728 7.970477 1.804293 9.000000
-13.303079 8.174513 1.890875 3.000000
-13.057270 8.193987 1.866830 8.000000
-10.249006 8.181673 1.820910 8.000000
-8.828188 8.192174 1.887704 7.666667
-8.748597 8.186791 1.878001 6.000000
-8.366014 8.129910 1.828449 3.000000
-8.359842 8.226572 1.838359 8.000000
-4.028659 8.526548 1.817883 1.000000
-12.227943 8.616283 1.811527 8.000000
-8.446905 8.686142 1.899060 1.000000
-3.843390 8.620250 1.819397 2.000000
-8.097172 8.756403 1.869329 27.000000
-12.437521 9.029692 1.861300 14.000000
-12.601371 9.239708 1.892318 4.000000
-12.335120 9.592264 1.892318 41.000000
-11.695004 9.544985 1.828118 46.000000
-12.018353 9.611291 1.863624 15.666667
-12.003897 9.703232 1.869235 26.000000
-11.865947 9.778052 1.862021 33.000000
-11.637581 9.733975 1.837335 19.333334
-9.227630 9.792122 1.868221 8.000000
-11.844337 9.822890 1.863464 38.000000
-9.188699 9.812386 1.866571 1.000000
-8.569393 9.840560 1.811833 0.000000
-11.742136 9.926391 1.862021 3.000000
-11.243576 13.800731 1.840818 0.000000
-11.136692 13.846303 1.837526 0.000000
-9.814507 15.084187 1.860979 5.000000
-9.706649 15.125459 1.858510 4.000000
-9.703985 15.226343 1.867151 3.000000
-9.622062 15.202961 1.860567 2.000000
-9.959263 15.412363 1.897598 31.000000
-12.426203 16.922422 1.802837 1.000000
2.755861 17.618673 1.844110 6.000000
2.823742 17.688511 1.852339 29.000000
2.901043 17.813072 1.866328 29.000000
3.009141 18.117870 1.899244 24.000000
5.055154 20.381163 1.803179 37.000000
4.166759 20.646221 1.808655 9.000000
5.297221 20.796991 1.842877 2.000000
4.884253 20.807783 1.835348 6.000000
5.066324 20.846214 1.842193 18.500000
2.937662 20.929060 1.814815 15.000000
3.337903 20.909327 1.818237 69.000000
3.406779 20.918406 1.819948 18.000000
4.677744 20.961332 1.844246 4.000000
4.780895 20.958513 1.845957 11.000000
2.624302 21.099174 1.825766 22.000000
3.570080 21.085197 1.836375 4.000000
1.624431 21.159639 1.822344 3.000000
3.509045 21.127760 1.839113 30.000000
6.043643 21.202326 1.893184 11.000000
6.112431 21.190891 1.893869 11.000000
3.327012 21.270142 1.848695 47.000000
5.852000 21.289085 1.895922 7.000000
5.974843 21.213537 1.892500 7.000000
5.608912 21.319363 1.893013 12.000000
3.978615 21.445795 1.872993 4.000000
4.045969 21.433191 1.872993 2.000000
2.763197 21.660101 1.875046 1.000000
3.186591 21.710636 1.884286 39.000000
2.410325 21.902657 1.892158 16.000000
-3.335690 -38.750233 1.981832 13.000000
-3.681749 -38.518238 1.971654 5.000000
-3.562191 -38.545528 1.972468 7.000000
-3.442853 -38.576424 1.973486 13.000000
-2.812505 -38.299049 1.956794 2.000000
-2.091865 -38.377167 1.958422 23.000000
-0.881419 -38.252205 1.949669 20.000000
-0.399334 -38.132435 1.943156 30.000000
-0.279592 -38.141487 1.943563 14.000000
-2.431283 -38.008907 1.940713 2.000000
-0.159037 -37.966412 1.934606 27.000000
-3.008945 -37.727097 1.928500 8.000000
-2.888270 -37.708485 1.927075 12.000000
-2.655482 -37.785660 1.930128 5.000000
-1.938309 -37.741230 1.925650 21.000000
-3.114911 -37.566177 1.920764 3.000000
-0.627610 -37.454144 1.908755 23.000000
-1.800494 -37.348114 1.905294 10.000000
-0.743605 -37.368114 1.904480 9.000000
14.105249 -35.735092 1.957608 4.000000
14.196748 -35.638645 1.954758 5.000000
14.295232 -35.560505 1.952926 3.000000
14.403877 -35.508018 1.952519 2.000000
14.503252 -35.433014 1.950891 3.000000
14.790108 -35.184277 1.944784 2.000000
15.032850 -34.989906 1.940509 2.500000
15.175268 -34.867443 1.937660 2.000000
15.337751 -34.791855 1.937456 3.000000
15.692993 -34.562943 1.934199 3.000000
15.771567 -34.448093 1.930535 8.000000
15.940489 -34.340843 1.929178 10.000000
16.061581 -34.225590 1.926464 6.000000
16.153650 -34.142464 1.924632 1.000000
16.338428 -33.979088 1.921172 1.000000
16.455551 -33.949162 1.922393 4.000000
16.697742 -33.770493 1.919645 3.000000
16.845108 -33.668251 1.918322 3.000000
16.934610 -33.583057 1.916490 3.000000
17.136173 -33.458214 1.915472 4.000000
17.265133 -33.322079 1.912317 8.500000
17.419214 -33.235081 1.912012 10.000000
17.506750 -33.148396 1.910179 2.000000
17.707132 -33.023663 1.909365 2.000000
17.789909 -32.929207 1.907126 5.000000
17.893263 -32.873161 1.907126 3.000000
17.998373 -32.820286 1.907330 4.000000
18.076279 -32.718121 1.904683 4.000000
18.184807 -32.671646 1.905294 2.000000
18.319908 -32.552486 1.903360 6.500000
18.462278 -32.446728 1.902241 9.000000
18.566111 -32.392033 1.902444 10.000000
18.854414 -32.188042 1.900816 20.000000
-0.125755 -23.242098 1.995851 8.000000
-0.004058 -23.233139 1.995053 15.666667
0.117360 -23.186373 1.991060 1.000000
-0.245493 -23.057833 1.980109 3.000000
0.692537 -22.929123 1.969842 13.000000
-4.148481 -22.759874 1.986611 5.000000
-3.996429 -22.734463 1.982162 22.000000
1.525032 -22.779631 1.960488 27.000000
-3.915498 -22.691923 1.977371 2.000000
3.626987 -22.618742 1.967105 3.000000
-3.533950 -22.593128 1.963682 24.000000
-3.304653 -22.515024 1.954100 31.000000
1.892252 -22.581463 1.945887 10.000000
-3.219183 -22.422728 1.945202 28.000000
-3.117570 -22.467230 1.947769 19.000000
0.466560 -22.460480 1.929118 32.000000
0.606916 -22.429218 1.926722 40.000000
2.312646 -22.494211 1.941780 30.000000
3.530545 -22.468607 1.953073 0.000000
-18.747612 -22.318796 1.993240 2.000000
-3.570358 -22.365461 1.944860 22.000000
1.027188 -22.362040 1.922273 3.000000
1.355976 -22.361790 1.923756 14.666667
2.371962 -22.379831 1.932540 39.000000
2.864017 -22.326214 1.932882 8.000000
2.428853 -22.249451 1.921931 29.000000
2.637496 -22.217659 1.921247 3.000000
-18.748077 -22.177502 1.985871 8.000000
2.553962 -22.107065 1.910980 33.000000
-19.114168 -22.042671 1.995150 2.000000
-4.303535 -22.037090 1.928091 1.000000
-3.344404 -22.061802 1.916113 31.500000
2.481388 -22.087255 1.908584 32.000000
2.895176 -22.020758 1.907215 6.000000
2.965406 -22.019451 1.907900 3.000000
3.184186 -22.069418 1.914744 16.000000
3.256406 -22.079018 1.916455 9.000000
-19.115105 -21.904337 1.988055 1.000000
-19.173283 -21.763052 1.983415 5.500000
-6.991750 -21.429283 1.935620 1.000000
-5.958382 -21.412657 1.908584 3.000000
-15.431657 -16.811224 1.959576 7.000000
-11.321086 -15.610844 1.994151 25.000000
-17.037203 -15.562554 1.981478 3.000000
-17.450201 -15.346577 1.995509 0.000000
-16.711239 -15.168774 1.938016 12.000000
-17.216242 -15.045165 1.963340 0.000000
-17.676706 -14.869349 1.983531 1.000000
-11.335114 -14.529132 1.905621 17.500000
-17.749800 -14.093556 1.946229 1.000000
-17.684481 -13.951325 1.934251 3.000000
-18.203386 -13.722220 1.957522 37.000000
-18.886095 -13.506171 1.993798 6.000000
-18.125191 -13.574178 1.944518 25.000000
-12.946980 -13.432751 1.929279 13.500000
18.300377 -13.374191 1.946400 13.000000
18.232433 -13.193233 1.932540 38.000000
18.063452 -12.984688 1.910295 26.000000
-10.203979 -12.869604 1.988977 2.000000
-10.080639 -12.837914 1.976714 23.000000
19.153662 -12.875578 1.981820 4.000000
18.349552 -12.545336 1.908755 17.000000
18.423315 -12.468834 1.910295 1.000000
-14.763480 -12.339807 1.989762 5.000000
19.144615 -11.516892 1.918509 1.000000
19.062346 -11.304898 1.903109 6.000000
2.108660 -11.138451 1.980539 30.000000
19.303038 -11.122168 1.913033 27.000000
2.631927 -11.030586 1.981227 2.000000
2.136953 -10.912304 1.942677 13.000000
2.098189 -10.895748 1.938546 0.000000
2.635063 -10.892050 1.957821 0.000000
-2.224405 -10.736515 1.915599 24.333332
-2.910463 -10.580791 1.917206 5.000000
-5.029925 -10.150506 1.979162 6.000000
-4.924211 -10.136524 1.968836 11.000000
2.625990 -10.031073 1.998839 3.000000
19.935493 -9.718884 1.904478 1.000000
-10.037960 -9.399930 1.909480 25.000000
1.667511 -9.295562 1.993250 52.000000
-8.787124 -9.099333 1.982678 24.000000
-4.160229 -9.175430 1.942054 2.000000
-2.220139 -9.134004 1.983998 6.200000
1.558225 -9.183530 1.965990 6.000000
1.607068 -9.123450 1.955252 28.000000
-10.434383 -9.000364 1.913331 27.000000
-8.934140 -9.021890 1.990111 1.000000
-8.851463 -9.051444 1.984330 12.333333
-2.270873 -9.021536 1.963512 27.666666
1.561728 -9.032041 1.934601 54.000000
-2.470994 -8.977003 1.965164 6.000000
-2.393720 -8.985177 1.962583 28.250000
1.425229 -8.907961 1.904037 7.000000
2.253889 -8.953260 1.948643 21.000000
-11.098907 -8.837977 1.969994 6.500000
-10.742857 -8.862025 1.933686 4.000000
-10.629195 -8.881083 1.923234 4.000000
-2.482139 -8.854067 1.940796 43.000000
1.915051 -8.827650 1.906515 24.500000
-10.855057 -8.755793 1.936436 29.500000
-10.675537 -8.722338 1.914156 32.500000
-4.807490 -8.777424 1.929182 17.000000
5.323170 -8.779222 1.979153 11.000000
3.935775 -8.537355 1.984163 10.000000
5.530165 -8.594318 1.970068 3.500000
-11.162019 -8.466293 1.945238 8.000000
-10.933685 -8.484007 1.921583 52.500000
-8.790760 -8.415285 1.907422 1.000000
-3.574103 -8.440530 1.934601 3.000000
-3.103864 -8.495488 1.908993 34.000000
3.093120 -8.466079 1.902385 16.000000
3.288553 -8.421467 1.908167 4.500000
-4.044835 -8.355972 1.959382 2.000000
-4.238292 -8.285916 1.964338 2.000000
-2.697037 -8.256479 1.995063 35.000000
2.595456 -8.297112 1.996854 40.333332
-11.461207 -8.139035 1.951840 19.000000
-3.886219 -8.158618 1.907341 10.000000
-2.758543 -8.182669 1.983422 28.000000
-2.579136 -8.155152 1.964618 65.000000
2.096227 -8.111351 1.924322 56.000000
2.361481 -8.176192 1.954768 2.000000
2.762866 -8.111228 1.968199 10.000000
4.363347 -8.178515 1.956491 7.500000
-8.066977 -8.006588 1.985702 17.000000
-2.965830 -8.039235 1.968199 57.000000
-2.478303 -8.011049 1.926113 61.000000
3.187092 -8.012878 1.980736 5.000000
4.691246 -8.076584 1.971360 1.500000
-3.444743 -7.994761 1.999540 62.000000
-2.859554 -7.903742 1.930590 39.000000
4.469221 -7.921888 1.919732 8.000000
-8.294399 -7.865591 1.997060 42.000000
-3.355291 -7.854969 1.961931 20.000000
-3.032661 -7.838951 1.930590 35.000000
1.275852 -7.894777 1.985482 16.500000
1.651560 -7.830102 1.986767 14.333333
2.645213 -7.846496 1.901936 18.000000
3.503657 -7.858268 1.976258 1.000000
1.516150 -7.749357 1.960422 6.000000
2.254582 -7.715266 1.995602 11.500000
1.497531 -7.654067 1.936326 24.000000
2.521694 -7.638312 1.997047 10.000000
-2.508820 -7.519874 1.968133 27.000000
-2.399299 -7.539179 1.964277 40.571430
1.528894 -7.561707 1.951613 2.500000
1.618639 -7.518259 1.909339 28.000000
-4.064533 -7.365928 1.932381 25.000000
-3.158231 -7.393638 1.996083 92.000000
-2.648133 -7.319381 1.932471 68.000000
-2.460502 -7.298589 1.912231 22.000000
2.684438 -7.347490 1.942109 5.000000
-2.555046 -7.257733 1.910303 14.500000
1.710944 -7.243445 1.989136 42.666668
2.617756 -7.235419 1.910303 2.000000
2.875350 -7.295768 1.946928 98.000000
-3.078519 -7.144806 1.931507 62.000000
-2.801581 -7.174582 1.912231 48.000000
1.567065 -7.169171 1.961251 7.000000
1.787836 -7.165123 1.973644 25.000000
2.139183 -7.152938 1.995333 12.000000
2.297141 -7.107847 1.996365 1.000000
5.826687 -7.111220 1.940383 7.000000
-3.595883 -7.029998 1.960422 16.000000
1.654512 -7.079381 1.943074 30.400000
2.429448 -7.059633 1.995333 14.000000
3.815912 -7.019270 1.983554 35.000000
-2.812192 -6.921583 1.996710 32.333332
-2.694692 -6.932488 1.987845 54.750000
-2.249398 -6.959912 1.954848 17.200001
1.689826 -6.990244 1.922005 34.000000
2.048773 -6.929863 1.931300 26.000000
-2.939035 -6.821083 1.985005 9.000000
-2.562850 -6.863973 1.958153 29.500000
2.635241 -6.811679 1.951956 35.000000
5.075356 -6.826502 1.953872 6.000000
-4.158864 -6.786746 1.976164 30.500000
-4.090811 -6.794815 1.969096 27.000000
-2.821483 -6.781625 1.963058 23.250000
4.007696 -6.704335 1.939218 32.000000
4.151345 -6.703267 1.957530 38.000000
5.237175 -6.708094 1.954768 19.500000
4.044617 -6.654844 1.933435 37.666668
-3.896194 -6.118156 1.938530 65.000000
4.379454 -5.968431 1.978464 24.666666
4.353083 -5.855024 1.949890 9.000000
4.526487 -5.854478 1.977775 9.000000
5.237331 -5.810524 1.942109 18.000000
4.278840 -5.717563 1.908579 7.000000
5.266221 -5.763275 1.938254 16.666666
4.320772 -5.661609 1.903415 6.000000
-12.925369 -4.701937 1.909755 8.000000
-12.963940 -4.486649 1.904804 3.000000
-13.030709 -4.395447 1.909480 22.000000
-11.918634 -4.020328 1.971529 5.000000
-11.938703 -3.985370 1.972768 36.000000
-12.159351 -3.763948 1.995066 11.000000
-11.973431 -3.788879 1.968432 14.500000
-11.721026 -3.709126 1.926933 9.000000
-13.204828 -3.637215 1.901779 10.000000
-14.081122 2.508220 1.985948 13.000000
-13.955381 2.568881 1.970269 15.500000
-13.899349 2.671505 1.965263 6.200000
-13.713680 2.725334 1.941388 31.000000
-13.845668 2.842134 1.962567 17.750000
-13.761373 2.997910 1.955599 19.333334
-13.632648 3.137914 1.942409 36.142857
-13.474030 3.209970 1.923234 59.000000
-13.348326 3.290937 1.908930 62.500000
-10.362658 4.501542 1.973884 6.666667
-10.318481 4.637259 1.976408 6.333333
-9.919539 4.659345 1.914681 22.666666
-13.291418 4.798317 1.962109 43.500000
-13.244116 4.942598 1.962842 49.750000
-12.845057 4.966803 1.912231 19.000000
-9.739171 4.979498 1.911010 25.000000
-13.258873 5.055108 1.970269 39.000000
-9.667370 5.058277 1.906191 1.000000
-15.153963 5.155875 1.938483 14.000000
-13.056893 5.143244 1.948539 19.000000
-15.260065 5.299188 1.956276 46.000000
-13.106940 5.210588 1.958441 20.000000
-13.056833 5.254031 1.954224 20.000000
-12.914208 5.275450 1.936987 56.000000
-12.751051 5.255601 1.914982 75.000000
-9.662893 5.250891 1.921336 10.000000
-15.277063 5.358936 1.960604 33.000000
-14.886033 5.379856 1.916843 4.000000
-12.928363 5.376266 1.944138 69.000000
-9.662059 5.342558 1.928908 11.333333
-14.997252 5.526834 1.935598 16.000000
-13.214650 5.544074 1.989798 10.000000
-12.734690 5.508153 1.926534 69.500000
-12.602406 5.537302 1.911314 25.666666
-6.553971 5.551427 1.972856 14.800000
-14.904596 5.634953 1.929667 41.666668
-9.454127 5.770822 1.935104 7.000000
-9.256199 5.750299 1.903782 16.000000
-6.993154 5.729948 1.908167 21.000000
-15.360511 5.880971 1.991863 65.000000
-14.975554 5.896005 1.949063 21.000000
-12.828895 5.814047 1.955691 3.000000
-12.709520 5.832278 1.941663 9.000000
-7.150737 5.821613 1.946165 23.000000
-15.371589 5.940655 1.995710 12.000000
-15.219669 5.936962 1.978397 58.000000
-15.259563 6.063266 1.988496 35.000000
-9.390903 6.082257 1.954724 17.500000
-9.227343 6.058953 1.928564 23.000000
-4.241246 6.054875 1.975710 53.000000
4.741931 6.015111 1.901629 13.000000
-15.182419 6.143404 1.983447 5.000000
-8.966973 6.195142 1.904126 5.000000
-15.071960 6.250739 1.975993 27.500000
-3.496876 6.337194 1.934399 26.000000
-8.810478 6.462451 1.908945 26.250000
-3.175346 6.639439 1.966931 11.000000
2.636002 6.657830 1.913743 14.000000
2.708191 6.716375 1.935431 14.500000
2.847696 6.784342 1.966415 35.000000
-12.158457 6.831405 1.936436 9.000000
-4.934298 6.813958 1.932381 0.000000
-4.790185 6.977590 1.944022 10.000000
-12.254261 7.063598 1.963943 84.000000
-12.132645 7.044373 1.947989 18.000000
-11.998520 7.042264 1.931760 14.500000
-4.891879 7.077959 1.976258 2.000000
-4.583576 7.050005 1.931486 6.000000
-4.486290 7.093865 1.927904 7.000000
3.020983 7.072331 1.909339 26.000000
-4.806901 7.145342 1.978049 2.000000
-4.606529 7.183681 1.960140 11.000000
4.648856 7.300054 1.987899 33.000000
-14.656595 7.490480 1.993305 0.000000
-4.029772 7.440457 1.943574 1.500000
-14.479788 7.573069 1.978878 6.000000
-14.190693 7.593045 1.949063 6.000000
-8.005532 7.779601 1.950249 20.000000
-4.740245 7.744321 1.916427 26.000000
-8.247673 7.840388 1.988111 13.500000
-13.479753 8.051497 1.901455 0.000000
-4.592332 8.200425 1.983750 13.500000
-9.518565 8.204616 1.969671 28.000000
-9.396284 8.254837 1.960380 6.000000
-9.277053 8.264318 1.947373 21.200001
-3.657182 8.272382 1.908993 3.000000
-9.582928 8.365616 1.993827 9.000000
-9.248818 8.351069 1.953154 12.333333
-9.198154 8.393187 1.951708 0.000000
-9.215404 8.462132 1.960999 0.000000
-3.863370 8.450014 1.961034 2.000000
-3.792545 8.434856 1.951948 0.000000
-14.047336 8.571163 1.992824 6.000000
-9.061811 8.560344 1.953876 0.500000
-8.817911 8.515357 1.921358 12.000000
-8.700648 8.562050 1.913306 4.000000
-3.855275 8.646907 1.998206 5.000000
-3.571982 8.661985 1.977555 1.000000
-8.550234 8.792282 1.922287 1.000000
-13.857637 8.848753 1.991141 3.000000
-13.409856 9.386193 1.982245 5.000000
-12.719252 9.387722 1.914439 23.000000
-12.651657 9.554556 1.919969 13.500000
-8.178736 9.603185 1.977104 1.000000
-12.722744 9.766036 1.942330 11.000000
-12.458152 9.750895 1.915881 23.000000
-12.480487 9.831758 1.924057 27.000000
-12.724738 10.219992 1.976474 3.000000
-12.153342 10.208711 1.922133 3.000000
18.347502 13.339989 1.947940 91.500000
-9.335244 13.406680 1.978397 6.000000
18.261684 13.453867 1.947769 93.500000
18.286049 13.605193 1.957180 31.000000
15.156138 17.589563 1.993798 95.000000
15.255708 17.593046 1.999616 56.000000
15.067877 17.654713 1.993114 100.500000
15.020562 17.768145 1.997905 60.000000
2.459692 18.361193 1.915702 35.000000
2.533042 18.467690 1.927634 30.000000
2.018947 18.614986 1.936274 4.000000
2.435013 18.621321 1.942034 14.000000
2.642696 18.615063 1.944297 36.000000
2.804449 18.698030 1.955200 16.000000
3.166343 18.700693 1.961372 27.000000
2.122361 18.743610 1.950675 15.500000
2.759561 18.801228 1.965075 0.000000
2.884265 18.826778 1.969601 11.000000
3.248756 18.827883 1.975773 16.000000
3.489446 18.809046 1.978242 16.000000
3.875322 18.895840 1.994699 27.000000
3.361408 18.947500 1.989968 14.000000
2.276972 19.038050 1.982767 14.000000
2.405386 19.014233 1.981945 27.666666
5.805856 21.652630 1.925011 40.000000
5.197863 21.835249 1.927407 1.000000
5.667253 21.961075 1.947598 0.000000
5.959477 21.949663 1.953073 3.000000
6.559378 21.960989 1.968131 4.000000
6.508410 22.042643 1.973607 11.000000
3.759029 22.201149 1.933567 6.000000
1.992071 22.276800 1.920562 7.000000
2.696093 22.246756 1.924327 6.000000
2.614904 22.774008 1.968473 6.000000
3.702101 22.731752 1.977714 32.000000
-0.920048 -23.627075 2.030416 3.000000
2.204573 -23.630045 2.037945 2.000000
-0.720108 -23.568865 2.024826 15.333333
-0.582755 -23.508209 2.019294 11.500000
2.051223 -23.587847 2.033154 8.000000
1.892730 -23.473150 2.022203 12.000000
1.966465 -23.467089 2.022203 16.000000
2.783606 -23.448456 2.027678 13.000000
2.855330 -23.423769 2.026309 14.000000
-4.458251 -23.216822 2.030074 12.000000
-18.646576 -22.920080 2.020529 5.000000
-6.894578 -22.821547 2.047185 0.000000
-18.966366 -22.723782 2.024077 0.000000
-18.640118 -22.765667 2.012069 12.000000
-19.254677 -22.632170 2.031991 1.000000
-18.770054 -22.632738 2.010705 4.000000
-6.558597 -22.472336 2.010225 1.000000
-8.497001 -21.883869 2.015872 1.000000
-8.276099 -21.821404 2.004065 6.000000
15.501669 -17.965199 2.037603 1.000000
-16.117357 -17.669327 2.053687 12.000000
-15.289647 -17.632191 2.004065 16.000000
-17.008753 -17.508816 2.096123 5.000000
-16.148531 -17.592184 2.050607 10.000000
-15.531686 -17.573908 2.013989 8.000000
-15.378227 -17.584969 2.006004 21.666666
-15.576880 -17.476923 2.010339 35.000000
15.738147 -17.448338 2.017754 1.000000
16.768890 -17.310225 2.069544 31.000000
16.657669 -17.016193 2.044790 10.000000
17.027689 -16.856188 2.057452 20.000000
17.111813 -16.833353 2.061216 3.000000
-17.611053 -16.497433 2.072167 2.000000
-11.242645 -15.814112 2.006494 22.333334
-11.316798 -15.743194 2.004986 18.000000
18.522221 -15.758077 2.088252 14.000000
18.541412 -15.475552 2.073879 7.000000
-17.766052 -15.329833 2.015016 3.000000
-19.746414 -14.404616 2.098861 5.000000
-18.733686 -13.938246 2.005091 10.000000
-18.774174 -13.876959 2.004749 26.000000
-14.768388 -13.834521 2.092624 17.000000
-14.727559 -13.368190 2.056828 1.000000
-15.215493 -13.129026 2.078223 13.000000
-15.034529 -12.768332 2.039753 7.500000
-15.623471 -12.647122 2.078635 9.000000
-15.077841 -12.683228 2.037490 37.000000
-16.403708 -11.808980 2.090155 23.000000
2.056109 -11.660767 2.068655 2.000000
-16.449808 -11.531116 2.077400 0.000000
-16.385094 -11.588430 2.075343 21.333334
2.091494 -11.400544 2.025010 27.400000
3.468799 -11.417264 2.084717 1.666667
3.728226 -10.939078 2.019089 2.000000
3.946788 -10.956400 2.034578 8.000000
3.852216 -10.854231 2.012205 14.000000
-1.959557 -10.542017 2.066981 1.000000
-2.124581 -10.423821 2.050703 22.000000
-2.052299 -10.489636 2.060419 14.333333
2.358946 -10.475998 2.070009 0.000000
-3.196830 -10.333667 2.085152 0.000000
-2.673084 -10.343493 2.059410 2.000000
-2.579268 -10.383474 2.062438 37.000000
-2.392794 -10.323225 2.042753 10.000000
-2.242930 -10.312561 2.034424 29.666666
1.934040 -10.344331 2.028619 6.666667
2.773504 -10.329221 2.061681 11.000000
-3.191753 -10.203619 2.060924 28.000000
-2.623101 -10.283336 2.045781 15.000000
-2.417124 -10.281244 2.035938 12.000000
-2.248626 -10.287247 2.029881 35.000000
1.874211 -10.262202 2.010953 1.000000
-3.214319 -10.163583 2.054867 14.000000
-2.551470 -10.135363 2.014739 22.000000
2.770906 -10.191593 2.035938 23.000000
-11.027162 -10.069181 2.073417 16.000000
-2.691507 -10.086868 2.012467 17.500000
-10.956046 -9.941305 2.054163 15.000000
-10.728290 -9.941495 2.030874 14.666667
-10.564881 -9.955840 2.015654 10.000000
-10.957797 -9.880307 2.048662 19.000000
-10.674565 -9.808892 2.012904 14.000000
-8.751412 -9.829238 2.062786 9.888889
-3.319995 -9.848104 2.003381 2.000000
-10.865788 -9.674263 2.020055 11.000000
-8.901996 -9.572986 2.048953 3.000000
-8.718151 -9.554289 2.027274 1.000000
-2.187333 -9.504679 2.058507 1.000000
17.714331 -9.550150 2.081104 10.000000
-8.947063 -9.471148 2.042140 0.500000
1.571134 -9.439323 2.019683 15.000000
-8.958557 -9.364805 2.031301 34.500000
-2.659684 -9.318374 2.045291 24.000000
3.069830 -9.298637 2.066768 38.000000
17.498674 -9.363057 2.052302 0.000000
-5.278557 -9.288168 2.059410 12.000000
-3.435877 -9.224008 2.077507 16.000000
2.844007 -9.296528 2.051899 1.000000
17.405010 -9.242723 2.037901 19.000000
5.703268 -9.144888 2.077581 4.000000
17.310768 -9.123071 2.023501 16.000000
-9.060069 -9.091749 2.011790 27.000000
-3.451402 -9.062014 2.046668 20.666666
-3.555426 -8.938934 2.030422 18.000000
1.286777 -8.940660 2.074758 51.000000
4.289630 -8.933134 2.091549 3.000000
5.673166 -8.908517 2.035938 0.000000
-3.468188 -8.840829 2.004401 18.000000
1.334232 -8.874571 2.061326 0.000000
1.592848 -8.879353 2.072072 50.000000
-9.770338 -8.726491 2.053289 15.000000
-9.660542 -8.765789 2.044617 10.000000
2.084014 -8.741003 2.064013 24.000000
2.278680 -8.704377 2.066699 14.000000
-4.814895 -8.661327 2.091549 3.000000
-4.746061 -8.601025 2.073376 2.000000
-2.378780 -8.694938 2.070579 16.666666
-2.273743 -8.685520 2.062222 33.000000
2.765018 -8.648306 2.085503 27.000000
2.808956 -8.691511 2.098040 27.000000
4.039676 -8.655248 2.015966 16.500000
-10.220778 -8.558019 2.089420 21.666666
-2.536714 -8.531020 2.044313 21.000000
-11.985297 -8.454700 2.036559 4.000000
-11.751444 -8.400809 2.005752 9.000000
-10.233453 -8.441807 2.079304 0.000000
-3.148487 -8.412195 2.063117 42.500000
-2.414779 -8.410332 2.009838 18.500000
2.560171 -8.416130 2.020583 19.500000
-10.203562 -8.309963 2.062580 13.000000
-10.051816 -8.345181 2.047714 9.000000
-3.172404 -8.329548 2.047297 15.333333
-2.742903 -8.374706 2.024165 35.750000
-2.567169 -8.391590 2.015658 37.000000
2.888553 -8.393726 2.038940 5.000000
-10.338129 -8.205659 2.068774 11.000000
-8.457617 -8.224672 2.061082 7.000000
-3.848813 -8.145907 2.069385 2.000000
-3.707509 -8.176952 2.062222 42.000000
1.389119 -8.186892 2.061624 24.000000
3.976515 -8.149455 2.082817 4.000000
4.025254 -8.151575 2.088190 11.500000
-10.252153 -8.085044 2.046476 9.000000
-8.551349 -8.058383 2.052821 22.000000
-8.386523 -8.003141 2.025285 21.000000
-8.186726 -8.011438 2.001191 0.000000
1.256670 -8.015772 2.014396 36.000000
1.373794 -7.981711 2.010782 18.500000
1.491801 -7.933218 2.004115 16.000000
2.142989 -7.956252 2.045721 9.000000
3.910976 -7.983747 2.042074 7.500000
2.195552 -7.879509 2.030781 2.000000
3.959349 -7.800929 2.009390 24.000000
4.101928 -7.806255 2.025508 22.000000
-4.098361 -7.711144 2.005808 6.000000
-2.548431 -7.760287 2.027890 57.500000
-2.407107 -7.780911 2.022107 69.000000
1.332456 -7.707076 2.090348 24.333334
-10.405700 -7.688580 2.027894 7.000000
1.548457 -7.658792 2.088283 33.000000
3.164843 -7.623553 2.049335 44.750000
3.357133 -7.658656 2.076081 3.000000
-10.759542 -7.590024 2.063819 39.000000
-2.979758 -7.525827 2.009577 58.500000
1.481755 -7.573558 2.062464 83.000000
1.614482 -7.498950 2.050070 33.000000
2.200424 -7.529743 2.096545 30.000000
-3.074026 -7.487817 2.009577 61.500000
1.291157 -7.467227 2.025283 8.000000
1.366046 -7.457108 2.026144 16.166666
-10.780685 -7.321072 2.042553 33.666668
-10.638988 -7.331066 2.025106 6.500000
-3.758095 -7.234640 2.024035 1.000000
-2.361052 -7.253674 2.038709 27.666666
2.331289 -7.291708 2.045939 19.000000
2.772483 -7.268129 2.078988 15.000000
-10.788967 -7.187207 2.031920 45.500000
-10.602552 -7.135369 2.003118 51.000000
2.661736 -7.111688 2.029415 16.500000
2.973327 -7.146476 2.068660 2.000000
3.027212 -7.149004 2.074857 6.000000
3.178731 -7.129499 2.086217 7.000000
5.433891 -7.166678 2.065804 7.000000
-10.809123 -7.064830 2.024001 50.857143
-2.991516 -7.034005 2.042840 105.500000
-2.723081 -7.038735 2.017021 7.000000
-2.572322 -7.063688 2.009103 1.333333
4.073872 -7.039217 2.019215 14.500000
4.097544 -6.953474 2.003794 29.000000
5.283724 -6.923338 2.000436 41.000000
-4.331166 -6.896446 2.021866 11.000000
-3.185153 -6.815044 2.010480 19.333334
-3.044481 -6.867049 2.007554 33.500000
4.178559 -6.891476 2.000903 29.000000
4.409101 -6.875795 2.027890 9.000000
-3.207620 -6.788839 2.006693 39.000000
-4.161789 -6.626842 2.091381 0.000000
4.035208 -6.655054 2.080021 1.000000
3.980433 -6.487781 2.034234 21.333334
4.357166 -6.476820 2.086217 3.000000
-10.649952 -5.534570 2.096879 31.000000
-10.508410 -5.335831 2.059017 1.000000
-10.268053 -5.295198 2.018401 13.000000
-10.490039 -4.938469 2.025629 3.000000
-10.901441 -4.780858 2.079669 0.000000
-10.887862 -4.673380 2.070031 61.750000
-10.917439 -4.514249 2.064008 63.000000
-12.530809 -4.402966 2.081781 48.000000
-10.864960 -4.442758 2.050756 55.000000
-11.056180 -4.388221 2.078194 44.285713
-12.296378 -4.061875 2.029752 30.000000
-12.271449 -3.735378 2.010551 0.000000
-19.963558 1.091673 2.067526 22.000000
-19.769365 1.143354 2.047776 54.000000
-19.670362 1.199648 2.037901 47.000000
-19.589035 1.287327 2.030084 48.500000
-19.543083 1.376870 2.025970 41.000000
-19.508583 1.466846 2.023089 44.500000
-19.452805 1.616377 2.018564 46.333332
-19.457373 1.770826 2.020415 47.500000
-19.505522 1.929715 2.026930 49.000000
-19.605186 2.095275 2.038930 35.000000
-12.667572 3.470204 2.058657 1.333333
-12.760915 3.683252 2.081781 54.000000
-9.721657 4.500293 2.065088 8.000000
-9.595474 4.515260 2.044267 24.500000
-9.640917 4.648188 2.063195 30.000000
-9.564800 4.611381 2.046917 21.500000
-9.595894 4.889324 2.076066 39.000000
-9.699607 4.910322 2.095752 22.333334
-9.259307 5.274951 2.054236 11.833333
-15.937809 5.366762 2.036586 0.000000
-15.689720 5.393218 2.009175 4.000000
-9.116018 5.429908 2.045403 7.500000
-9.031446 5.437375 2.032153 10.000000
-6.880311 5.565604 2.032672 18.000000
-13.261982 5.645767 2.001351 37.000000
-6.991777 5.607432 2.058640 14.666667
-6.884554 5.659085 2.046999 6.000000
-16.128527 5.714579 2.072172 20.000000
-8.712054 5.900720 2.028367 17.000000
-8.663812 5.967843 2.027988 14.000000
4.758225 5.996933 2.045939 21.000000
-16.010517 6.014765 2.071210 11.000000
-8.746834 6.086003 2.054110 27.000000
-8.586124 6.014302 2.020796 19.000000
4.925309 6.011127 2.076922 7.000000
-8.636244 6.110251 2.039346 10.000000
-8.573800 6.126925 2.031395 31.000000
-8.697374 6.298162 2.070009 20.000000
-8.534716 6.221343 2.035938 32.000000
-13.335891 6.349467 2.050862 29.000000
-8.796826 6.328149 2.088938 37.000000
-13.501612 6.480485 2.079469 4.000000
-8.689559 6.474639 2.088938 20.000000
-6.063784 6.477632 2.038044 1.000000
-8.646136 6.512967 2.086666 9.000000
-13.231565 6.608556 2.053613 8.000000
-13.157655 6.623367 2.045361 18.000000
3.398262 6.695445 2.006693 3.000000
-13.292196 6.769832 2.071217 4.000000
-3.597531 6.794521 2.054718 27.500000
3.768875 6.729810 2.061431 20.000000
-13.274269 6.839628 2.073417 6.000000
-3.564567 6.809703 2.054201 13.000000
-13.033321 6.924108 2.049212 3.000000
-4.813673 6.918236 2.092466 1.000000
-15.726364 7.034853 2.086358 6.500000
-12.984811 7.056057 2.051962 16.799999
2.927310 7.035871 2.036644 4.000000
-15.620451 7.154887 2.080668 5.000000
-12.985401 7.162416 2.059114 43.000000
-5.039140 7.193963 2.017449 5.000000
-5.054365 7.264161 2.032672 6.000000
-4.919789 7.214846 2.005808 12.000000
-2.920556 7.243248 2.087250 1.000000
-13.093326 7.383733 2.087170 7.000000
-13.046318 7.438482 2.085245 11.500000
-14.818182 7.514438 2.012060 30.000000
-4.774094 7.601186 2.061774 11.000000
-4.668402 7.591348 2.046999 20.000000
-3.408355 7.548751 2.056323 25.000000
-15.384445 7.740934 2.085637 0.000000
-12.188103 7.812611 2.010153 38.000000
-4.614524 7.887331 2.098935 0.000000
-12.407859 8.063918 2.054713 8.000000
-12.297395 8.102484 2.044811 1.000000
-8.358454 8.021074 2.023908 1.000000
-10.275027 8.202445 2.060722 24.000000
-8.372638 8.187651 2.045937 26.000000
-3.399416 8.170594 2.032672 1.000000
-10.206354 8.253112 2.057315 13.500000
-8.403046 8.269187 2.059705 10.000000
-3.488690 8.238821 2.055058 10.000000
-9.650956 8.371717 2.002499 21.000000
-3.603636 8.363529 2.091771 10.000000
-12.324876 8.515064 2.080019 1.000000
-9.946473 8.519141 2.052670 9.000000
-8.234142 8.574493 2.076915 21.000000
-4.748340 8.541600 2.062638 11.000000
-12.301363 8.642347 2.087445 10.500000
-8.215352 8.663231 2.085865 4.000000
-14.074244 8.709406 2.004366 1.000000
-14.228803 8.866986 2.030334 0.000000
-14.580955 9.150163 2.084675 6.000000
-13.901989 9.156237 2.015907 8.000000
-14.338027 9.250852 2.066401 15.000000
-11.606506 9.445810 2.077818 16.000000
-11.459682 9.691043 2.083870 8.000000
-11.423146 9.721859 2.082769 11.000000
-11.167831 9.811179 2.064065 2.000000
-8.680809 9.874200 2.060722 0.000000
-11.153500 12.562403 2.034422 12.000000
19.933674 12.572330 2.023743 17.500000
19.822540 12.720934 2.022545 17.666666
19.713707 12.870821 2.021689 18.000000
19.625801 12.990038 2.021005 18.000000
19.442844 13.045385 2.010567 15.500000
-10.411075 13.196907 2.035624 0.000000
19.435534 13.203413 2.017640 14.000000
19.335777 13.313969 2.015929 18.666666
-10.449944 13.418712 2.059669 0.000000
-9.578468 13.483204 2.002923 0.000000
19.231787 13.463215 2.015906 17.600000
18.956778 13.646927 2.005776 12.000000
19.111280 13.606793 2.014560 18.000000
-9.817682 13.912298 2.062073 0.000000
18.742641 14.082619 2.013134 23.000000
-9.799074 14.167503 2.086118 0.000000
-9.287623 14.176764 2.052455 1.000000
3.073057 14.177581 2.014279 12.500000
3.144568 14.184231 2.017305 3.000000
-9.541338 14.220540 2.073855 0.500000
-9.382402 14.223759 2.063516 1.000000
18.624577 14.224097 2.012392 23.000000
18.506538 14.365503 2.011765 25.000000
18.430016 14.492578 2.013305 22.000000
18.280390 14.514852 2.004407 17.000000
18.287903 14.661942 2.012792 20.500000
18.251198 14.774254 2.016385 19.000000
18.193695 14.870167 2.017754 19.000000
18.126514 14.958293 2.018096 18.000000
18.091696 15.025349 2.019465 18.000000
17.996868 15.138682 2.019465 18.000000
17.892605 15.292534 2.021176 17.500000
-12.578534 15.340635 2.051479 1.000000
17.823381 15.379302 2.021518 17.000000
17.756691 15.468348 2.022203 17.500000
-12.358289 15.564362 2.055182 1.000000
17.683630 15.551863 2.022203 18.000000
-12.329048 15.628098 2.058474 4.000000
17.640654 15.612623 2.022887 18.000000
-11.478017 15.734523 2.014038 0.000000
17.554014 15.733750 2.024256 17.333334
-11.899030 15.888406 2.052714 21.000000
17.450050 15.872756 2.025625 18.000000
17.372587 15.969318 2.026309 17.000000
17.308804 16.061832 2.027678 17.500000
17.021305 16.146969 2.014674 8.000000
17.182144 16.197298 2.027678 20.000000
17.215496 16.126890 2.025625 7.000000
-12.098431 16.260889 2.095916 6.000000
-11.699530 16.359818 2.079869 1.000000
17.069784 16.363659 2.030530 13.000000
16.995766 16.481571 2.032983 17.000000
-11.695149 16.572792 2.097561 2.000000
16.925060 16.568459 2.033838 17.000000
16.862358 16.663425 2.035721 17.000000
16.770000 16.781736 2.037261 17.000000
16.671196 16.920406 2.039742 17.000000
-10.702747 17.028618 2.079869 14.000000
-10.601419 17.045017 2.075755 40.000000
-10.470119 17.072330 2.071023 26.500000
16.537909 17.095631 2.042508 17.000000
16.473532 17.172440 2.043421 14.000000
16.402575 17.278679 2.045816 13.000000
16.343737 17.361755 2.047527 14.000000
16.272587 17.450222 2.048896 14.000000
16.178818 17.569715 2.050950 14.000000
16.092237 17.697556 2.054029 14.000000
15.888984 17.752144 2.045816 7.000000
16.008688 17.773211 2.054029 11.000000
15.914841 17.950565 2.060019 13.500000
15.870867 18.071789 2.065323 22.000000
15.819256 18.127567 2.066007 23.000000
15.518347 18.474392 2.071825 12.000000
15.443832 18.562618 2.073536 13.000000
15.368887 18.650583 2.075248 13.000000
15.302216 18.749029 2.078156 13.000000
15.212860 18.880499 2.082092 12.500000
4.395599 18.994055 2.016095 34.000000
15.138672 18.970678 2.084145 11.000000
3.719942 19.048674 2.007043 21.000000
4.470706 19.046001 2.023089 22.000000
15.060505 19.076782 2.087111 11.666667
3.620109 19.177233 2.018152 17.000000
4.551711 19.120884 2.032553 21.000000
5.065408 19.131235 2.046542 14.000000
14.991141 19.153309 2.088594 13.000000
4.076355 19.260372 2.035844 27.000000
4.952741 19.255146 2.056005 14.000000
14.948021 19.222332 2.090990 13.000000
4.855643 19.316856 2.059708 18.000000
14.876681 19.317814 2.093728 4.500000
4.364312 19.413368 2.057651 22.000000
4.690177 19.431379 2.067114 4.000000
4.465099 19.574121 2.076166 41.000000
3.792887 19.751875 2.079869 13.000000
3.922340 19.754972 2.082749 18.000000
3.638670 19.962889 2.098384 17.000000
2.850155 20.076542 2.096944 2.000000
2.405200 23.195786 2.002525 6.000000
2.305516 23.304052 2.010909 6.000000
1.985390 23.893421 2.058821 2.000000
2.056676 23.843390 2.055056 4.000000
1.948104 24.372288 2.099545 1.000000
0.433860 -24.609594 2.113577 5.000000
0.278907 -24.583939 2.111181 8.000000
-6.518534 -23.713890 2.111866 1.000000
-6.335351 -23.627350 2.100572 0.000000
0.341004 -21.235977 2.196309 19.000000
1.966256 -21.075602 2.188903 15.000000
-3.447164 -20.959118 2.196515 20.000000
-3.307392 -20.929264 2.191166 18.000000
-3.732295 -20.847603 2.190137 26.000000
-3.128457 -20.858166 2.181085 23.500000
-2.995071 -20.861710 2.179440 0.000000
-3.782075 -20.749660 2.181085 31.000000
-4.207743 -20.681730 2.182525 16.000000
-5.084200 -20.498270 2.183965 1.000000
-4.078861 -20.543297 2.165862 9.000000
-3.811683 -20.545986 2.160924 9.000000
-3.613055 -20.553566 2.158044 31.000000
-3.477863 -20.540556 2.154341 20.000000
-3.867355 -20.486994 2.155987 28.000000
-3.527493 -20.443270 2.145289 25.000000
-6.139919 -20.323570 2.195486 1.000000
-3.934734 -20.318127 2.140146 32.500000
-6.087477 -19.923670 2.154341 0.000000
-6.327674 -19.815279 2.151050 5.000000
-6.131242 -19.843624 2.147758 16.000000
16.558958 -18.242781 2.115630 11.000000
18.086693 -18.130939 2.199133 8.000000
-17.125275 -17.739935 2.117341 13.000000
-17.250328 -17.646236 2.119052 3.000000
16.971439 -17.666767 2.103652 8.000000
1.888577 -15.515532 2.170239 5.000000
1.985860 -15.501997 2.170056 10.333333
2.135676 -15.510065 2.173907 7.000000
1.517453 -15.420845 2.151535 6.666667
-19.880960 -15.085001 2.143008 11.000000
-19.795229 -14.728056 2.118710 6.000000
-19.726023 -14.580520 2.106390 2.000000
-15.140989 -14.453884 2.164628 1.000000
-15.312174 -13.466288 2.108670 5.000000
-16.186411 -12.935335 2.142684 8.666667
-16.134150 -12.728265 2.125129 10.000000
-16.173229 -12.615479 2.121117 13.250000
-9.127857 -12.609642 2.161437 3.000000
-17.001713 -11.214824 2.106202 5.000000
-17.613518 -11.147711 2.155576 5.000000
-17.034084 -11.134069 2.104419 15.666667
1.935343 -11.192790 2.189637 7.000000
-17.561192 -11.088840 2.147758 28.666666
-17.570898 -10.941175 2.140489 19.666666
2.508089 -10.820637 2.141180 1.000000
-3.180304 -10.757210 2.162380 2.000000
-2.615816 -10.673821 2.118466 13.000000
-3.197158 -10.510212 2.117709 16.500000
-3.986524 -10.352720 2.138530 16.000000
1.743509 -10.275520 2.199761 13.000000
2.417137 -10.138225 2.199761 2.000000
18.691446 -10.001276 2.192194 8.000000
1.872145 -9.898575 2.126243 4.000000
2.499662 -9.799413 2.134504 1.000000
17.964613 -9.831264 2.117723 33.000000
1.925908 -9.762612 2.100223 9.000000
18.479118 -9.627918 2.154753 16.000000
-10.269971 -9.556817 2.198846 0.000000
-9.928288 -9.504293 2.154250 6.000000
18.632248 -9.571504 2.166136 43.666668
-10.180987 -9.414504 2.173451 17.000000
-3.551631 -9.443954 2.129548 13.000000
18.741396 -9.430037 2.169565 6.000000
1.492366 -9.327343 2.169676 31.000000
18.413595 -9.337709 2.135003 41.000000
-2.054548 -9.259817 2.178630 1.000000
1.299425 -9.234192 2.141917 47.000000
-2.091178 -9.152967 2.156542 21.333334
18.261875 -9.116974 2.110728 1.000000
-4.554064 -9.042948 2.136982 0.000000
-2.321812 -9.023439 2.140126 13.333333
-2.200791 -9.041632 2.137439 12.250000
-2.136841 -9.089058 2.144603 26.000000
-15.334854 -8.978926 2.152000 4.000000
-4.792809 -8.949800 2.142764 1.000000
-4.653589 -8.907181 2.121080 5.000000
18.215401 -8.986810 2.100441 11.000000
-15.584650 -8.799426 2.167389 13.000000
2.887089 -8.838286 2.135648 23.000000
5.305248 -8.843526 2.176632 9.500000
-15.712605 -8.774268 2.179411 20.500000
-8.667071 -8.752199 2.151951 7.000000
-10.743385 -8.610138 2.157966 15.000000
-3.998033 -8.601228 2.178630 22.000000
-10.619755 -8.593572 2.141243 1.000000
-8.901329 -8.548007 2.156082 29.000000
18.817202 -8.417355 2.131711 13.500000
19.255568 -8.414621 2.173062 9.750000
-10.991495 -8.336952 2.162302 14.000000
-4.243419 -8.360620 2.153558 0.000000
-3.750548 -8.341451 2.100726 30.000000
2.932767 -8.351297 2.197523 0.000000
3.830628 -8.309273 2.101621 0.000000
4.515323 -8.305817 2.171467 4.000000
-2.526882 -8.259899 2.144513 8.000000
19.263256 -8.292083 2.168742 7.000000
-10.844050 -8.171580 2.128236 14.000000
-3.406043 -8.114958 2.184993 37.500000
4.319747 -8.127685 2.114158 7.000000
4.670962 -8.129482 2.153558 4.000000
-3.428128 -8.025365 2.166681 37.000000
1.157587 -8.073153 2.179684 7.166667
1.242857 -8.009654 2.166258 9.500000
1.650281 -8.032420 2.191561 45.000000
-10.894909 -7.997252 2.118325 0.000000
-7.963879 -7.938898 2.167680 48.000000
3.516658 -7.931972 2.154151 24.666666
3.763028 -7.964344 2.186921 6.000000
4.511102 -7.996175 2.108785 1.333333
5.029979 -7.898527 2.150871 7.000000
-8.050942 -7.875769 2.171087 25.750000
-7.969246 -7.894492 2.162380 27.000000
-3.163422 -7.845412 2.100177 50.000000
1.305757 -7.844949 2.125463 22.000000
3.815984 -7.841350 2.165074 12.000000
4.995407 -7.844227 2.136096 13.500000
-4.098698 -7.770587 2.181138 17.000000
-2.629045 -7.718351 2.179168 25.000000
-4.072075 -7.661686 2.154151 10.000000
-2.570221 -7.677025 2.163676 18.000000
-2.933535 -7.512501 2.155414 52.000000
-2.332523 -7.539752 2.109283 13.666667
3.441828 -7.404552 2.182266 48.666668
4.194040 -7.489000 2.131019 1.000000
3.139217 -7.349129 2.135791 38.000000
3.329339 -7.281977 2.139922 35.000000
3.731194 -7.238414 2.176414 14.333333
-3.749159 -7.162341 2.160578 2.000000
3.179757 -7.192466 2.101709 11.000000
4.104101 -7.117114 2.195692 4.000000
4.175730 -6.985433 2.175036 2.000000
5.081898 -6.835227 2.114634 10.666667
4.258446 -6.780626 2.139922 6.666667
5.350484 -6.657038 2.120417 34.000000
5.430732 -6.692017 2.139694 25.000000
-10.888237 -6.311701 2.198763 24.333334
-17.122999 -5.779164 2.188548 16.000000
-16.997946 -5.677540 2.170274 45.000000
-10.852425 -5.683161 2.140249 0.000000
-16.964130 -5.577534 2.162580 57.000000
-16.965282 -5.445341 2.157771 39.750000
-16.992043 -5.321723 2.156328 5.000000
-17.028297 -5.245097 2.157771 9.500000
-10.907335 -5.239973 2.114089 17.000000
-17.196217 -5.012183 2.169152 35.333332
-17.088518 -5.078076 2.158893 56.333332
-10.951468 -5.030177 2.105484 16.500000
-17.355343 -4.930674 2.184941 9.500000
-11.007932 -4.910258 2.105828 9.000000
-12.524180 -4.817640 2.103253 25.000000
-11.023303 -4.875653 2.105828 3.000000
-12.611822 -4.610278 2.104699 9.000000
-12.707461 -4.554855 2.115848 4.000000
-12.891256 -4.461418 2.138146 13.500000
-12.900912 -4.396857 2.136288 23.000000
-12.882841 -4.188383 2.123281 13.500000
-12.007883 -3.655140 2.192911 10.500000
-13.740106 2.850442 2.199466 13.666667
-13.454090 3.190307 2.167257 32.666668
-13.098743 3.164080 2.112131 50.000000
-13.176983 3.270823 2.128029 52.666668
-13.177086 3.380874 2.132262 53.500000
-13.254697 3.467414 2.147437 66.000000
-13.320135 3.529284 2.159825 61.000000
-13.515067 3.671966 2.195130 26.000000
-13.473104 3.615147 2.186459 42.000000
-13.042514 3.631720 2.122042 26.000000
-12.993002 3.661960 2.115848 57.000000
-12.893778 3.721455 2.103460 65.500000
-12.877548 3.870878 2.107641 57.750000
-15.065750 4.866101 2.198295 0.000000
-14.823772 4.942712 2.169689 24.000000
-13.045094 4.997094 2.189555 69.000000
-12.918756 4.995300 2.170974 33.000000
-10.041860 4.952085 2.158342 25.333334
-12.869868 5.022928 2.165399 1.000000
-9.730515 5.093665 2.117204 3.666667
-14.898966 5.176706 2.190044 32.000000
-12.662876 5.126423 2.141243 42.000000
-14.901320 5.230052 2.192794 21.000000
-12.662024 5.218954 2.146611 25.000000
-14.864436 5.322235 2.192244 3.000000
-12.715403 5.381661 2.164160 34.000000
-9.733887 5.391149 2.144966 1.500000
-12.841077 5.530239 2.191414 10.000000
-12.754772 5.540641 2.179645 20.000000
-6.648404 5.624245 2.162022 13.666667
-9.826016 5.755662 2.195189 7.833333
-9.362487 5.717127 2.114681 2.000000
-6.868571 5.707686 2.117004 23.600000
-9.390154 5.825661 2.130202 5.750000
-9.208460 5.823595 2.100295 10.000000
-9.614797 5.996328 2.184337 33.000000
-7.319306 5.958849 2.167885 6.000000
-9.282540 6.024602 2.133230 23.750000
-9.535379 6.114556 2.183580 2.000000
-9.405320 6.199313 2.171466 25.000000
-12.214432 6.489063 2.167877 2.000000
-8.784447 6.474133 2.103576 25.666666
-6.089461 6.423687 2.197523 36.000000
-13.800008 6.517343 2.119078 14.000000
-12.281240 6.623834 2.187078 0.000000
-12.187456 6.622758 2.174071 1.000000
-12.230855 6.846807 2.196988 2.000000
-12.104046 6.926445 2.185839 16.000000
-12.041142 6.940753 2.178406 10.000000
-11.932482 6.978368 2.166638 9.000000
3.616377 7.070063 2.122365 22.000000
3.812354 7.038930 2.139406 14.000000
-3.159774 7.208215 2.103431 18.333334
-13.260674 7.368674 2.106425 9.000000
-13.306600 7.449008 2.117427 16.000000
-13.194807 7.661078 2.118527 9.000000
-8.207155 7.650683 2.162885 2.666667
-8.099362 7.629788 2.144966 3.000000
-13.331419 7.796496 2.144383 2.000000
-8.046401 7.740471 2.152285 24.333334
-8.224626 7.845901 2.191151 32.000000
-13.348018 7.947634 2.157036 2.500000
-13.174688 7.928670 2.135031 16.000000
-13.061621 8.085924 2.133014 4.000000
-3.286056 8.076370 2.164753 3.000000
-12.984879 8.180197 2.130905 20.000000
-8.875843 8.253720 2.117531 0.000000
-12.905826 8.329991 2.132831 3.000000
-9.336639 8.372808 2.191018 4.250000
-9.264678 8.453889 2.191190 8.000000
-9.061901 8.533538 2.174669 2.000000
-3.768997 8.525303 2.141021 3.000000
-13.110476 8.697392 2.184542 4.000000
-8.654142 8.651079 2.137839 5.500000
-8.427110 8.683938 2.114089 36.000000
-8.554351 8.741521 2.136806 6.000000
-8.282678 8.789364 2.109959 2.000000
-3.742732 8.762002 2.188480 11.000000
-3.657432 8.713451 2.170571 6.000000
-12.445255 8.949412 2.128430 22.000000
-12.753268 9.049882 2.171339 48.000000
-12.676418 9.055356 2.163088 37.000000
-12.510509 9.176443 2.154285 25.000000
-12.494370 9.225111 2.156486 0.000000
-12.582982 9.351766 2.176841 11.000000
-12.598965 9.456133 2.187293 11.000000
-14.428056 9.698909 2.105354 0.000000
-12.562520 9.604766 2.195728 36.000000
-12.430120 9.638261 2.183992 26.000000
-12.384553 9.696775 2.183992 33.000000
-11.787423 9.737447 2.122928 50.333332
-11.690657 9.761047 2.114677 28.000000
-9.198367 9.761069 2.102221 0.000000
-9.229784 9.856260 2.116467 14.000000
-9.091024 9.893347 2.105937 9.000000
-12.307734 9.952388 2.197745 17.000000
-12.120995 10.185147 2.198295 9.000000
-11.766973 10.142653 2.157036 5.000000
-11.660769 10.147240 2.146309 6.500000
-11.745980 12.940383 2.116414 3.000000
-11.706051 13.019238 2.120261 17.500000
-11.221958 13.686172 2.143344 1.000000
-11.201980 13.927475 2.164504 0.000000
-9.438846 14.708153 2.116414 1.000000
-13.373772 15.697463 2.132535 0.000000
-13.092544 15.664068 2.111139 2.000000
-13.119534 15.796945 2.123483 0.000000
-12.671303 16.591370 2.158867 4.000000
-11.702194 16.805941 2.117723 6.000000
-10.978462 17.226101 2.112374 8.000000
2.626134 17.892176 2.189991 0.000000
2.354040 18.002092 2.198647 0.000000
2.580069 17.971090 2.198647 16.000000
14.223350 20.185312 2.120421 0.000000
4.496911 20.301023 2.150227 9.000000
5.913548 20.262135 2.182731 0.000000
6.003282 20.214951 2.180674 8.500000
14.180432 20.259281 2.123501 0.000000
2.407386 20.400906 2.124305 0.000000
4.317739 20.400892 2.156399 3.000000
