# This PCD file was generated using the MATLAB® pcwrite function
# from Computer Vision Toolbox®.
# .PCD v.7 - Point Cloud Data file format
VERSION .7
FIELDS x y z intensity
SIZE 4 4 4 4
TYPE F F F F
COUNT 1 1 1 1
WIDTH 1220
HEIGHT 1
VIEWPOINT 0 0 0 1 0 0 0
POINTS 1220
DATA ascii
5.696381 -11.556204 -0.910194 35.000000
5.938824 -11.496412 -0.914141 42.000000
6.014165 -11.508959 -0.917382 46.000000
5.602202 -11.455757 -0.900892 46.000000
5.822864 -11.403444 -0.904557 35.500000
6.160105 -11.479049 -0.920342 22.000000
-8.180905 -11.318103 -0.986584 8.000000
-7.331623 -11.376454 -0.956141 27.000000
6.196491 -11.332309 -0.912449 5.500000
-7.342928 -11.238276 -0.948389 33.000000
-8.244013 -11.108672 -0.977282 6.000000
-7.363832 -11.117102 -0.942047 34.000000
6.200779 -11.172785 -0.902725 2.500000
-7.333356 -10.921556 -0.929362 35.000000
-7.319945 -10.718643 -0.916960 33.500000
-7.390399 -10.499885 -0.907094 37.000000
-7.347782 -10.579937 -0.910006 37.666668
-7.591973 -10.434128 -0.911604 111.000000
6.351834 -9.235068 -0.987523 1.000000
6.384090 -9.127752 -0.981380 2.500000
6.387571 -8.981544 -0.971024 3.000000
-7.145563 -8.625233 -0.986821 33.000000
-7.169383 -8.517001 -0.980853 35.250000
2.470670 -8.526420 -0.938514 12.333333
2.547159 -8.509424 -0.939074 9.600000
-7.193973 -8.393373 -0.973949 25.000000
-7.235241 -8.227738 -0.965319 31.750000
-7.242481 -8.100274 -0.957333 41.000000
-7.214590 -8.018241 -0.950311 25.000000
-7.209254 -7.911936 -0.943056 30.000000
-7.203104 -7.756982 -0.932642 35.333332
-8.188061 -7.654258 -0.987523 2.500000
5.609069 -7.613542 -0.999773 30.333334
-8.124668 -7.523526 -0.975588 3.000000
-7.194774 -7.484410 -0.914679 38.000000
-7.183310 -7.566998 -0.919243 41.500000
-7.069793 -7.518039 -0.909238 35.000000
5.719073 -7.504485 -0.997530 48.500000
5.607948 -7.463908 -0.987016 33.333332
-7.168739 -7.318054 -0.902568 40.500000
5.629369 -7.362911 -0.979867 37.000000
5.721188 -7.362435 -0.985755 48.500000
-7.922579 -7.183757 -0.942237 34.333332
-7.869717 -7.241646 -0.942237 25.000000
-7.777747 -7.112021 -0.928546 43.000000
-7.559620 -7.156343 -0.917137 26.500000
-7.453938 -7.167989 -0.911110 34.000000
-7.305462 -7.158859 -0.901163 32.000000
5.650565 -7.154988 -0.963886 42.500000
-7.906393 -7.004830 -0.930652 9.000000
-7.830207 -7.003502 -0.925562 38.000000
5.667065 -7.015769 -0.953478 42.250000
-8.061607 -6.882787 -0.933929 15.666667
-7.904274 -6.914725 -0.925269 29.000000
5.672284 -6.866440 -0.941598 43.666668
-8.094521 -6.686846 -0.925035 5.000000
-7.982393 -6.721802 -0.919418 6.000000
5.681310 -6.725403 -0.930769 42.500000
5.839780 -6.599733 -0.931673 33.599998
-8.111758 -6.552412 -0.918716 1.500000
5.658256 -6.523060 -0.912931 41.833336
6.417430 -6.548691 -0.969353 30.000000
6.564066 -6.532065 -0.979026 31.000000
-8.089098 -6.429851 -0.910408 2.333333
6.056277 -6.478652 -0.937602 47.000000
6.388920 -6.397846 -0.955896 45.000000
6.460104 -6.388345 -0.960522 25.000000
-8.101671 -6.295671 -0.903972 3.000000
5.698246 -6.350800 -0.902066 25.000000
5.899100 -6.290430 -0.911739 41.000000
6.278769 -6.367055 -0.945383 25.000000
6.656803 -6.299428 -0.968933 3.000000
6.020460 -6.241076 -0.916786 41.000000
6.211880 -6.259768 -0.932346 5.000000
5.744000 -5.487273 -0.979879 9.500000
5.720165 -5.362236 -0.967147 19.500000
5.607646 -5.109726 -0.935807 53.000000
5.880183 -5.077528 -0.958332 60.500000
6.005532 -5.071476 -0.969595 62.000000
-7.048539 -4.913457 -0.908375 37.333332
-7.541417 -4.878763 -0.949588 53.000000
-7.480542 -4.789578 -0.939074 42.500000
-7.171261 -4.882442 -0.917206 30.500000
-7.054450 -4.803246 -0.902277 39.500000
-7.236077 -4.713541 -0.913001 63.000000
5.778077 -4.741209 -0.921973 42.500000
5.864783 -4.705303 -0.927482 76.000000
5.995055 -4.758440 -0.944131 66.666664
-7.548664 -4.651237 -0.937392 14.000000
-7.486696 -4.645566 -0.931505 5.000000
-7.300701 -4.615277 -0.913141 31.000000
5.785109 -4.671329 -0.917198 53.000000
5.874551 -4.622816 -0.922095 70.000000
-7.308758 -4.471795 -0.905851 5.000000
-6.984699 -4.035868 -0.995060 24.000000
5.762599 -4.041021 -0.993051 47.500000
-6.956762 -3.932741 -0.985755 31.000000
-6.869541 -3.969265 -0.978655 36.000000
-6.896682 -3.863265 -0.975104 45.250000
5.943454 -3.828826 -0.997521 62.000000
-6.867428 -3.727308 -0.963841 37.500000
5.870831 -3.721711 -0.980756 51.333332
-7.040085 -3.636770 -0.977431 34.000000
5.795040 -3.656398 -0.966785 46.000000
-6.990446 -3.541935 -0.966657 40.000000
5.992144 -3.372267 -0.970138 74.000000
-6.899600 -3.227628 -0.939602 50.750000
5.964293 -3.234304 -0.957285 10.000000
6.140763 -3.206052 -0.977403 48.333332
-7.349978 -3.065523 -0.982327 19.000000
-7.397223 -2.949696 -0.982327 24.000000
-7.321365 -2.981993 -0.975145 19.333334
-7.301897 -2.809131 -0.965066 36.125000
-7.210769 -2.849125 -0.956374 33.000000
-7.399375 -2.710714 -0.972044 17.000000
-7.304099 -2.727984 -0.961760 34.000000
-7.001875 -2.490617 -0.916708 28.333334
-6.922706 -2.511452 -0.908384 17.000000
-6.920004 -2.400317 -0.903487 32.500000
5.896648 -2.450368 -0.900955 54.599998
6.965461 -2.402487 -0.908873 22.000000
-6.987938 -2.352189 -0.909503 35.428570
5.883556 -2.195283 -0.998003 53.166668
6.211736 -2.043398 -0.922637 40.500000
6.360458 -2.033895 -0.915672 54.222221
5.925568 -1.935573 -0.990679 54.333332
-6.885182 -1.610396 -0.997693 46.153847
6.180672 -1.601118 -0.900843 37.000000
-6.789268 -1.581161 -0.983550 53.000000
-7.417446 -1.433745 -0.931889 7.000000
-7.323575 -1.427320 -0.920381 24.000000
-7.173326 -1.480199 -0.903487 37.500000
-6.892908 -1.480418 -0.994727 44.000000
-7.301592 -1.352012 -0.915974 31.500000
-7.850706 -1.212546 -0.979879 5.000000
-6.914693 -1.225469 -0.990815 51.000000
5.910172 -1.246546 -0.959916 50.000000
6.022362 -1.250460 -0.977495 43.000000
6.886111 -1.227843 -0.986903 7.000000
6.175021 -1.171254 -0.998840 51.000000
-6.949309 -1.024368 -0.991095 46.750000
5.870198 -1.037307 -0.920471 43.750000
5.915843 -1.074024 -0.955521 37.000000
6.944796 -1.014374 -0.990256 2.000000
-7.841498 -0.910059 -0.973758 5.000000
-6.916445 -0.870072 -0.983550 44.000000
6.213272 -0.847773 -0.996580 41.000000
6.350363 -0.846361 -0.903916 32.500000
-7.981765 -0.774180 -0.989183 5.000000
6.170727 -0.684791 -0.986702 47.000000
6.479727 -0.770376 -0.920681 61.000000
6.058574 -0.532980 -0.993844 51.250000
6.148997 -0.558455 -0.981261 67.333336
6.264632 -0.397431 -0.997584 56.000000
6.373156 -0.384279 -0.900843 88.000000
6.578778 -0.396613 -0.929902 40.000000
-6.955476 -0.324362 -0.982433 29.000000
-6.860992 -0.363101 -0.969393 18.000000
6.123892 -0.369189 -0.974983 32.000000
-7.067835 -0.173968 -0.997521 1.000000
-7.532705 -0.053945 -0.929196 26.500000
5.937088 -0.068387 -0.943593 54.500000
7.371748 -0.074626 -0.909363 2.000000
7.417752 -0.016815 -0.914994 4.500000
-7.025482 0.114044 -0.991374 35.000000
6.241623 0.022844 -0.991934 44.666668
-7.030823 0.173130 -0.992306 36.000000
-7.815560 0.331068 -0.964943 2.750000
6.004144 0.397369 -0.999708 55.799999
-7.823895 0.489494 -0.966984 1.000000
-17.030190 0.573824 -0.907039 0.500000
-16.937378 0.703962 -0.902361 1.000000
-7.825106 0.621346 -0.968290 5.333333
-16.907297 0.809141 -0.901015 20.000000
-7.819624 0.765413 -0.969187 1.000000
5.951389 0.767670 -0.953638 39.000000
6.393767 0.865607 -0.910343 77.000000
-16.899788 0.941908 -0.900979 27.000000
-7.829992 0.944801 -0.972860 4.000000
6.411544 0.991414 -0.915373 111.000000
6.901925 0.978603 -0.983550 1.000000
-16.928892 1.077032 -0.902957 39.200001
-7.810450 1.060922 -0.972289 1.250000
6.038342 1.099322 -0.975402 40.333332
6.172091 1.053906 -0.995073 41.000000
5.943654 1.140271 -0.961799 42.500000
-17.076815 1.248185 -0.911433 30.000000
-7.818503 1.237678 -0.976451 3.500000
-17.265137 1.370924 -0.921922 15.000000
-7.810612 1.375168 -0.978287 2.250000
5.887410 1.332185 -0.959288 40.000000
6.047038 1.348179 -0.984610 50.333332
-7.772604 1.547218 -0.977594 4.333333
-7.780069 1.693523 -0.982164 26.500000
6.821239 1.701990 -0.991933 38.000000
-7.743526 1.794117 -0.980491 25.000000
-7.661793 1.802672 -0.970901 28.000000
-7.506649 1.907839 -0.955394 5.000000
6.742318 1.834486 -0.985887 33.909092
7.099771 1.837442 -0.904629 22.000000
-7.760982 1.998323 -0.988571 1.500000
6.188186 1.974817 -0.916490 49.000000
6.781706 1.962706 -0.996124 24.000000
-10.818080 2.106739 -0.971024 15.000000
-7.732484 2.095072 -0.988204 3.000000
-7.681503 2.055379 -0.980858 0.000000
-7.527626 2.083999 -0.963474 19.750000
-7.392437 2.103001 -0.948049 35.000000
-7.156896 2.060318 -0.918667 39.000000
-6.783261 2.020890 -0.998639 44.000000
5.933447 2.048844 -0.997584 27.000000
6.586634 2.067914 -0.974050 92.000000
-7.352397 2.141637 -0.944621 46.000000
-7.156181 2.133352 -0.921116 46.000000
-6.730947 2.155767 -0.997242 48.750000
5.914321 2.120120 -0.998498 35.181820
-7.092761 2.310054 -0.920136 42.000000
-7.055808 2.298231 -0.915362 45.250000
6.066597 2.310544 -0.915931 35.000000
-7.040570 2.366678 -0.916219 40.000000
7.089046 2.371962 -0.922095 0.000000
5.940650 2.435227 -0.905872 33.000000
6.128520 2.467377 -0.932138 20.000000
-6.827174 2.595202 -0.900940 42.799999
5.939166 2.610865 -0.915373 35.599998
6.024965 2.567304 -0.900924 40.799999
7.472219 2.552486 -0.974003 4.000000
6.155475 2.659886 -0.946109 27.000000
5.941762 2.724270 -0.922265 26.666666
-6.726327 2.903820 -0.903731 48.500000
5.934399 2.903380 -0.932138 36.000000
6.108320 2.870452 -0.952256 52.000000
7.244286 2.915122 -0.963229 4.000000
-6.705939 3.046236 -0.908547 47.500000
5.981453 3.032476 -0.909660 34.692307
-6.688691 3.195946 -0.914423 47.500000
-6.610432 3.218411 -0.906914 40.000000
-6.691441 3.362479 -0.923760 40.200001
6.239519 3.324599 -0.997521 4.000000
-6.721016 3.497392 -0.934582 39.500000
5.845880 3.616118 -0.969859 35.500000
6.054159 3.550534 -0.990256 36.000000
6.113204 3.559398 -0.998080 65.000000
-6.712130 3.641291 -0.901544 50.400002
6.022593 3.621589 -0.991560 45.000000
6.939752 3.640362 -0.966657 1.000000
5.995025 3.747562 -0.997521 38.000000
5.904365 3.821172 -0.992306 40.000000
-6.808610 3.975443 -0.972534 48.000000
-6.870845 4.084703 -0.986000 54.000000
-6.728651 4.110308 -0.972615 47.666668
-6.694076 4.254748 -0.978410 48.599998
6.020675 4.281834 -0.911322 38.000000
6.008934 4.359297 -0.915729 46.799999
6.293256 4.328470 -0.942173 58.000000
-6.746137 4.423018 -0.995060 46.750000
-6.601584 4.432737 -0.980858 38.000000
5.914326 4.434070 -0.911811 37.400002
6.435285 4.485978 -0.967637 32.000000
5.898254 4.524352 -0.916953 32.500000
6.591856 4.534017 -0.986898 61.333332
6.024367 4.705195 -0.904349 40.857143
5.876930 4.747176 -0.931889 40.000000
6.151546 4.764753 -0.959801 19.000000
6.134694 4.876261 -0.966657 41.000000
6.271244 5.017029 -0.990652 39.000000
5.979813 5.067712 -0.966902 36.500000
-6.771233 5.175189 -0.901015 47.500000
5.975548 5.161597 -0.974003 31.000000
-6.804275 5.285547 -0.910898 45.000000
6.028106 5.290083 -0.989306 36.000000
6.985976 5.237597 -0.923094 3.000000
-6.815809 5.415719 -0.920360 39.000000
-6.780846 5.318777 -0.911108 40.000000
-6.768285 5.482831 -0.920886 44.500000
-6.738561 5.600575 -0.926353 44.500000
7.380857 5.716930 -0.987016 4.000000
-6.792494 5.736042 -0.939915 53.000000
-6.757293 5.779464 -0.940056 39.666668
-6.758753 5.873240 -0.946644 39.000000
7.296577 5.874990 -0.990381 4.000000
6.050725 6.004401 -0.901225 42.500000
6.147267 5.948688 -0.904379 53.000000
6.243452 5.966372 -0.913001 53.000000
6.942950 5.921462 -0.964728 2.000000
-6.806391 6.021948 -0.960802 39.000000
-6.788940 6.031743 -0.960102 42.000000
-6.815962 6.132815 -0.969353 38.000000
-6.740010 6.141583 -0.964027 46.333332
6.069606 6.157096 -0.914052 40.000000
-6.798625 6.293410 -0.979447 45.500000
-6.724485 6.343553 -0.977344 43.750000
6.030506 6.412858 -0.930663 37.000000
6.250358 6.400508 -0.945803 106.000000
6.051812 6.451700 -0.935205 30.200001
6.158986 6.447268 -0.942649 43.500000
6.287836 6.499969 -0.956106 73.500000
-6.773169 6.531702 -0.994796 40.000000
-6.717218 6.621833 -0.997215 46.250000
6.142719 6.677873 -0.959260 27.500000
6.059188 6.776871 -0.961083 35.000000
6.136791 6.756047 -0.964938 36.000000
6.027234 6.928751 -0.970895 45.333332
6.120956 6.933099 -0.977764 78.000000
6.081110 7.110008 -0.989119 38.000000
6.115245 7.059632 -0.987437 55.000000
6.117991 7.198792 -0.998792 55.000000
-6.861477 7.793777 -0.914855 82.000000
-6.743877 7.782663 -0.907307 42.250000
-6.753493 7.994675 -0.922051 41.750000
-6.732441 8.149884 -0.931354 41.000000
-6.732312 8.307870 -0.942120 42.000000
7.438464 8.267052 -0.979800 4.000000
6.022193 8.414877 -0.911695 37.500000
-6.765841 8.484585 -0.956104 40.000000
-6.770330 8.600493 -0.964354 50.500000
6.083108 8.528204 -0.922929 34.000000
6.184239 8.612621 -0.934163 44.000000
6.102794 8.670524 -0.934163 32.000000
7.150646 8.631371 -0.987523 3.000000
-6.746099 8.738043 -0.972604 44.000000
-6.733256 8.893385 -0.982784 39.000000
6.067273 8.884227 -0.947854 33.000000
6.214798 8.888853 -0.955577 46.000000
-6.685871 8.976324 -0.986119 43.000000
6.081836 9.088409 -0.963476 45.500000
6.172844 9.069336 -0.966577 35.333332
6.060788 9.181339 -0.969269 32.500000
6.389130 9.199604 -0.986821 26.000000
6.082910 9.309838 -0.979800 92.000000
-6.902030 10.968806 -0.915550 37.666668
-6.931913 11.171317 -0.928798 78.000000
6.029178 11.282167 -0.903711 41.000000
-7.236999 11.342335 -0.950503 73.000000
6.083442 11.470251 -0.917241 53.000000
-7.130217 11.653708 -0.965161 43.000000
6.166317 11.715279 -0.935282 31.000000
-7.029554 11.736361 -0.966477 46.333332
-7.300748 11.848658 -0.983202 37.000000
-6.967811 11.885856 -0.973336 34.000000
6.214460 11.897280 -0.948248 38.000000
-7.082211 11.994467 -0.984047 54.000000
6.157836 11.971572 -0.951067 70.000000
-7.311097 12.034109 -0.994759 21.000000
-7.097026 12.193912 -0.996732 44.000000
6.102065 12.143163 -0.960087 57.000000
6.162600 12.191874 -0.965091 31.750000
6.140641 12.413731 -0.978410 38.000000
6.131495 12.493854 -0.983202 93.000000
2.499386 12.834308 -0.923725 1.000000
2.547444 12.865534 -0.926543 11.000000
2.607533 12.955257 -0.933590 6.000000
2.779323 12.964384 -0.936691 41.000000
2.866914 12.942495 -0.936503 42.333332
3.027511 12.989254 -0.942235 23.666666
3.190559 12.980165 -0.944302 12.000000
3.283669 12.920026 -0.941765 7.000000
2.729093 13.080997 -0.944020 29.000000
3.093233 13.024360 -0.945711 24.000000
3.186362 13.051181 -0.949094 7.000000
3.237891 13.083713 -0.952195 0.000000
3.385932 13.149216 -0.959242 1.000000
-3.993552 13.311208 -0.981792 47.000000
3.501528 13.252343 -0.968356 9.666667
-3.944136 13.349400 -0.983389 36.166668
-7.167516 15.511928 -0.909590 26.000000
-7.167008 15.639672 -0.915756 29.000000
-7.145930 15.723933 -0.919371 46.000000
6.473275 15.736516 -0.905763 19.000000
-7.291670 16.247574 -0.947968 25.500000
-7.295184 16.462521 -0.958493 25.000000
-7.306293 16.699829 -0.970294 23.500000
-7.355104 17.029247 -0.987409 26.000000
6.509569 17.190771 -0.978479 11.000000
6.520058 17.383171 -0.988260 14.000000
6.511319 17.527134 -0.995276 15.000000
-8.378356 24.291201 -0.920657 31.000000
-8.498038 24.389328 -0.925383 12.000000
-8.418244 24.657875 -0.933547 31.000000
-8.526292 25.233326 -0.954315 29.000000
-8.507822 25.441961 -0.961190 21.000000
3.180925 -24.728252 -0.893301 1.000000
3.216277 -24.397121 -0.881699 34.000000
3.266691 -24.192783 -0.874681 30.000000
3.321334 -24.027971 -0.869095 31.000000
3.477391 -24.042234 -0.870384 45.000000
3.371054 -23.835348 -0.862507 39.000000
1.540031 -23.622663 -0.848184 9.000000
-8.494386 -23.529621 -0.896308 21.000000
1.606605 -23.506041 -0.844174 46.000000
1.828998 -23.501812 -0.844604 0.000000
3.472804 -23.489431 -0.850762 34.000000
3.560912 -23.573269 -0.854200 31.000000
1.714889 -23.464291 -0.842957 46.500000
3.612402 -23.415789 -0.848901 32.000000
-8.498437 -23.311281 -0.889004 31.000000
-8.470820 -23.010620 -0.878548 32.000000
3.616296 -22.962063 -0.832859 26.000000
3.652262 -22.725620 -0.824695 33.000000
-8.430258 -22.680389 -0.866947 34.000000
3.706820 -22.611469 -0.820971 33.000000
-8.422741 -22.337433 -0.855346 33.000000
3.735658 -22.347380 -0.811805 32.000000
3.782346 -22.197613 -0.806792 35.000000
3.862322 -22.244698 -0.808941 33.000000
-8.475132 -22.159357 -0.850046 36.000000
-8.443928 -21.871580 -0.840021 32.000000
-8.422610 -21.614017 -0.831141 33.000000
-8.389511 -21.330769 -0.821258 30.000000
-8.339975 -21.010788 -0.809943 29.000000
-8.319727 -20.769257 -0.801636 32.000000
-19.202263 -16.164087 -0.899316 0.000000
2.005704 -15.966347 -0.856577 48.333332
-17.999191 -15.541966 -0.852052 0.000000
-18.528727 -15.399246 -0.863223 6.000000
-19.166206 -15.376919 -0.880410 10.500000
-18.543114 -15.312956 -0.861648 3.000000
-4.822508 -15.295041 -0.853671 22.000000
-19.936028 -15.236737 -0.899030 1.000000
-18.265623 -15.277848 -0.853197 7.000000
-5.018071 -15.244615 -0.854309 4.000000
-4.905842 -15.225101 -0.851474 66.333336
-17.640951 -14.992364 -0.829493 19.000000
-17.971466 -14.793471 -0.834005 13.000000
-18.836708 -14.727406 -0.856706 1.500000
-18.363497 -14.780473 -0.844604 8.000000
-18.070263 -14.685307 -0.834292 25.500000
-7.761764 -14.746440 -0.887053 50.000000
-7.861232 -14.655116 -0.885245 78.000000
5.320490 -14.488055 -0.821566 20.000000
-7.766840 -14.478930 -0.874614 48.000000
5.355386 -14.338884 -0.814762 42.000000
5.370812 -14.243502 -0.810297 37.000000
-7.682085 -14.054901 -0.852608 12.000000
5.355846 -14.069773 -0.801367 35.000000
-7.666473 -13.922231 -0.846017 44.000000
-7.471835 -13.468455 -0.819865 32.000000
-7.497458 -13.316792 -0.813486 33.599998
-7.525330 -13.124133 -0.805300 38.500000
5.300987 -11.378451 -0.886798 40.000000
5.414900 -11.342372 -0.887926 41.666668
5.570038 -11.344728 -0.892859 32.000000
5.694983 -11.342971 -0.896664 41.000000
6.202872 -10.940521 -0.888489 12.400000
6.229970 -10.704158 -0.874959 3.000000
6.249956 -10.623099 -0.870731 2.500000
6.265311 -10.535226 -0.865939 3.000000
6.263524 -10.457299 -0.861147 1.000000
-7.348483 -10.302116 -0.893986 35.000000
6.267248 -10.352571 -0.854946 3.500000
-7.490032 -10.271368 -0.898073 32.666668
-7.294032 -10.225858 -0.887362 32.000000
6.302772 -10.157618 -0.844516 2.333333
-7.420604 -10.065064 -0.883416 41.000000
6.302830 -10.016479 -0.836060 2.000000
-7.505563 -9.916933 -0.878624 15.000000
-7.309517 -9.849454 -0.866503 17.000000
6.325622 -9.845884 -0.826758 2.000000
-7.354474 -9.781009 -0.864530 111.000000
-7.237744 -9.688988 -0.854382 31.000000
6.345030 -9.707363 -0.819288 3.000000
-7.272076 -9.504622 -0.845456 36.000000
6.358790 -9.563654 -0.811348 2.000000
6.388504 -9.414698 -0.803784 4.000000
6.434542 -9.482374 -0.809563 10.000000
-8.122689 -9.317778 -0.873268 3.000000
-7.257460 -9.342881 -0.835778 33.333332
-7.215578 -9.110352 -0.821026 36.666668
-7.243584 -9.028544 -0.817737 36.000000
-7.216959 -8.909048 -0.809986 39.000000
-7.206959 -8.783352 -0.802657 37.000000
-7.510800 -8.670705 -0.810408 37.000000
5.570558 -7.712375 -0.838207 31.000000
5.593040 -7.618663 -0.832707 39.799999
6.513861 -7.589122 -0.881153 5.000000
5.645751 -7.432697 -0.822351 40.333336
5.640680 -7.306157 -0.813224 44.000000
5.808380 -7.354687 -0.825686 10.000000
5.676561 -7.265680 -0.812346 26.666666
-7.174596 -7.164616 -0.893323 39.333332
5.690134 -7.158608 -0.805676 23.000000
5.776594 -7.037548 -0.802165 71.000000
5.875847 -7.022510 -0.806729 96.000000
6.021984 -7.060813 -0.817612 37.000000
5.713295 -6.248117 -0.895097 37.285713
-8.040380 -6.047835 -0.886419 6.000000
-8.039536 -5.948980 -0.881153 8.000000
-8.066387 -5.803901 -0.875536 3.000000
-8.028512 -5.671891 -0.866058 7.000000
5.799755 -5.675587 -0.857909 32.333332
5.869849 -5.660532 -0.862115 10.000000
-8.073841 -5.515866 -0.861494 1.000000
5.708448 -5.516490 -0.839265 24.000000
5.905722 -5.518748 -0.854545 3.000000
-7.918250 -5.354907 -0.842186 14.500000
5.711696 -5.337710 -0.826509 16.333334
5.715610 -5.175366 -0.815182 42.599998
5.755247 -5.080991 -0.891137 45.705883
5.847428 -5.065366 -0.871986 39.400002
5.820244 -4.904791 -0.893906 47.333332
6.809331 -4.954535 -0.890291 0.000000
6.074111 -4.537406 -0.801557 42.000000
5.693376 -4.422668 -0.889286 40.333332
-7.091595 -4.308367 -0.877254 16.000000
5.735806 -4.341160 -0.887327 44.400002
5.652219 -4.194648 -0.868229 46.000000
5.750776 -4.191168 -0.877778 36.500000
-6.950821 -4.143643 -0.855526 37.833336
5.828186 -4.166488 -0.883736 39.666668
-6.965528 -4.039474 -0.851286 34.750000
5.782630 -4.022130 -0.868882 43.555557
-6.918169 -3.918162 -0.840562 38.750000
5.834826 -3.957919 -0.869698 51.500000
-7.034420 -3.875175 -0.849078 39.250000
5.839582 -3.881341 -0.864923 49.000000
-6.933416 -3.727965 -0.832256 37.500000
5.788771 -3.711302 -0.848212 42.125000
-6.962242 -3.596558 -0.828471 36.000000
5.776996 -3.608405 -0.840194 51.000000
-6.869024 -3.548387 -0.817397 40.166668
5.846557 -3.538044 -0.842960 55.799999
-7.100562 -3.417271 -0.833097 35.000000
-6.996642 -3.416175 -0.823172 39.599998
-6.896625 -3.453573 -0.815434 37.000000
5.865348 -3.413051 -0.864600 44.615383
5.801210 -3.338538 -0.825625 52.000000
-7.255707 -3.228901 -0.839616 18.000000
-7.004339 -3.276629 -0.817537 41.750000
5.776388 -3.235488 -0.895276 38.333332
5.830802 -3.270494 -0.864202 42.666668
-7.430439 -3.181620 -0.854545 18.000000
-7.282176 -3.158770 -0.839195 55.500000
-7.016506 -3.132352 -0.896789 35.000000
-6.932585 -3.176911 -0.873512 40.000000
5.782371 -3.148721 -0.812159 44.000000
5.881269 -3.114569 -0.820924 53.200001
5.978427 -3.122789 -0.831991 62.000000
5.854354 -2.988079 -0.810771 48.666668
5.969985 -2.999979 -0.824156 3.000000
-7.474792 -2.980628 -0.850760 11.000000
-7.362055 -2.935693 -0.837934 15.000000
-7.161071 -2.907810 -0.817117 25.000000
-7.019326 -2.953342 -0.871933 43.125000
-7.753313 -2.854100 -0.873469 4.000000
-7.322985 -2.866897 -0.831415 39.000000
-7.426535 -2.734034 -0.836672 32.000000
6.073190 -2.497511 -0.887500 92.000000
6.156320 -2.555068 -0.822197 52.000000
-7.909822 -2.427337 -0.874731 1.000000
-7.226041 -2.403928 -0.818348 45.099998
5.858734 -2.333915 -0.889806 54.250000
6.177849 -2.339345 -0.814852 37.000000
-6.824672 -2.188518 -0.884062 14.333333
5.884232 -2.221338 -0.887431 46.599998
6.095629 -2.231345 -0.858187 30.000000
6.224583 -2.223822 -0.815342 57.000000
6.429700 -2.263033 -0.840806 57.000000
6.626072 -2.204201 -0.861373 17.000000
6.914832 -2.228100 -0.896141 38.000000
-6.859383 -2.093142 -0.884633 8.500000
-6.766022 -2.115158 -0.874431 34.666668
5.951683 -2.049116 -0.888129 43.875000
6.183805 -1.899455 -0.873992 59.666668
6.359472 -1.944504 -0.834926 34.500000
6.005103 -1.789058 -0.884078 41.000000
6.020265 -1.834836 -0.887990 44.000000
-6.852688 -1.708567 -0.871167 2.000000
5.907660 -1.709574 -0.867732 45.000000
-6.873964 -1.607740 -0.870811 39.545456
-6.770697 -1.643008 -0.859414 40.000000
5.872310 -1.649526 -0.860607 60.000000
6.033837 -1.616644 -0.881377 52.166668
-6.906151 -1.488557 -0.871461 48.000000
6.048431 -1.485762 -0.878769 32.500000
6.160073 -1.513030 -0.894975 33.500000
5.929247 -1.397258 -0.859489 44.500000
-7.004707 -1.300846 -0.878839 35.000000
5.921218 -1.307321 -0.855577 51.857143
-6.988428 -1.124484 -0.873126 13.500000
-6.880580 -1.175959 -0.861046 41.888889
5.916473 -1.156349 -0.850585 43.799999
-6.926858 -0.993565 -0.863192 28.285715
6.001207 -1.007319 -0.858586 39.538460
-7.001956 -0.901903 -0.870840 22.333334
-6.943715 -0.938827 -0.864311 42.000000
5.968524 -0.910115 -0.851852 51.000000
6.431952 -0.912736 -0.839731 56.333332
5.915835 -0.851464 -0.843283 30.666666
6.207503 -0.813882 -0.883333 53.000000
-6.856164 -0.712160 -0.850273 33.000000
6.138629 -0.692046 -0.871624 43.142857
6.303166 -0.692402 -0.894696 29.333334
-7.801499 -0.583687 -0.827105 1.000000
-7.761050 -0.654443 -0.823425 4.000000
-7.142263 -0.670113 -0.884878 95.000000
-7.034901 -0.652417 -0.871493 46.333332
-6.963335 -0.557850 -0.861699 25.833334
-6.874130 -0.492743 -0.850110 44.000000
6.046988 -0.561056 -0.856854 48.428570
6.145288 -0.515984 -0.870107 59.500000
-6.878375 -0.417034 -0.850028 43.333332
5.916189 -0.431368 -0.836949 50.666668
6.010218 -0.438511 -0.850268 55.500000
-7.787195 -0.288377 -0.823845 1.000000
-6.978463 -0.346187 -0.861863 37.000000
-7.004525 -0.264555 -0.864650 34.230770
5.954905 -0.250293 -0.869598 46.363636
-7.145338 -0.084808 -0.881450 34.000000
-6.942416 -0.147920 -0.856558 24.666668
6.105498 -0.156679 -0.861724 44.000000
6.287534 -0.138668 -0.887351 34.571430
6.517718 -0.106940 -0.804079 87.000000
6.174516 -0.061437 -0.871225 49.333332
6.323349 -0.013247 -0.892181 41.500000
-7.148406 0.019782 -0.881777 46.000000
-7.016640 0.037617 -0.865535 42.500000
-6.922755 0.102728 -0.854028 45.500000
5.885122 0.064636 -0.851241 43.333332
-6.992554 0.180679 -0.862842 34.400002
-6.933387 0.168237 -0.855497 42.500000
5.928260 0.198706 -0.880998 53.083332
6.025971 0.167268 -0.850548 40.000000
-7.851301 0.350976 -0.830889 2.250000
5.908258 0.322155 -0.877287 48.500000
5.976293 0.360396 -0.880279 52.000000
-7.822299 0.489401 -0.828611 2.333333
6.005147 0.469611 -0.849877 54.599998
-7.860888 0.549688 -0.833097 0.000000
5.908961 0.531388 -0.897559 57.000000
-7.828819 0.621650 -0.830294 4.333333
5.916122 0.637464 -0.889087 51.466667
-7.825023 0.782462 -0.831415 1.500000
5.902648 0.778738 -0.856414 40.692307
6.086253 0.804513 -0.866195 41.000000
6.988792 0.766632 -0.867249 22.000000
7.169178 0.832039 -0.890265 4.000000
-7.821923 0.943778 -0.832957 5.000000
5.893755 0.930374 -0.895145 40.500000
5.975903 0.981805 -0.854459 58.000000
6.175939 0.968186 -0.882029 44.333332
-7.824066 1.062722 -0.834780 1.000000
5.927498 1.088901 -0.850361 52.000000
6.063066 1.074463 -0.868803 49.666668
6.108601 1.142090 -0.876813 29.000000
-7.816086 1.218377 -0.836321 5.000000
5.802932 1.236628 -0.837136 49.000000
5.895757 1.237241 -0.849989 46.799999
5.961865 1.231387 -0.858930 83.000000
-7.837097 1.376609 -0.841245 0.875000
5.967697 1.362768 -0.863680 27.125000
-7.806974 1.520345 -0.840877 7.500000
6.867079 1.598019 -0.869698 32.000000
6.961477 1.689522 -0.883654 31.000000
7.035526 1.713132 -0.893203 22.500000
-7.765464 1.720966 -0.840919 30.000000
6.445356 1.794594 -0.825299 41.666668
6.596941 1.777521 -0.842764 24.000000
-11.693423 1.898108 -0.836905 13.000000
-11.447277 1.895086 -0.819710 45.000000
-11.361536 1.862454 -0.813368 15.500000
-7.748338 1.852958 -0.842279 28.166666
6.355310 1.844978 -0.816321 44.166668
-11.496999 2.014786 -0.824596 31.000000
-7.713923 1.986371 -0.842139 1.500000
-7.634900 1.965984 -0.833518 10.333333
-7.342274 2.014140 -0.804921 42.799999
5.988566 1.983982 -0.890113 45.000000
-11.231587 2.041127 -0.806462 71.000000
-7.448436 2.018111 -0.815855 33.000000
-6.896289 2.032303 -0.886837 48.000000
-6.869892 2.112813 -0.886592 46.000000
-6.772559 2.112010 -0.875084 39.000000
5.952018 2.041320 -0.887803 43.333332
6.357836 2.027900 -0.823177 22.000000
7.309404 2.043573 -0.802398 4.000000
-11.543968 2.172877 -0.829858 34.000000
-11.155087 2.208768 -0.803361 49.000000
5.906295 2.132362 -0.886008 42.090908
5.968415 2.177039 -0.896372 47.500000
-11.584951 2.256082 -0.833805 30.000000
5.916205 2.306591 -0.895953 31.250000
-11.423157 2.411400 -0.824784 27.000000
-11.370627 2.350596 -0.820274 17.000000
-6.897777 2.342821 -0.898590 41.000000
-6.706617 2.324958 -0.875574 44.333332
-11.540369 2.474043 -0.833805 5.000000
-7.329620 2.489496 -0.818378 62.000000
-7.208888 2.473779 -0.805762 38.000000
-6.826228 2.462986 -0.895162 37.666668
-6.752457 2.460275 -0.886511 46.000000
5.990071 2.477229 -0.876201 40.000000
-11.038883 2.603394 -0.801247 0.500000
-6.766354 2.619118 -0.894999 44.000000
-7.724103 2.759587 -0.867161 37.000000
-6.730293 2.744057 -0.896561 42.857143
6.000766 2.730215 -0.847572 32.588234
6.002741 2.898425 -0.867499 30.307692
6.151681 2.842475 -0.835909 21.000000
5.949469 3.038660 -0.883437 39.250000
5.946239 3.178422 -0.857169 30.350000
6.175945 3.190374 -0.857455 28.000000
6.320832 3.290417 -0.879002 25.000000
7.092463 3.304256 -0.827210 0.000000
5.932525 3.329453 -0.839173 39.000000
6.039372 3.401630 -0.855007 37.500000
5.960053 3.482496 -0.851506 39.299999
6.715619 3.603902 -0.805762 42.000000
6.981578 3.523618 -0.826789 6.000000
5.957540 3.657950 -0.862352 36.833332
6.872220 3.715796 -0.825948 33.000000
-6.651447 3.769593 -0.862131 42.950001
5.923190 3.792434 -0.867576 33.333332
6.958320 3.790649 -0.837723 5.000000
-6.713344 3.962442 -0.824161 45.750000
5.863227 3.929768 -0.870677 30.909090
5.982819 3.950938 -0.884389 17.000000
-6.731468 4.073662 -0.831836 46.000000
-6.797364 4.171962 -0.843190 47.000000
-6.699936 4.214234 -0.836812 45.166668
6.505935 4.296393 -0.824266 5.000000
-6.720590 4.391142 -0.848742 43.799999
6.204979 4.403084 -0.849316 30.666666
6.448661 4.346403 -0.822163 22.000000
7.210581 4.380656 -0.891973 16.000000
6.369953 4.485168 -0.823635 43.500000
-6.707455 4.519269 -0.855071 41.250000
6.915221 4.535544 -0.874311 7.000000
-6.742542 4.702826 -0.869111 45.545456
6.271892 4.764076 -0.832677 42.000000
-6.719590 4.834199 -0.875152 43.000000
5.904467 4.877488 -0.877241 37.750000
6.045510 4.846842 -0.819219 35.666668
6.202546 4.866914 -0.833518 47.000000
6.309882 4.845348 -0.841088 26.666666
5.900415 4.961588 -0.875231 31.888889
6.049979 4.955292 -0.826789 32.666668
6.128505 4.934493 -0.831836 16.000000
-6.833506 5.027019 -0.896880 38.333332
-6.721012 5.020656 -0.886927 46.333332
5.952374 5.109014 -0.829312 31.000000
6.274436 5.019582 -0.849499 25.000000
6.660141 5.192250 -0.892815 24.000000
6.047618 5.290617 -0.849499 37.000000
6.131963 5.296705 -0.856648 39.000000
6.027387 5.408145 -0.856143 37.599998
5.923415 5.607334 -0.862325 28.500000
6.051277 5.591866 -0.871086 31.666666
6.055670 5.678702 -0.877675 29.000000
6.111847 5.624070 -0.878096 25.000000
5.912410 5.867268 -0.880619 39.000000
6.080066 5.883768 -0.894497 35.000000
7.071589 5.841816 -0.808133 0.000000
-6.873148 6.068026 -0.807782 50.000000
-7.012511 6.250154 -0.827617 30.000000
-6.871776 6.221931 -0.816734 32.500000
-6.880286 6.318960 -0.823053 43.750000
-6.753874 6.391313 -0.819250 39.166664
-6.849810 6.564146 -0.835867 24.000000
-6.955356 6.707331 -0.851313 40.000000
-6.830403 6.670169 -0.841133 30.000000
-6.740718 6.644927 -0.833936 35.000000
-6.806499 6.816107 -0.848680 66.000000
-6.761227 6.813384 -0.845696 41.000000
6.052539 6.812347 -0.802867 32.000000
-7.108679 6.898417 -0.872728 19.000000
6.137651 6.864589 -0.811293 24.000000
-6.807959 6.991006 -0.859739 40.000000
-6.750861 6.932526 -0.852542 43.000000
-6.814877 7.108967 -0.867638 25.500000
6.240857 7.113828 -0.833760 69.000000
-6.745418 7.125607 -0.864478 51.000000
-6.743011 7.258894 -0.872903 46.750000
-6.778604 7.413119 -0.885015 41.000000
6.193869 7.381598 -0.848973 46.666668
6.303855 7.393840 -0.856053 45.500000
-6.816914 7.502203 -0.893089 50.000000
6.498635 7.454778 -0.871324 57.000000
-6.759053 7.556963 -0.893265 49.500000
6.212674 7.556941 -0.861915 45.200001
6.533751 7.566725 -0.880802 31.500000
6.187497 7.679092 -0.868866 57.000000
6.064436 7.769116 -0.868340 31.750000
6.234262 7.871324 -0.884664 77.000000
6.147804 7.991868 -0.888350 43.000000
6.148176 8.096900 -0.895722 33.000000
6.042763 8.142542 -0.893370 32.000000
5.996766 8.241735 -0.898004 31.000000
7.224780 8.833246 -0.806180 1.000000
6.958907 8.958447 -0.801388 13.000000
7.068991 8.925274 -0.804348 3.000000
-6.869201 9.102510 -0.805616 50.000000
6.994112 9.062393 -0.808717 23.000000
-6.854774 9.203091 -0.810690 56.000000
6.911864 9.192690 -0.812523 2.500000
7.132886 9.363251 -0.831549 4.000000
-6.982273 9.477684 -0.831643 34.333332
-6.859664 9.486537 -0.827039 37.500000
-7.092228 9.647835 -0.845925 46.000000
-6.937914 9.690775 -0.841979 36.000000
6.092864 9.686583 -0.808435 29.500000
6.076059 9.795874 -0.814355 37.000000
-7.075571 9.982161 -0.864389 43.500000
-6.848719 9.924152 -0.851845 42.000000
-6.768290 9.940586 -0.849590 38.500000
6.070235 9.936899 -0.822623 28.666666
-7.020785 10.037815 -0.865375 42.500000
-6.777138 10.055094 -0.856637 37.000000
6.082257 10.086737 -0.832113 32.000000
6.071798 10.213912 -0.839442 30.500000
7.078469 10.192172 -0.876650 0.000000
-6.934188 10.358166 -0.880597 12.000000
6.122730 10.410947 -0.853254 54.000000
6.084044 10.571937 -0.861711 40.000000
6.130787 10.537958 -0.861288 31.000000
6.073628 10.669828 -0.867348 36.000000
6.810185 10.677496 -0.894691 18.000000
5.917082 10.825706 -0.871577 46.000000
6.064864 10.851873 -0.878248 36.333332
5.943928 10.956472 -0.880597 50.000000
6.031898 10.953861 -0.883416 46.000000
6.036218 11.210473 -0.899483 26.000000
-7.332330 13.732336 -0.828653 39.000000
-7.170379 13.827337 -0.829113 9.500000
5.893849 13.831313 -0.800303 14.000000
5.926528 14.030057 -0.810722 1.000000
-7.181770 14.285702 -0.851120 35.000000
6.407447 15.036592 -0.870043 5.000000
6.368291 15.164454 -0.875500 38.000000
6.436936 15.509504 -0.893856 24.000000
0.457787 -39.146648 -0.722997 15.000000
0.636344 -38.780121 -0.716276 16.500000
0.816159 -38.640793 -0.713765 21.000000
0.937938 -38.654030 -0.714060 19.000000
2.151619 -38.605499 -0.714060 49.000000
1.055745 -38.518967 -0.711623 45.000000
1.418437 -38.499313 -0.711475 47.000000
1.539052 -38.486675 -0.711328 43.000000
1.906846 -38.574314 -0.713248 31.000000
2.026763 -38.544170 -0.712805 34.000000
1.235760 -38.465546 -0.710737 49.500000
1.775666 -38.364384 -0.709260 33.000000
1.639445 -38.006172 -0.702539 16.000000
11.529469 -38.019505 -0.733707 25.000000
11.644166 -37.967804 -0.733411 33.000000
11.740871 -37.858459 -0.732008 36.000000
11.839408 -37.756508 -0.730752 8.000000
11.942255 -37.669571 -0.729792 24.000000
12.058099 -37.624249 -0.729645 39.000000
12.204853 -37.473816 -0.727835 33.000000
12.358130 -37.345673 -0.726469 23.000000
12.457639 -37.253563 -0.725435 16.000000
12.509321 -37.021011 -0.721668 27.000000
12.632028 -37.000454 -0.722037 58.000000
12.769062 -37.021080 -0.723219 47.000000
12.870832 -36.939240 -0.722406 54.000000
12.968228 -36.845806 -0.721372 54.000000
11.210295 -36.553089 -0.706084 14.000000
11.310851 -36.471855 -0.705197 16.000000
12.196361 -36.472233 -0.710220 22.000000
11.391870 -36.329288 -0.703129 34.000000
11.564707 -36.280888 -0.703240 13.500000
11.974922 -36.187637 -0.703942 14.000000
11.759619 -36.106735 -0.701283 14.000000
3.876490 -21.917545 -0.797482 38.000000
-5.793861 -21.502789 -0.797912 19.000000
-5.694504 -21.537613 -0.798199 0.000000
3.856751 -21.413492 -0.779579 34.000000
3.864169 -21.074924 -0.767691 24.000000
3.904695 -20.925144 -0.762679 33.000000
3.951775 -20.814592 -0.759098 28.000000
-8.299543 -20.531769 -0.793472 29.000000
3.972428 -20.570503 -0.750648 27.000000
-8.271911 -20.279810 -0.784735 28.000000
3.980798 -20.271578 -0.740192 29.000000
4.050591 -20.125217 -0.735537 30.000000
-8.222301 -19.889626 -0.771129 30.000000
4.140801 -19.925198 -0.729164 35.000000
5.282876 -19.868462 -0.736611 2.000000
5.595392 -19.786879 -0.736755 7.000000
4.387343 -19.708614 -0.723435 58.000000
5.042880 -19.712114 -0.729020 55.000000
-8.238709 -19.666340 -0.763968 35.000000
4.186427 -19.678709 -0.720857 35.000000
4.434264 -19.628447 -0.721000 34.000000
5.116895 -19.490587 -0.722002 27.000000
4.237865 -19.469299 -0.713910 35.500000
4.656391 -19.470095 -0.717276 52.000000
5.026557 -19.394346 -0.717849 42.000000
5.293001 -19.414499 -0.721000 1.000000
4.432493 -19.337776 -0.710831 30.000000
4.720111 -19.333353 -0.713051 34.000000
4.846837 -19.324642 -0.713838 43.500000
5.342265 -19.355389 -0.719424 24.000000
4.498492 -19.209620 -0.706892 43.000000
-8.088818 -19.139591 -0.744489 60.000000
5.352490 -19.157560 -0.712693 5.000000
-8.031330 -18.838297 -0.733747 28.000000
-8.036775 -18.688114 -0.728877 33.000000
-8.086369 -18.562084 -0.725440 42.000000
-8.122177 -18.406738 -0.720857 46.000000
-8.028815 -18.041481 -0.707537 37.000000
5.354175 -13.933564 -0.794563 40.000000
5.504645 -13.556306 -0.778829 42.000000
5.569206 -13.532051 -0.778935 33.500000
5.211587 -13.436275 -0.767135 38.000000
5.403875 -13.429014 -0.770537 42.000000
5.207177 -13.300813 -0.760331 34.000000
5.270571 -13.277950 -0.760437 39.500000
5.546419 -13.181691 -0.761252 34.666668
-7.500009 -12.938190 -0.796051 36.000000
-7.471729 -12.704877 -0.784570 37.666668
3.375451 -12.766596 -0.702923 40.500000
3.494300 -12.729335 -0.702657 59.000000
3.592281 -12.694852 -0.702285 31.000000
-7.406188 -12.414140 -0.769473 29.000000
5.282789 -12.337560 -0.714405 45.000000
-7.421215 -12.263705 -0.763024 32.000000
-7.375641 -12.017113 -0.750550 34.000000
5.239079 -12.078012 -0.700797 33.000000
-7.336949 -11.787405 -0.739069 36.000000
-7.368509 -11.593014 -0.731202 34.000000
-7.326707 -11.527211 -0.727056 34.500000
-7.326522 -11.368540 -0.719933 34.000000
-7.273056 -11.208089 -0.711215 31.000000
-7.318998 -11.087219 -0.707176 37.750000
6.365109 -9.254369 -0.793496 5.000000
6.431345 -9.257072 -0.796314 12.500000
6.397037 -9.115583 -0.786730 7.000000
-7.171498 -8.628935 -0.792650 37.000000
2.431302 -8.592039 -0.786719 0.000000
-7.179360 -8.528727 -0.787576 36.000000
2.471526 -8.529372 -0.782389 14.666667
2.540001 -8.514795 -0.782857 5.500000
-7.176911 -8.391232 -0.780059 37.333332
-7.200751 -8.197740 -0.770832 29.200001
6.869471 -8.262572 -0.759106 5.000000
-7.189329 -8.026346 -0.761240 35.857143
-7.183466 -7.883461 -0.753468 29.000000
-7.124606 -7.745289 -0.743462 33.000000
6.730136 -7.742138 -0.724717 15.000000
-7.134460 -7.610832 -0.736978 35.750000
-7.148248 -7.459455 -0.729884 35.000000
-8.089183 -7.304053 -0.769958 33.250000
-7.167439 -7.316746 -0.723589 38.500000
-7.909193 -7.232216 -0.757133 13.000000
-8.196849 -7.125412 -0.767281 16.000000
-8.088393 -7.157049 -0.762996 28.400000
-7.736691 -7.119237 -0.742757 14.000000
-7.657753 -7.113495 -0.738388 34.500000
-7.292619 -7.146495 -0.721334 38.000000
-7.186785 -7.154313 -0.716401 41.500000
-7.081264 -7.115954 -0.709213 36.000000
-8.169832 -7.034652 -0.761643 14.500000
-8.057302 -7.048669 -0.756287 34.000000
-7.457792 -7.059796 -0.725492 34.500000
-7.295432 -7.037744 -0.716119 34.500000
5.642745 -7.030709 -0.794267 48.500000
5.702155 -6.976533 -0.793857 49.000000
5.781298 -6.909451 -0.793740 52.000000
-8.139930 -6.832664 -0.750791 1.500000
5.930789 -6.866036 -0.799357 42.000000
-8.130641 -6.759784 -0.746985 2.000000
-7.929593 -6.720026 -0.734300 1.000000
5.726953 -6.729335 -0.778527 24.666666
5.816397 -6.648699 -0.778293 91.000000
-8.114540 -6.533681 -0.735992 2.000000
5.743622 -6.551720 -0.767645 30.666666
-8.094361 -6.392595 -0.728663 1.666667
5.734072 -6.419801 -0.758384 50.142857
5.825459 -6.411081 -0.763198 74.000000
6.294260 -6.369286 -0.788942 28.000000
-8.093037 -6.248378 -0.722321 2.000000
5.718806 -6.214843 -0.744101 29.799999
5.915908 -6.190645 -0.754422 19.000000
5.733652 -6.114408 -0.738507 40.333332
5.901462 -6.127074 -0.749507 40.250000
5.973711 -6.095896 -0.751964 19.000000
-8.080127 -6.077795 -0.714287 3.500000
-8.074718 -5.926150 -0.707592 6.750000
5.774684 -5.782752 -0.720018 71.000000
5.720589 -5.639262 -0.707731 31.000000
5.751846 -5.512164 -0.701903 39.200001
5.859814 -5.424365 -0.703518 44.500000
6.204053 -5.477311 -0.729146 11.000000
6.050498 -5.308012 -0.709135 34.000000
6.032530 -5.225541 -0.703167 66.000000
6.140338 -5.185316 -0.708082 32.000000
-7.109844 -4.896700 -0.760600 37.400002
-7.082126 -4.953432 -0.761443 30.000000
-7.078194 -4.786889 -0.752842 10.000000
5.737816 -4.876360 -0.796089 45.000000
-7.275003 -4.738917 -0.764953 28.000000
-7.105645 -4.756816 -0.753368 15.000000
5.754148 -4.759394 -0.756518 42.125000
-7.236514 -4.633295 -0.757055 27.500000
-7.031657 -4.659433 -0.743188 36.000000
5.773370 -4.609660 -0.748498 42.250000
-7.129319 -4.486146 -0.742135 27.666666
5.769176 -4.510618 -0.774221 45.000000
5.858092 -4.472346 -0.735703 43.111111
-6.993721 -4.309421 -0.723763 36.000000
5.843305 -4.298756 -0.766932 34.333332
5.782328 -4.263100 -0.759502 39.000000
-6.960179 -4.136416 -0.713348 33.500000
5.709414 -4.126856 -0.744783 50.000000
5.843822 -4.136453 -0.756947 44.307693
6.096273 -4.093438 -0.776324 35.000000
5.870942 -4.009325 -0.751617 40.250000
-6.925313 -3.936640 -0.701851 42.375000
6.036136 -3.957035 -0.763077 41.000000
-6.982534 -3.851429 -0.702582 41.666668
5.843154 -3.830922 -0.738685 40.250000
6.056135 -3.849412 -0.758661 39.666668
6.037710 -3.731925 -0.750418 47.799999
6.183998 -3.710533 -0.762446 45.000000
5.948627 -3.511031 -0.730274 50.000000
5.935045 -3.398160 -0.723041 55.500000
5.965475 -3.333991 -0.722494 51.000000
-7.908800 -3.240410 -0.753017 8.000000
5.867671 -3.219026 -0.707565 53.750000
6.374239 -3.278726 -0.757820 28.000000
5.894402 -3.138198 -0.705988 37.750000
6.005811 -3.125165 -0.715766 53.000000
6.157320 -3.130641 -0.730274 48.500000
6.294673 -3.163138 -0.744783 1.000000
-7.393010 -2.974967 -0.702114 14.000000
-6.949741 -2.949991 -0.798192 34.000000
-7.932404 -2.737541 -0.739326 4.000000
-7.908965 -2.632640 -0.734411 16.500000
-7.806705 -2.612088 -0.725284 17.000000
-7.002117 -2.652709 -0.747453 34.500000
6.752560 -2.654460 -0.767072 26.000000
6.980376 -2.593206 -0.787258 0.000000
7.058248 -2.647398 -0.730426 12.500000
-7.983095 -2.560017 -0.738624 9.000000
-7.142257 -2.515325 -0.733480 9.000000
-6.995723 -2.508733 -0.714176 27.636364
6.035481 -2.531486 -0.714800 44.799999
6.159130 -2.493855 -0.702518 57.500000
-7.024120 -2.389564 -0.758200 40.400002
6.277404 -2.410897 -0.710929 77.500000
5.865385 -2.353869 -0.765494 52.250000
6.409848 -2.358365 -0.722074 7.000000
6.877402 -2.311830 -0.767072 16.000000
-6.921453 -2.191681 -0.767563 26.333334
-6.762007 -2.191892 -0.751512 17.000000
5.912443 -2.224741 -0.779267 49.000000
6.014296 -2.209955 -0.774282 36.142857
6.429424 -2.183747 -0.717868 5.000000
6.846886 -2.277656 -0.762866 3.000000
6.989429 -2.264281 -0.776744 6.500000
7.087675 -2.198219 -0.719028 11.000000
6.335996 -2.174239 -0.708196 78.000000
7.220015 -2.152380 -0.796510 18.000000
6.020922 -2.023860 -0.761131 72.400002
6.134595 -2.008644 -0.796244 33.000000
6.497340 -2.026158 -0.719550 10.500000
-6.818523 -1.722818 -0.743521 0.000000
-6.789165 -1.692729 -0.739737 26.000000
5.935803 -1.759428 -0.763679 27.000000
6.150101 -1.721923 -0.712923 53.333332
-6.821837 -1.602580 -0.740858 25.000000
-6.755994 -1.630440 -0.734774 40.000000
5.891304 -1.645836 -0.736452 51.000000
6.040643 -1.629777 -0.735403 54.000000
-6.839118 -1.469710 -0.739568 36.000000
-6.755393 -1.438334 -0.730204 44.666668
5.929255 -1.450951 -0.752987 48.833332
-6.969831 -1.313203 -0.749830 38.000000
-6.869044 -1.323870 -0.739596 50.166668
5.927995 -1.316663 -0.749070 43.000000
6.035346 -1.303693 -0.725087 49.333332
-6.886042 -1.163503 -0.738335 46.166668
5.908996 -1.179559 -0.743275 47.166668
6.040331 -1.156900 -0.704050 47.500000
-7.020929 -0.990435 -0.749619 36.500000
-6.826955 -1.047091 -0.730204 45.000000
-6.741344 -1.019532 -0.720812 33.000000
6.079896 -1.045787 -0.760985 51.799999
6.275558 -0.998421 -0.783838 38.333332
6.208468 -0.947811 -0.774697 46.000000
-7.059577 -0.796849 -0.751091 11.000000
-6.890436 -0.854578 -0.734059 38.250000
6.073122 -0.829754 -0.756089 59.000000
6.155648 -0.843410 -0.766433 46.625000
6.294590 -0.880166 -0.784001 33.000000
-7.020440 -0.703065 -0.745940 29.375000
6.170654 -0.701192 -0.766078 48.400002
6.338387 -0.724409 -0.786939 41.000000
6.422821 -0.754508 -0.797713 49.000000
-7.061522 -0.617803 -0.749409 5.000000
6.081062 -0.502091 -0.752661 61.000000
6.155223 -0.563915 -0.762455 53.285713
-6.983503 -0.434471 -0.739737 0.000000
6.255995 -0.416814 -0.773412 45.625000
-7.463370 -0.323246 -0.789781 4.000000
-6.892720 -0.369887 -0.729764 37.285713
-6.890128 -0.320110 -0.729223 42.000000
6.051098 -0.289617 -0.747274 51.799999
-7.013903 -0.204587 -0.741839 19.000000
6.173324 -0.217726 -0.761965 51.333332
-6.962791 -0.137335 -0.736267 36.250000
6.198162 -0.107534 -0.764693 45.285713
6.292377 -0.152543 -0.776411 49.500000
-6.891582 -0.005992 -0.728592 46.000000
-6.881363 -0.060074 -0.727541 35.333332
5.982131 -0.079354 -0.737970 33.000000
6.038213 -0.013688 -0.744826 26.000000
-7.431267 0.081066 -0.753020 22.500000
-7.016842 0.026941 -0.741839 37.000000
5.794570 0.044503 -0.714791 42.333332
5.888846 0.070062 -0.726462 42.750000
-7.319413 0.127755 -0.773941 27.333334
-7.147489 0.214714 -0.755998 35.000000
-6.990396 0.191528 -0.739316 44.000000
5.930034 0.175954 -0.731821 28.111111
-7.496660 0.287993 -0.793146 1.000000
5.962693 0.220726 -0.736011 0.000000
5.900308 0.339259 -0.729033 35.125000
5.914612 0.461348 -0.731800 52.400002
5.984756 0.533113 -0.741153 50.000000
6.039177 0.610125 -0.748743 41.727272
5.894627 0.684187 -0.731996 36.000000
5.966425 0.791701 -0.742438 50.833336
5.804286 0.859173 -0.723769 41.000000
6.269460 0.887812 -0.781063 52.000000
5.880069 0.945935 -0.734664 47.750000
5.973310 0.961038 -0.746295 50.666668
5.867448 1.095969 -0.736291 51.000000
5.980336 1.039434 -0.748743 49.000000
5.894057 1.197106 -0.741887 46.333332
6.111639 1.301299 -0.770779 45.000000
6.001992 1.350409 -0.758863 45.333332
6.341053 1.329336 -0.799182 39.000000
-7.810369 1.521030 -0.701061 8.000000
6.504357 1.567794 -0.707355 12.000000
-7.806920 1.686521 -0.703694 2.000000
6.488975 1.693486 -0.709037 22.000000
-9.955098 1.744606 -0.714005 15.000000
6.725572 1.733110 -0.734269 1.000000
-10.121608 1.888752 -0.727394 4.000000
-7.797612 1.830364 -0.705683 4.500000
5.991909 1.845805 -0.773391 44.000000
6.910685 1.827166 -0.755717 1.000000
-10.139770 1.974643 -0.729790 4.000000
-7.789916 1.927811 -0.707029 9.000000
5.952206 1.993071 -0.724992 42.366669
-10.256246 2.064296 -0.739092 37.000000
-7.718720 2.091343 -0.704571 23.000000
-7.161016 2.037180 -0.787118 39.666668
-7.042440 2.051351 -0.775483 35.000000
-6.987241 2.106855 -0.771558 46.333332
-10.386530 2.124490 -0.748958 7.000000
-7.174162 2.126551 -0.724608 35.500000
-6.833384 2.159243 -0.757652 40.599998
-6.758744 2.142719 -0.749619 42.500000
-6.634861 2.183997 -0.738475 52.000000
5.949322 2.179497 -0.781553 44.000000
6.020438 2.147235 -0.726956 41.909092
-6.717481 2.293510 -0.750460 43.500000
5.902294 2.278678 -0.780451 42.750000
-7.679930 2.368526 -0.708082 8.000000
-7.031992 2.363795 -0.784314 49.000000
5.992096 2.411237 -0.796733 15.000000
6.323697 2.354272 -0.713382 45.000000
-11.045380 2.440610 -0.799133 10.000000
-6.890178 2.451965 -0.773212 62.799999
-6.703001 2.450180 -0.754526 32.166668
5.920402 2.456266 -0.790661 41.799999
6.356034 2.496065 -0.721934 33.000000
-10.940242 2.525756 -0.793214 16.000000
-6.787539 2.558034 -0.766862 43.000000
-6.634840 2.584149 -0.752773 36.000000
5.903096 2.545212 -0.747572 53.400002
6.299271 2.534845 -0.717868 41.000000
6.504775 2.593759 -0.740367 55.000000
-6.873474 2.639790 -0.778427 39.500000
6.402759 2.670457 -0.733428 18.000000
6.576931 2.622599 -0.748568 38.000000
-6.858715 2.758613 -0.781581 47.333332
6.130243 2.797618 -0.712401 59.000000
6.533663 2.749183 -0.749409 15.000000
6.696666 2.756069 -0.765600 14.000000
-6.760940 2.881002 -0.776985 51.000000
6.097283 2.840619 -0.711140 21.000000
6.152171 2.901573 -0.719130 34.500000
-6.722317 3.045589 -0.732912 52.181820
6.162939 3.037939 -0.726419 24.333334
6.290490 3.027390 -0.738054 34.000000
-6.696130 3.182457 -0.707590 44.250000
5.870009 3.185744 -0.706093 8.000000
-6.708014 3.334536 -0.709379 46.875000
-6.622262 3.338386 -0.784062 43.200001
-6.643544 3.470223 -0.755598 43.944443
6.056799 3.487251 -0.738896 20.000000
6.626398 3.484811 -0.791534 25.166666
6.215308 3.526559 -0.755507 29.500000
6.502897 3.613399 -0.742684 56.333332
5.937941 3.633075 -0.735952 29.000000
6.051313 3.676364 -0.748568 17.000000
6.173276 3.639855 -0.757652 52.000000
6.275348 3.625994 -0.766231 20.000000
6.169821 3.794840 -0.765810 18.250000
6.325102 3.815545 -0.780950 57.000000
7.132183 3.798638 -0.711944 31.000000
5.990989 3.884650 -0.754876 47.666668
6.026003 3.844890 -0.755717 47.333332
6.204927 3.904426 -0.775062 33.000000
5.981344 4.113860 -0.767492 35.000000
6.148260 4.115901 -0.782211 37.000000
6.148907 4.186611 -0.720781 46.000000
6.267159 4.167044 -0.795669 29.000000
-6.802944 4.264172 -0.707380 31.000000
-6.725362 4.252623 -0.701061 41.750000
6.019923 4.253100 -0.779268 42.500000
-6.689305 4.385839 -0.704747 48.166668
5.995001 4.378134 -0.758620 39.200001
5.932610 4.421041 -0.702049 33.615383
-6.803401 4.599324 -0.723529 41.000000
-6.723372 4.565784 -0.716039 49.000000
