# This PCD file was generated using the MATLAB® pcwrite function
# from Computer Vision Toolbox®.
# .PCD v.7 - Point Cloud Data file format
VERSION .7
FIELDS x y z intensity
SIZE 4 4 4 4
TYPE F F F F
COUNT 1 1 1 1
WIDTH 1233
HEIGHT 1
VIEWPOINT 0 0 0 1 0 0 0
POINTS 1233
DATA ascii
-15.082593 -0.168478 2.635211 10.000000
-14.929380 -0.119863 2.608363 20.000000
-17.190098 -0.030000 2.694361 2.000000
-14.886341 -0.072751 2.600791 45.000000
-15.426062 0.360842 2.695791 8.000000
18.800741 0.328168 2.610888 4.000000
-9.871628 0.434487 2.640821 18.500000
18.800941 0.416788 2.611164 1.500000
-13.966077 0.592675 2.694647 52.000000
-13.708842 0.538622 2.644675 23.000000
18.724899 0.591710 2.601261 8.000000
-13.779737 0.628146 2.659061 44.000000
18.842688 0.684344 2.618040 20.000000
-14.886332 0.769742 2.604233 95.000000
-11.481843 0.704237 2.642250 36.500000
-16.790972 0.815340 2.634899 3.000000
-15.261543 0.837223 2.670320 73.000000
-15.156926 0.895188 2.652651 11.333333
-10.637787 0.854027 2.649558 34.000000
-10.515654 0.894083 2.620161 35.000000
18.949512 0.837304 2.633718 8.500000
-16.643469 0.913033 2.612601 71.000000
-10.613799 0.952857 2.645702 38.000000
-13.654617 1.204261 2.642404 9.000000
-14.980181 1.342214 2.627639 12.000000
-10.508512 1.361133 2.630763 24.500000
17.075905 1.319911 2.684451 1.333333
-19.028658 1.464178 2.649947 12.000000
-13.722967 1.580517 2.662847 24.000000
-18.878532 1.691504 2.631793 15.000000
-18.877216 1.990735 2.635644 17.000000
-18.918133 2.055170 2.642246 4.000000
-12.552302 2.008306 2.682998 7.000000
-12.467386 2.054992 2.666891 17.000000
-19.020412 2.157022 2.657924 22.500000
16.998732 2.449555 2.691884 11.000000
-16.905069 2.647266 2.681973 47.000000
-16.802298 2.739435 2.668347 3.000000
-16.758764 2.948991 2.667108 20.000000
-16.518312 3.013802 2.631802 4.000000
-18.419367 3.600380 2.605937 12.000000
-16.575716 3.565763 2.657507 18.000000
-10.998756 3.592824 2.657696 23.000000
-10.982696 3.574848 2.652920 35.333332
-16.770926 3.607625 2.688787 39.000000
-16.620609 3.684704 2.668347 38.000000
-11.022856 3.754631 2.674710 15.000000
-10.960219 3.717971 2.658412 28.600000
-16.665993 3.859907 2.681354 0.000000
-10.924450 3.836395 2.659487 0.000000
-10.868254 3.855055 2.648741 2.000000
-10.753117 3.967036 2.632623 31.000000
-10.663882 3.972219 2.613819 1.000000
-8.932540 3.905987 2.605559 27.714285
-8.965580 4.042357 2.628427 25.333334
18.656702 4.020091 2.649947 20.000000
-10.861683 4.399437 2.691723 36.000000
18.647034 4.387359 2.659849 21.000000
18.610035 4.440402 2.656549 3.000000
-11.695930 5.039481 2.687955 13.000000
-11.579902 5.119423 2.672260 16.000000
-12.705800 5.380214 2.659818 0.000000
-12.606819 5.431960 2.646190 21.000000
-12.568077 5.462149 2.641647 9.000000
-11.029085 5.817435 2.631784 51.000000
-10.887193 6.554627 2.682173 9.000000
-15.771420 6.616741 2.680734 4.000000
18.118313 6.623191 2.678554 18.000000
-17.998121 6.765045 2.669752 16.000000
-18.032341 6.842643 2.678004 0.000000
-9.546672 8.076138 2.639218 7.000000
-11.264657 8.103425 2.674961 16.000000
-9.422153 8.280477 2.647479 28.000000
-9.259639 8.254393 2.618154 9.000000
-4.083470 8.857731 2.606739 32.000000
-10.660542 8.999283 2.689347 1.000000
-4.443820 8.963796 2.673870 2.000000
-4.108649 8.986493 2.640821 30.000000
-3.819607 8.980958 2.608288 4.500000
-10.618154 9.097649 2.695404 2.000000
-4.136094 9.198929 2.695558 32.000000
-4.020164 9.124424 2.664781 13.600000
-3.725391 9.281235 2.672837 0.000000
3.586831 9.271409 2.656829 22.500000
3.630160 9.210982 2.645985 2.000000
2.914179 9.316250 2.608804 27.000000
3.054221 9.349496 2.628685 22.000000
2.754324 9.425160 2.624296 1.000000
4.522425 9.455965 2.602330 31.000000
4.396429 9.536592 2.607149 16.000000
4.479452 9.519320 2.611968 13.500000
4.665178 9.522723 2.632690 1.000000
19.340324 9.596412 2.614620 15.000000
4.178428 9.697542 2.621607 2.000000
1.546368 9.763347 2.641854 0.000000
-4.518185 9.882236 2.697749 3.000000
1.225632 9.952850 2.680067 16.500000
3.153780 10.008131 2.605222 2.000000
3.346843 10.137721 2.650521 2.000000
16.244915 10.170654 2.661225 7.500000
16.351614 10.130529 2.670852 16.000000
16.539600 10.127473 2.692857 25.666666
19.175419 10.161442 2.628085 10.000000
2.034607 10.285051 2.602973 25.333334
2.929452 10.449665 2.694376 4.000000
19.047291 10.441053 2.630490 15.000000
-11.149164 10.515543 2.677548 3.000000
-10.848932 10.609233 2.651044 22.000000
-10.598996 10.749583 2.637414 40.000000
-10.517288 10.883361 2.644160 17.000000
-10.468063 10.832195 2.631769 13.500000
-10.457998 11.086037 2.662632 3.833333
-12.106716 11.364929 2.602691 27.500000
1.236454 11.363279 2.625460 5.000000
1.382911 11.377805 2.632623 14.000000
0.776467 11.478190 2.642473 0.000000
1.211397 11.467908 2.648741 3.000000
4.609905 11.590067 2.632610 7.000000
-11.922973 11.659543 2.613840 14.000000
1.047850 11.671899 2.691723 4.000000
1.571818 12.286973 2.614437 1.000000
-15.971329 20.244993 2.666594 5.000000
-11.908926 22.219355 2.606934 9.000000
-11.872691 22.319891 2.614340 11.000000
-11.915825 22.571711 2.639438 30.000000
-11.229010 22.810316 2.629152 1.000000
10.884880 36.864845 2.628544 1.000000
6.141367 -39.084042 2.705501 4.000000
6.266020 -39.076374 2.706319 15.000000
0.051700 -26.928352 2.784679 7.000000
1.127553 -22.972303 2.785337 8.000000
1.971594 -22.672165 2.756003 5.000000
1.098158 -22.373405 2.712723 3.000000
2.085607 -22.354885 2.718974 7.000000
0.743155 -22.284706 2.700219 0.000000
2.573479 -22.276005 2.715608 0.000000
0.411955 -19.999846 2.777576 0.000000
0.097450 -19.940456 2.768774 6.000000
1.394038 -19.935574 2.774826 10.000000
1.477233 -19.925631 2.774275 21.000000
-5.155931 -19.459402 2.795180 23.000000
-5.072712 -19.391178 2.783077 26.000000
2.593023 -19.279779 2.701109 30.000000
2.715548 -19.273506 2.702576 14.333333
-6.129556 -19.183315 2.796280 26.000000
-5.460938 -19.145401 2.764373 29.000000
-4.893164 -19.071365 2.733841 38.000000
-4.259763 -19.072582 2.713487 13.000000
-5.180433 -18.833109 2.712111 8.000000
-18.210966 -7.247024 2.721463 0.000000
-18.121931 -7.277619 2.711561 2.000000
-19.700632 -3.922275 2.789129 7.000000
-19.311537 -3.907918 2.735767 32.000000
-19.230730 -3.765944 2.720913 5.000000
-19.275267 -3.617703 2.723114 2.500000
-19.179098 -3.506185 2.707160 34.000000
-19.252415 -3.457114 2.715962 11.000000
-19.814114 -3.301528 2.789129 15.000000
-19.660160 -3.212433 2.766023 2.000000
-17.509285 -3.229354 2.790677 3.500000
-19.705366 -3.156287 2.770975 3.000000
-11.917424 -2.417306 2.793088 28.200001
-12.006663 -1.921006 2.792909 34.000000
-17.478071 -1.627547 2.751345 1.000000
-15.710263 -1.612414 2.759124 1.000000
-15.804616 -1.321598 2.770827 53.000000
-15.662992 -1.359317 2.746732 26.000000
-17.387438 -1.234147 2.732144 6.000000
-15.918681 -1.230467 2.789414 27.000000
-15.737993 -1.266248 2.758435 55.000000
-17.769060 -1.093030 2.790367 8.000000
-17.480803 -0.689878 2.742054 0.000000
-15.590478 -0.590768 2.725736 13.000000
-14.440861 -0.453788 2.785124 48.000000
-14.511565 -0.387599 2.798374 18.000000
-14.210785 -0.245541 2.739822 10.500000
-17.308119 -0.138961 2.712943 16.000000
-17.291792 -0.193156 2.710465 35.000000
-19.815941 0.276703 2.751720 7.000000
-15.810868 0.419543 2.763254 12.000000
-14.091205 0.509316 2.718118 69.000000
-11.037120 0.503124 2.743049 33.000000
-19.503223 0.670842 2.709636 18.500000
-14.091537 0.686725 2.719632 18.000000
-19.596865 0.766538 2.723114 32.000000
-14.344268 0.744223 2.768846 15.000000
-14.212440 0.782158 2.743860 31.000000
-19.491440 0.823746 2.708811 6.000000
-14.272651 0.830452 2.755975 24.000000
-12.900896 0.882920 2.729257 10.000000
-13.196434 0.976031 2.792863 27.000000
-11.755521 0.962341 2.709184 16.000000
17.412989 0.988778 2.733693 5.000000
-19.577770 1.012327 2.722013 8.000000
-19.678089 1.203566 2.737417 25.000000
-15.521055 1.259704 2.720573 27.500000
-10.999163 1.266808 2.748832 0.000000
-10.973063 1.255092 2.742085 18.250000
-14.304386 1.465600 2.771874 2.000000
-14.248934 1.505165 2.762032 20.000000
-13.942545 1.561442 2.704489 18.000000
-10.865606 1.598678 2.726664 0.000000
19.539204 1.819476 2.724764 6.000000
15.715107 1.937922 2.766352 5.000000
19.480078 1.937504 2.718163 18.000000
15.723408 2.014215 2.769450 1.000000
-15.770528 2.153317 2.780808 15.500000
17.413307 2.119578 2.749487 29.000000
17.575174 2.195334 2.776121 11.000000
-15.384643 2.409173 2.720573 66.000000
-12.782697 2.500913 2.749082 6.000000
-9.936521 2.484838 2.737386 32.000000
-12.808928 2.589712 2.758169 1.000000
-9.967501 2.559227 2.750296 21.500000
-17.421095 2.672024 2.762494 15.000000
-12.688235 2.690022 2.737518 16.000000
-9.899454 2.724905 2.744099 12.000000
17.445911 2.794383 2.769308 33.000000
-10.525138 2.897130 2.710279 0.000000
17.589146 2.874028 2.793464 19.000000
-10.506655 2.981041 2.711483 26.750000
17.599522 2.932521 2.796561 4.000000
-15.712162 3.071211 2.796986 4.000000
-10.631111 3.106741 2.749795 14.000000
-15.631685 3.336874 2.792511 17.000000
-15.317464 3.345347 2.739160 8.000000
-16.813288 3.782872 2.701174 11.000000
-17.257769 4.054128 2.778599 0.000000
-16.747955 4.045569 2.700555 9.000000
-10.436412 4.075283 2.781602 45.000000
-10.301575 4.078681 2.750759 22.000000
-9.563643 4.014293 2.771984 11.000000
-17.237257 4.106498 2.777360 3.000000
-10.318280 4.141646 2.760397 16.000000
-10.879016 4.506212 2.704707 16.000000
-9.929982 4.691762 2.726664 22.000000
-9.940990 4.754473 2.735820 8.500000
-12.266867 4.856729 2.784602 7.500000
19.257847 5.271947 2.772350 11.000000
19.204185 5.354680 2.768224 5.000000
19.152950 5.405301 2.763273 2.000000
-11.928663 5.567506 2.778407 1.500000
18.911020 5.529969 2.735767 0.000000
-11.919978 5.654903 2.784602 14.500000
-10.302168 5.897721 2.726646 8.000000
-10.287745 5.954007 2.730227 21.500000
-11.315826 6.290549 2.732561 13.000000
18.748302 6.324076 2.747319 8.000000
-11.329235 6.462121 2.752800 15.000000
-11.222404 6.471425 2.734213 29.000000
18.398222 6.464602 2.707710 8.000000
-16.124475 6.586830 2.730079 14.666667
-11.290008 6.557762 2.755691 13.000000
-16.266478 6.764422 2.761256 26.000000
-15.961629 6.755595 2.716659 15.000000
18.309278 6.758279 2.709911 18.000000
18.515297 6.702444 2.734116 24.000000
-10.895061 6.818562 2.712736 12.500000
-12.270579 6.922584 2.715846 2.000000
18.326252 6.961490 2.722013 16.000000
-12.359777 7.075649 2.745375 12.000000
-12.255728 7.016144 2.722282 21.000000
-11.105279 7.072121 2.778820 1.000000
-10.948393 7.044947 2.747843 19.000000
-16.350321 7.102538 2.794083 27.000000
18.726017 7.180747 2.784728 9.000000
-10.914542 7.292861 2.770560 2.000000
18.174154 7.232374 2.715962 7.000000
-10.801294 7.303410 2.751973 12.250000
18.427084 7.400171 2.757221 4.000000
-9.290018 7.611897 2.758658 16.750000
18.306190 7.755352 2.760522 13.000000
-9.248493 7.848888 2.786193 35.500000
-10.347683 8.000483 2.760647 4.000000
-9.257322 7.931686 2.800072 4.000000
-9.169028 7.956475 2.788432 3.000000
18.225462 7.992831 2.763273 28.000000
-10.299179 8.066988 2.761198 10.000000
18.211063 8.123327 2.768774 41.000000
18.341574 8.112553 2.784728 9.000000
-11.523340 8.234697 2.730232 26.000000
-11.385479 8.244740 2.709789 40.000000
-10.270512 8.228228 2.777581 5.000000
-8.837272 8.220728 2.772314 50.000000
-11.461086 8.354507 2.734018 2.000000
-11.361539 8.364088 2.719632 6.000000
-10.199106 8.356794 2.782950 1.000000
17.955482 8.349900 2.749520 14.000000
18.163841 8.342878 2.775376 50.500000
-9.775339 8.536592 2.739170 25.000000
-9.926264 8.613570 2.773864 29.000000
-11.060083 8.756685 2.719380 17.166668
-17.602304 9.139770 2.753921 44.000000
-17.490181 9.174735 2.742368 45.333332
-17.395847 9.276815 2.737417 23.000000
4.032495 9.278530 2.703820 1.000000
4.835196 9.237093 2.786443 47.000000
3.813507 9.372734 2.704337 4.000000
-17.370304 9.403873 2.742643 57.500000
-3.894277 9.485836 2.740484 3.000000
3.880464 9.410048 2.720345 5.000000
-17.390123 9.520811 2.752820 41.000000
3.686547 9.529142 2.730673 10.000000
-17.550934 9.680647 2.783077 50.000000
2.894840 9.701954 2.705886 76.400002
3.013952 9.742527 2.725509 15.000000
3.011593 9.844330 2.751328 13.000000
17.249926 9.903111 2.761806 24.000000
1.096372 10.075448 2.708640 7.666667
2.126296 10.029257 2.739968 4.000000
17.168983 10.012667 2.759697 5.500000
16.826506 10.170418 2.729990 10.500000
17.094271 10.186212 2.762998 16.000000
3.829546 10.280858 2.723772 33.000000
3.677958 10.317499 2.719435 6.000000
3.953343 10.412608 2.765217 9.333333
5.000814 10.714515 2.715900 18.000000
5.106518 10.763869 2.736495 13.000000
1.462016 10.884837 2.726664 18.000000
4.903208 10.905043 2.746346 3.000000
1.097175 11.051151 2.757185 2.333333
1.894662 11.608117 2.701573 4.000000
2.508992 12.613556 2.714388 0.000000
-17.860189 19.800976 2.757524 5.000000
-18.015909 19.847878 2.771924 2.000000
-11.263340 19.948492 2.774277 3.000000
-17.417858 20.185913 2.757113 15.000000
-17.658588 20.335373 2.785091 11.000000
-17.306534 20.443308 2.769867 38.000000
-17.618521 20.548620 2.799080 7.000000
-15.859661 21.456587 2.759170 5.000000
-15.415937 21.991718 2.777273 4.000000
-15.574414 22.069965 2.793320 1.000000
-15.131377 22.024536 2.763284 2.000000
-14.970156 22.160809 2.765547 23.500000
-15.165279 22.223139 2.782211 10.000000
-14.955163 22.365076 2.782211 6.000000
-14.820997 22.315832 2.770279 13.000000
-14.806951 22.601547 2.794143 8.000000
-14.714167 22.614607 2.790028 13.000000
-14.679763 22.717529 2.797023 38.000000
-14.530317 22.799250 2.795789 12.000000
-12.383013 24.001913 2.792908 5.000000
-18.870615 26.387369 2.785705 1.000000
-18.819929 26.492016 2.790496 2.000000
-18.621086 26.564045 2.785705 2.000000
10.852018 38.071087 2.707138 2.000000
10.749672 38.166451 2.711504 3.000000
1.215875 -23.277964 2.822847 11.000000
1.940817 -23.161015 2.814672 6.000000
2.130561 -20.758751 2.897503 3.000000
2.522412 -20.722773 2.898603 27.000000
2.033980 -20.670218 2.883933 14.000000
-3.387083 -20.570984 2.894753 14.000000
-3.246916 -20.523376 2.885125 15.000000
2.572770 -20.596802 2.882100 10.000000
3.289134 -20.534735 2.887601 23.000000
3.159384 -20.408085 2.867429 5.333333
-4.204494 -20.320480 2.881274 26.500000
-4.115340 -20.373108 2.885951 34.000000
-3.972809 -20.324684 2.875498 38.000000
-3.890245 -20.239796 2.861745 17.000000
0.480610 -20.244026 2.811684 0.000000
-4.438646 -20.171242 2.867796 11.000000
-4.298571 -20.136742 2.858994 15.000000
-3.742019 -20.150871 2.845791 26.000000
-0.028180 -20.182358 2.802332 18.000000
4.833364 -20.116993 2.872747 5.500000
-4.991220 -19.841564 2.840840 16.000000
-4.805198 -19.622396 2.805082 18.000000
-6.304261 -19.518362 2.847992 21.000000
-6.158812 -19.485811 2.837539 29.000000
-4.845872 -17.835770 2.896903 41.000000
-4.769333 -17.774570 2.884515 41.000000
-4.664824 -17.718502 2.871817 31.000000
-5.001326 -17.534056 2.857881 20.000000
-5.187920 -17.424768 2.849622 5.333333
-4.912984 -17.431772 2.838680 35.000000
-5.384960 -17.225565 2.828769 1.000000
-5.262761 -17.213709 2.821337 18.000000
-5.244187 -17.153179 2.811426 26.500000
16.904297 -16.216305 2.836793 1.000000
16.973326 -16.129589 2.835591 6.000000
17.081554 -16.029440 2.836793 1.500000
17.315279 -15.794402 2.838236 1.000000
17.442654 -15.611973 2.834870 1.000000
17.553143 -15.562521 2.840881 1.500000
17.833014 -15.268549 2.843045 2.000000
17.954842 -15.154238 2.845329 3.000000
18.082130 -15.044147 2.848575 2.000000
18.306799 -14.845706 2.854346 3.500000
18.365732 -14.750598 2.852663 12.000000
18.446121 -14.720077 2.857953 7.000000
18.505939 -14.625553 2.856510 1.000000
18.580908 -14.543125 2.857472 3.000000
18.629641 -14.487117 2.857953 12.000000
18.751749 -14.393892 2.862761 11.666667
18.872171 -14.252199 2.863964 10.500000
18.978891 -14.192861 2.869975 11.000000
19.050346 -14.106766 2.870696 12.000000
19.108610 -14.011011 2.869494 13.000000
19.209747 -13.946451 2.874784 8.500000
19.272053 -13.853476 2.874303 11.000000
19.372677 -13.787830 2.879593 12.000000
19.481667 -13.681820 2.882959 11.000000
19.552483 -13.594392 2.883921 9.000000
19.675671 -13.497408 2.889531 11.333333
19.805260 -13.358763 2.893058 11.000000
19.877901 -13.271953 2.894500 11.000000
19.932735 -13.218217 2.896424 9.000000
-19.826948 -4.077105 2.810583 15.000000
-19.945230 -3.452313 2.810583 13.000000
-12.107250 -2.211177 2.826936 37.000000
-12.169697 -2.104207 2.836786 30.666666
-12.165662 -2.011830 2.832309 29.000000
-12.031875 -2.093422 2.805147 27.000000
-12.234273 -1.800058 2.840368 46.000000
-12.076258 -1.854387 2.806341 41.666668
-12.420149 -1.767625 2.881558 41.500000
-15.974036 -1.588793 2.804559 57.000000
-14.954859 -1.532327 2.897938 18.500000
-14.968006 -1.391282 2.897811 18.666666
-14.919143 -1.244926 2.885950 2.666667
-16.024635 -1.188021 2.807312 5.000000
-14.861451 -1.146137 2.873331 0.000000
-16.031784 -1.087318 2.807312 2.000000
-14.995231 -0.919776 2.896045 5.000000
-16.342598 -0.876531 2.859287 36.000000
-16.248625 -0.743531 2.841732 19.000000
-16.147820 -0.789759 2.824522 36.000000
-11.326405 0.195725 2.812444 8.000000
-11.331163 0.249266 2.813890 26.500000
-11.489540 0.352055 2.853889 17.750000
-13.607707 0.663146 2.875467 8.000000
-11.503735 0.832743 2.863527 11.000000
-10.450590 0.971313 2.805033 12.000000
-16.530939 1.063213 2.894051 71.000000
-13.346089 1.071456 2.825905 26.000000
-11.358968 1.073758 2.832685 7.000000
-16.482590 1.164005 2.886823 8.000000
-14.947753 1.184267 2.890492 11.666667
-11.584426 1.174673 2.890835 30.000000
-11.327188 1.196531 2.827865 55.000000
-10.457309 1.171127 2.812262 0.000000
-14.665627 1.363073 2.839260 7.000000
-10.745026 1.305998 2.892819 10.000000
-14.801389 1.469545 2.867274 4.000000
16.080925 1.548417 2.822457 2.000000
18.252670 1.526304 2.870888 11.000000
-13.576062 1.606834 2.885380 18.000000
-10.628664 1.615031 2.873196 1.500000
16.060375 1.648331 2.820621 13.333333
18.249935 1.670512 2.872437 11.500000
15.968472 1.791151 2.807312 1.000000
16.036695 1.747806 2.818326 24.000000
-12.330023 1.972742 2.868127 19.000000
18.115829 2.032016 2.857261 2.000000
-12.261015 2.133327 2.858575 33.000000
-17.855129 2.280960 2.821337 26.000000
-12.390417 2.222688 2.891408 16.000000
18.051214 2.485549 2.856023 5.000000
-17.809404 2.502952 2.818859 23.000000
17.688841 2.776325 2.806471 11.000000
-15.814512 3.142834 2.816950 10.000000
-18.060274 3.236538 2.875843 5.000000
-17.872030 3.551727 2.856023 26.000000
-17.674856 3.570296 2.826292 62.000000
-17.570646 3.606739 2.811426 10.000000
-10.789503 4.174146 2.872201 27.000000
-17.681046 4.388721 2.855403 20.000000
-17.862623 4.493409 2.886992 2.000000
-11.063309 5.248445 2.812609 11.500000
-11.128160 5.674547 2.869201 23.000000
-17.044022 5.862074 2.825053 35.000000
-17.014322 5.911696 2.823195 1.000000
-17.379103 6.161091 2.890089 12.000000
-16.878536 6.163307 2.816381 1.000000
-17.333620 6.206330 2.885754 1.000000
-16.953033 6.281226 2.833724 20.500000
-16.912378 6.397343 2.834137 21.666666
19.379494 6.334194 2.830938 20.000000
19.346830 6.458343 2.832038 8.000000
19.320871 6.584888 2.834239 5.000000
-16.718872 7.014235 2.841777 16.000000
-16.907827 7.156064 2.877702 6.000000
-16.812576 7.178109 2.865314 4.000000
-16.495956 7.104278 2.815143 24.000000
-9.138970 7.148912 2.880683 35.400002
-9.017002 7.154480 2.857744 17.000000
-11.162867 7.290893 2.814065 11.666667
-11.110465 7.323223 2.808558 3.000000
-9.385778 7.864483 2.812609 18.500000
-9.084235 8.292143 2.825145 8.000000
-9.234407 8.376186 2.863649 11.000000
-9.063448 8.378162 2.834995 13.000000
18.492580 8.318654 2.815535 8.000000
-9.081779 8.501551 2.857381 4.000000
-9.133688 8.631269 2.886483 23.000000
-18.331177 8.834013 2.825437 18.500000
-18.233923 8.964311 2.821219 45.333332
18.545536 8.909423 2.856794 0.000000
18.698618 8.910770 2.876048 29.000000
18.094986 9.045500 2.808933 44.000000
18.318535 9.085430 2.839190 84.000000
-18.243319 9.135638 2.832955 36.666668
18.585167 9.145037 2.876048 25.000000
4.771210 9.400501 2.817426 29.000000
4.879932 9.322661 2.812262 34.000000
4.949360 9.312313 2.818459 38.000000
5.022375 9.378478 2.843246 13.000000
5.120600 9.314053 2.840664 1.000000
-18.406551 9.447418 2.872747 43.500000
18.489706 9.608652 2.893286 12.666667
-9.251701 9.759490 2.838295 6.000000
18.245018 9.997136 2.888701 3.000000
-18.046846 10.028248 2.866696 71.000000
2.879600 10.088861 2.804000 0.000000
-18.068424 10.152023 2.877698 59.000000
-11.037980 10.139282 2.889230 0.000000
-18.076571 10.306541 2.889251 43.000000
1.070155 10.444817 2.806066 3.000000
17.734280 10.454629 2.858444 10.000000
0.727751 10.512968 2.816393 2.000000
1.991423 10.529234 2.863901 14.000000
2.038363 10.595027 2.883524 12.000000
-12.151698 10.675528 2.825899 3.000000
1.848836 10.692491 2.900049 28.000000
-10.338748 10.769854 2.877873 16.000000
-10.214044 10.774755 2.861974 46.666668
0.900733 10.794316 2.894885 8.000000
3.229524 11.181625 2.889550 16.000000
-12.082536 11.378051 2.899558 31.000000
-11.939065 11.361453 2.879365 44.000000
-11.878102 11.398655 2.876153 32.000000
2.051616 11.334119 2.859672 21.000000
-11.868101 11.496992 2.886823 23.500000
3.720852 11.895076 2.862754 1.000000
0.793845 12.309228 2.833204 0.000000
-10.030462 12.884697 2.852747 8.000000
-9.862143 13.173415 2.875005 13.000000
-9.783116 13.240442 2.876153 26.000000
-9.767117 13.306055 2.883725 3.000000
-15.704363 17.970570 2.890172 1.000000
-15.587950 17.950855 2.879112 18.000000
-15.384601 18.057673 2.872860 29.000000
-14.863409 18.243832 2.849777 5.000000
-14.558901 18.335871 2.835351 6.000000
-15.238075 18.465549 2.899309 42.000000
-14.584851 18.487516 2.851701 8.000000
-11.738640 20.193316 2.828618 4.000000
-18.070959 20.418320 2.819653 34.000000
-17.972569 20.436148 2.814304 27.000000
-18.368166 21.152512 2.897005 7.000000
-18.293818 21.201082 2.895770 15.000000
-18.149433 21.167830 2.883427 37.000000
-18.108650 21.255026 2.887542 18.000000
-17.972179 21.365341 2.887130 15.000000
-17.805450 21.302643 2.871083 1.000000
-15.540001 22.467735 2.825001 10.000000
-14.653452 22.833853 2.805663 36.000000
-13.476913 23.956820 2.842488 1.000000
-12.923893 24.113050 2.829116 10.000000
-13.191129 24.244568 2.854214 17.000000
-12.889175 24.230816 2.838168 4.000000
-1.123753 -34.418926 2.957159 6.000000
1.367614 -21.148510 2.942613 7.000000
3.012080 -21.137608 2.964618 2.000000
1.228777 -21.055349 2.928530 18.600000
2.895159 -21.025993 2.947014 7.000000
-5.174159 -20.845390 2.982222 7.000000
2.332738 -20.796810 2.905755 18.000000
2.442516 -20.792158 2.906855 22.000000
2.680475 -20.752171 2.905388 4.666667
-5.734831 -20.595362 2.968469 0.000000
-4.076027 -20.510288 2.903554 33.000000
-3.886960 -20.571150 2.906855 21.000000
-3.751229 -20.560089 2.901904 22.000000
-4.596254 -18.517159 2.990431 14.000000
-4.475686 -18.443645 2.974740 34.000000
-4.394060 -18.444326 2.971849 28.000000
-4.300847 -18.308006 2.947693 49.000000
-4.622951 -17.979164 2.909703 12.000000
-6.641808 -17.754904 2.971230 4.000000
-18.750292 -3.306181 2.984237 12.000000
-18.667238 -2.809826 2.958842 6.000000
-18.349754 -2.821016 2.909910 13.000000
-18.636879 -2.745412 2.952648 13.000000
-18.708733 -2.605973 2.960700 14.500000
-18.680613 -2.691916 2.958223 19.000000
-18.955809 -2.549452 2.997864 26.000000
-11.536235 -2.407923 2.925854 44.000000
-11.560050 -2.337213 2.928103 17.000000
-11.829697 -2.102942 2.983041 36.500000
-16.576715 -2.017743 2.917457 10.000000
-12.822290 -1.763274 2.972894 3.000000
-14.989923 -1.631076 2.906645 21.000000
-12.831831 -1.600565 2.970208 15.000000
-12.619817 -1.674913 2.924092 11.000000
-16.847298 -1.542134 2.955663 16.500000
-12.872118 -1.544000 2.977819 50.000000
-12.606227 -1.451905 2.914690 21.000000
-12.606010 -1.371726 2.912601 7.333333
-13.942201 -1.152412 2.952703 36.250000
-15.138694 -1.071877 2.925573 0.000000
-13.954228 -1.076171 2.953942 0.000000
-13.967657 -0.944875 2.954768 24.000000
-15.043853 -0.827913 2.904373 24.000000
-13.923158 -0.842968 2.944029 53.250000
-15.254268 -0.791436 2.944501 7.000000
-15.331545 -0.554147 2.957373 23.000000
-15.470465 -0.145784 2.982358 24.500000
-15.305730 0.505068 2.952073 22.000000
-11.062412 0.608802 2.960983 20.000000
-13.785349 0.715225 2.913465 11.000000
18.718273 0.797619 2.936544 2.000000
-14.034549 0.816598 2.967159 1.000000
18.649155 0.882705 2.926324 9.500000
-19.006250 0.982775 2.982998 12.000000
18.579695 0.967218 2.916104 0.000000
-11.139883 1.070686 2.990933 32.000000
-13.837985 1.154715 2.930812 13.000000
-11.102183 1.137509 2.982671 42.000000
17.088924 1.105091 2.991804 12.000000
-15.014338 1.300383 2.905130 11.000000
-13.955143 1.274926 2.957659 10.500000
18.995905 1.288350 2.984237 2.000000
-13.888428 1.356885 2.945268 6.500000
17.055861 1.345326 2.989051 20.000000
-13.812757 1.481050 2.932052 8.500000
-11.017641 1.444601 2.969761 18.000000
15.329032 1.521934 2.969487 16.000000
15.429669 1.580894 2.989929 10.000000
-13.695272 1.664585 2.911813 18.000000
18.511560 1.606530 2.912388 2.000000
-13.851476 1.771958 2.947333 17.000000
-13.697743 1.708574 2.913465 28.000000
18.593937 1.790393 2.927872 15.000000
-18.888660 1.842072 2.974637 11.500000
-10.724916 1.819759 2.907278 0.000000
-18.569063 1.958238 2.926634 16.000000
-18.578308 2.195601 2.932208 8.000000
-18.418697 2.264745 2.908671 18.000000
16.928106 2.222615 2.982855 2.000000
-18.361174 2.404251 2.902477 2.000000
-12.774159 2.582682 2.993490 38.000000
-11.309272 3.773060 2.959909 6.000000
18.277737 3.758530 2.924775 8.000000
-11.293684 3.807328 2.958946 12.000000
-11.064213 3.865976 2.909791 45.500000
-11.353229 4.027080 2.990752 38.000000
-11.238190 4.026064 2.963765 3.000000
-10.924129 4.173727 2.903365 30.000000
18.612286 4.194458 2.990431 1.000000
-11.173564 4.202089 2.963765 42.000000
-18.005651 4.409283 2.905574 4.000000
-11.871115 4.657051 2.929017 6.000000
-10.184633 4.675736 2.995064 12.000000
-10.158360 4.747782 2.996786 18.333334
-11.872685 4.852406 2.946031 8.000000
-11.893502 5.347644 2.995281 6.000000
-17.629555 6.187606 2.928492 0.000000
-11.397076 6.242270 2.984759 27.500000
-11.218673 6.282763 2.953418 18.750000
-17.618767 6.370951 2.936544 20.000000
-17.736012 6.476420 2.959461 12.000000
-11.252805 6.418500 2.975581 12.000000
-17.814753 6.696121 2.982998 1.000000
-17.347946 6.645358 2.911768 12.000000
-17.384081 6.763835 2.923743 17.000000
-17.421137 6.989127 2.942118 50.000000
-10.509569 7.094100 2.912452 16.500000
-9.311967 7.199701 2.922320 1.000000
-10.679478 7.381038 2.981849 21.000000
-17.022888 7.458353 2.913007 20.000000
-10.639634 7.462763 2.985073 5.600000
-11.354427 7.794930 2.906857 6.000000
-11.365787 7.881810 2.919248 5.000000
19.914366 7.852508 2.972320 11.000000
-11.371713 8.059090 2.941757 7.750000
-11.237463 8.083863 2.921726 8.000000
-10.256176 8.085314 2.999758 12.000000
-11.360708 8.254046 2.963854 12.000000
19.058086 8.645132 2.905755 19.000000
-9.390440 9.014528 2.989908 8.666667
-10.752014 9.153915 2.980375 1.000000
19.170006 9.283660 2.957467 20.000000
19.251118 9.397717 2.974520 10.000000
18.676128 9.446321 2.906030 14.000000
18.597944 9.517051 2.900804 17.000000
15.811158 10.072818 2.938402 0.000000
18.439920 10.028734 2.914557 16.000000
3.863894 10.177124 2.909344 4.000000
16.171124 10.124451 2.990431 9.500000
18.642515 10.470238 2.968836 11.333333
18.592045 10.570337 2.969569 9.000000
2.796025 10.680593 2.950655 13.000000
2.821642 10.641874 2.942393 4.000000
1.276779 10.787452 2.903147 0.000000
1.905211 10.816027 2.935163 73.000000
4.728795 10.834076 2.934850 4.500000
-10.826656 10.963551 2.970244 6.500000
0.980631 10.923155 2.931032 2.000000
-10.723164 11.053857 2.968730 1.333333
1.084079 11.095864 2.979573 9.500000
-10.573018 11.294617 2.982358 20.000000
-11.896921 11.634067 2.907131 8.000000
-15.685724 18.236336 2.913015 10.500000
-15.532356 18.406122 2.916622 10.000000
-15.544788 18.597961 2.935376 19.000000
-15.440620 18.591715 2.926720 38.000000
-15.484640 18.884890 2.957498 60.000000
-15.502992 19.028875 2.972405 53.000000
-15.465429 19.166651 2.982504 46.000000
-18.499979 21.169605 2.907291 10.000000
-12.369846 21.126120 2.964711 0.000000
-12.195190 21.131195 2.954612 1.000000
18.509314 29.087404 2.960581 88.000000
18.402939 29.121826 2.958186 111.000000
18.667259 29.133135 2.971190 2.000000
18.332544 29.213251 2.961608 82.000000
-1.047233 -35.493874 3.049217 3.000000
-0.431423 -35.311359 3.032448 5.000000
-1.260249 -35.207798 3.025262 9.000000
-0.874239 -35.267296 3.029368 3.000000
0.874618 -22.161968 3.079594 4.000000
1.503480 -22.167913 3.085095 11.000000
1.006787 -22.001678 3.058139 6.000000
2.461255 -21.942564 3.065841 3.000000
0.792915 -21.832018 3.033384 6.000000
2.256804 -21.653822 3.022931 13.500000
2.360112 -21.654787 3.024582 15.000000
3.162480 -21.468134 3.013029 5.000000
3.362829 -21.425634 3.011379 3.000000
-4.267172 -19.247965 3.090153 7.000000
-4.330377 -19.106201 3.070642 35.000000
-3.746488 -19.166836 3.061042 11.000000
-4.164521 -19.068237 3.059184 37.000000
-4.826712 -18.935942 3.062900 9.000000
-4.045376 -18.950420 3.037195 22.500000
-3.872549 -18.865459 3.018613 3.000000
-4.720924 -18.767059 3.033169 24.000000
-5.204831 -18.691984 3.041221 19.000000
-5.134557 -18.666332 3.034408 72.000000
-6.661985 -18.067812 3.018304 2.000000
-17.949646 -7.804729 3.067855 1.000000
-17.879173 -7.409472 3.033479 9.000000
-17.927689 -7.265106 3.031930 0.000000
-17.842596 -7.295962 3.021401 52.000000
-17.953396 -6.787593 3.008394 16.500000
-19.308119 -3.907226 3.087676 77.000000
-19.180771 -3.818774 3.065378 4.000000
-19.257690 -3.271022 3.061661 4.000000
-19.218281 -3.171224 3.052990 7.000000
-12.098717 -2.624684 3.073641 42.500000
-12.086228 -2.681668 3.073641 6.000000
-13.077184 -2.544336 3.060051 39.000000
-15.949981 -2.040409 3.099714 11.000000
-15.905643 -1.983974 3.089871 13.000000
-14.333515 -1.948139 3.053067 17.000000
-14.358073 -1.882632 3.056371 45.000000
-14.269697 -1.802676 3.035720 35.000000
-14.327118 -1.695748 3.045013 25.750000
-14.196287 -1.507205 3.013142 38.333332
-15.926415 -1.328984 3.080786 25.000000
-14.190387 -1.375143 3.009080 17.750000
-14.212471 -1.275928 3.011765 35.000000
-12.360490 -1.031425 3.079424 41.000000
-12.404679 -0.982794 3.089383 24.666666
-17.433544 -0.468689 3.046877 21.000000
-15.599148 -0.416648 3.008101 10.000000
-15.761798 -0.024757 3.038386 32.000000
-15.573116 -0.073390 3.002044 30.000000
-15.934616 0.025029 3.071700 66.000000
-15.886544 0.174686 3.062615 50.000000
-14.431283 0.279641 3.046459 22.333334
-15.729208 0.358329 3.032897 34.500000
-14.480295 0.364005 3.057198 9.000000
-11.238981 0.575845 3.007664 16.400000
-15.872595 0.773521 3.063372 7.000000
-11.422538 0.736660 3.059097 15.000000
17.168144 0.731566 3.002131 2.000000
-19.192339 0.811106 3.010871 31.000000
-14.477248 0.888005 3.061328 24.000000
17.185976 0.894706 3.006605 11.000000
-16.022354 0.982778 3.094414 50.000000
-15.943021 0.927642 3.078514 1.000000
-14.487001 0.980008 3.064632 17.000000
-14.345500 0.925167 3.034068 24.000000
-13.216218 1.061029 3.045426 22.000000
-13.029025 1.004818 3.001549 19.000000
-11.246462 1.009654 3.017786 16.000000
17.218163 1.059140 3.013833 14.000000
-13.403486 1.160868 3.090198 34.000000
-13.271092 1.107411 3.058858 8.000000
-11.188107 1.169803 3.006425 28.000000
17.236809 1.196271 3.018652 16.500000
19.244228 1.183769 3.022020 9.000000
17.337099 1.285327 3.037239 13.000000
19.106335 1.235551 3.000961 17.000000
-15.609375 1.302529 3.019458 21.000000
-11.430424 1.334682 3.075622 26.000000
19.350471 1.373481 3.040602 14.000000
15.792569 1.417785 3.056557 30.000000
-19.325394 1.548094 3.038744 4.000000
17.236710 1.523197 3.023127 8.500000
-19.355877 1.611747 3.044318 9.000000
-11.262330 1.765650 3.046704 0.000000
-14.354194 1.882117 3.055545 3.000000
-11.355735 1.890113 3.076654 8.000000
-12.271954 2.092205 3.090749 10.750000
-19.352476 2.102355 3.051132 28.000000
-12.177156 2.144970 3.069786 40.000000
-12.113791 2.212372 3.057256 24.000000
-15.478274 2.376802 3.018701 61.000000
17.210472 2.369784 3.035174 21.000000
-19.489609 2.427562 3.078385 11.000000
-19.089865 2.560699 3.018923 10.000000
-12.812799 2.548625 3.000653 0.000000
-19.113047 2.624957 3.023878 4.000000
-17.119238 2.791109 3.030355 2.000000
-15.521904 2.784439 3.039901 0.000000
-15.454516 2.847570 3.029301 6.000000
19.003304 2.860411 3.012110 6.000000
-17.338343 2.938785 3.072348 68.000000
-17.228069 2.975808 3.054449 35.000000
-10.916100 3.078660 3.031212 1.000000
-17.055834 3.111874 3.028978 13.000000
-15.508005 3.110065 3.048986 6.000000
-11.133048 3.177635 3.094212 4.000000
-10.834669 3.166227 3.016753 28.000000
-16.878710 3.244217 3.002819 2.000000
-10.876552 3.215586 3.031212 11.000000
17.027081 3.223456 3.027601 0.000000
-15.666012 3.372806 3.089114 51.000000
-15.329187 3.350711 3.024758 15.000000
-17.287687 3.492088 3.081297 7.000000
-15.337756 3.403110 3.028543 17.000000
-17.215303 3.759837 3.078543 16.000000
-17.026388 4.056262 3.057891 25.000000
18.775824 4.169377 3.014587 19.000000
-10.483915 4.342589 3.032761 8.500000
-11.441070 4.760116 3.076532 57.000000
-12.229421 4.864206 3.023040 25.000000
-10.308177 4.910165 3.051523 13.333333
-11.035967 5.186155 3.027377 13.000000
-11.970249 5.314403 3.008265 22.000000
-12.008970 5.536213 3.037367 9.000000
18.626427 5.669861 3.051751 6.000000
-16.752502 5.761810 3.095065 1.000000
-16.678490 5.795009 3.084739 0.000000
18.731670 5.798420 3.073430 1.000000
18.708340 6.245203 3.091392 25.000000
18.349102 6.350357 3.043389 9.000000
-12.627425 6.890452 3.036133 11.000000
-12.587347 6.971478 3.036959 7.500000
-11.220407 6.997677 3.037367 23.000000
-10.323602 6.945023 3.089062 3.000000
-17.795540 7.074512 3.001580 8.000000
-10.270139 7.003190 3.086171 27.000000
18.419348 7.063150 3.092012 5.000000
-12.244744 7.319623 3.010939 3.000000
-11.109043 7.372449 3.062439 0.000000
-12.322338 7.471495 3.041503 12.000000
-11.079346 7.402979 3.060648 0.000000
-10.652640 7.562046 3.000653 0.000000
-9.446483 7.543726 3.001354 1.000000
-9.574030 7.694970 3.049545 18.000000
-9.471334 7.661528 3.024486 2.000000
-17.541813 7.773540 3.007361 14.666667
-9.302151 7.769534 3.009065 14.000000
-9.574314 7.870008 3.077014 0.500000
-9.252162 7.876990 3.016775 4.000000
-9.430782 8.080307 3.083279 67.000000
-9.929142 8.561538 3.011399 25.000000
-8.898455 8.596138 3.071713 0.000000
-8.523931 8.768411 3.036052 33.000000
-17.501070 9.017508 3.085818 25.000000
-17.351494 9.044130 3.066926 55.000000
-17.266367 9.138216 3.061971 64.500000
-17.259060 9.273692 3.070952 7.500000
19.668987 9.222001 3.016330 18.000000
-17.298550 9.400166 3.085818 25.000000
-9.610370 9.342418 3.078557 7.000000
-9.639497 9.429811 3.097362 13.000000
17.088427 9.503485 3.064758 22.000000
16.749092 9.732557 3.036266 2.000000
16.902205 10.179976 3.092631 0.000000
-12.272051 10.250114 3.082300 0.000000
4.319712 10.382547 3.005392 11.000000
-10.079258 10.565783 3.081979 0.000000
-9.823595 10.660615 3.059676 50.000000
19.347748 10.680532 3.068592 9.000000
-9.773244 10.706819 3.059676 4.000000
0.725220 11.245145 3.011589 1.000000
1.926425 11.353552 3.077687 6.000000
1.877592 11.428297 3.095244 8.000000
-15.479944 19.495857 3.014724 23.000000
-15.571112 19.737684 3.044539 17.000000
-15.456549 19.847662 3.046463 6.000000
-15.391693 19.892981 3.045982 1.000000
-14.077812 20.560101 3.017609 21.000000
-13.910647 20.662336 3.016487 3.666667
-11.588446 21.951571 3.006068 0.000000
-11.780429 22.146444 3.037807 1.000000
-11.582075 22.107468 3.022418 1.000000
-15.475883 25.145855 3.053355 27.000000
18.605324 29.855846 3.020813 6.000000
19.135983 29.864649 3.045795 6.000000
19.240515 29.821131 3.047506 6.000000
18.637266 30.117485 3.041346 12.000000
18.472572 30.274815 3.045453 13.000000
18.561333 30.206446 3.044426 13.000000
18.353344 30.400742 3.049388 12.500000
18.187468 30.558254 3.053666 12.000000
18.024338 30.721775 3.058629 10.000000
17.853895 30.874092 3.062564 8.500000
17.720118 30.978668 3.064618 8.000000
17.636482 31.058443 3.067013 8.000000
17.446829 31.179081 3.068040 6.000000
17.538822 31.113697 3.067013 7.000000
17.233263 31.256674 3.064960 4.000000
17.350725 31.237217 3.068382 5.000000
17.163681 31.363098 3.070093 5.000000
17.084089 31.451885 3.073515 5.000000
16.987087 31.508909 3.073858 5.000000
16.858067 31.625505 3.077451 5.000000
16.694218 31.797850 3.083953 5.000000
16.525219 31.962294 3.089771 6.000000
16.382614 32.055813 3.091311 7.000000
16.298050 32.139111 3.094391 8.000000
16.115374 32.280102 3.098155 10.000000
16.211332 32.218636 3.097129 8.000000
15.919267 32.395031 3.099524 11.000000
16.020962 32.344856 3.099524 11.000000
15.512647 32.596115 3.099867 13.000000
15.614972 32.547218 3.099867 14.000000
14.196222 32.695881 3.060853 5.000000
14.308462 32.673027 3.062907 5.000000
15.177893 32.683033 3.094391 13.000000
15.344444 32.638149 3.096958 13.000000
14.465783 32.751865 3.074542 11.000000
14.901585 32.713573 3.086862 13.666667
15.073473 32.726933 3.094049 14.000000
13.698019 32.810516 3.053153 4.000000
14.641575 32.870075 3.089942 57.000000
14.734969 32.802105 3.087889 21.000000
13.405210 32.930523 3.053096 18.000000
13.554664 32.902374 3.055720 11.000000
13.134253 33.055290 3.054351 7.000000
13.236552 33.010166 3.054008 15.000000
14.217919 33.029503 3.087889 2.000000
12.853743 33.259388 3.061880 1.000000
13.075603 33.211346 3.064960 2.000000
12.770566 33.355434 3.067013 9.000000
12.682673 33.440109 3.071120 30.000000
12.595776 33.528286 3.075569 37.000000
12.508450 33.616245 3.080018 27.000000
12.327046 33.776539 3.087547 8.000000
12.422071 33.707729 3.084809 10.000000
12.246611 33.886314 3.094049 12.000000
12.157550 33.973404 3.098498 13.000000
7.739366 -36.442139 3.199112 42.000000
8.063460 -36.281990 3.191583 3.000000
5.871288 -35.893120 3.123138 14.000000
2.133560 -22.912115 3.195120 8.000000
2.203632 -22.885578 3.192369 8.000000
2.954342 -22.501158 3.151110 10.000000
0.744684 -22.448172 3.118653 0.000000
2.559229 -22.186621 3.101049 7.000000
0.546625 -20.332325 3.188018 3.000000
-4.550924 -19.649624 3.161384 24.000000
-5.638218 -19.457550 3.175217 45.333332
-6.039287 -19.107645 3.140944 28.000000
-6.131095 -19.084585 3.141873 2.500000
-4.622004 -17.611746 3.181116 22.250000
-5.113443 -17.307060 3.152891 27.000000
-5.031157 -17.362593 3.158169 25.333334
-5.122657 -17.139898 3.125355 38.000000
-5.166218 -17.089775 3.119159 23.000000
-19.948988 -4.298549 3.198547 34.000000
-19.807766 -4.203040 3.173772 4.000000
-19.825388 -4.109273 3.173462 10.000000
-19.871670 -3.568312 3.164481 10.000000
-16.329031 -2.141064 3.174671 119.000000
-12.496589 -2.120369 3.146892 4.000000
-19.778761 -2.092790 3.117407 24.000000
-12.432593 -2.015813 3.126973 27.000000
-12.372986 -2.059430 3.114122 52.000000
-12.657181 -1.902923 3.177734 30.000000
-12.661202 -1.822251 3.175807 4.000000
-12.713103 -1.687286 3.183999 36.500000
-12.677892 -1.581364 3.171951 10.000000
-12.720181 -1.404380 3.177252 32.000000
-13.652649 -1.344737 3.151089 26.500000
-12.635953 -1.334780 3.154602 49.000000
-13.679319 -1.249727 3.155118 28.000000
-12.659565 -1.216747 3.157494 34.000000
-12.537796 -1.264720 3.128579 40.500000
-16.443348 -1.164252 3.177699 43.000000
-13.710319 -1.187443 3.160939 30.000000
-13.686786 -1.142098 3.154671 30.000000
-12.469559 -1.099695 3.107857 33.000000
-13.714880 -1.046857 3.159372 24.500000
-13.720993 -0.949841 3.159148 10.000000
-13.770197 -0.822927 3.168550 15.000000
-16.291460 -0.383930 3.141357 12.000000
-16.087320 0.126352 3.101228 41.000000
-16.076725 0.479956 3.100471 20.000000
-14.925226 0.539461 3.152193 18.000000
-18.296661 0.715680 3.199014 5.000000
-19.757164 1.146108 3.101922 5.000000
-16.470953 1.270265 3.184514 38.000000
-13.504484 1.287285 3.115942 26.250000
-13.450251 1.207500 3.101839 44.000000
-12.530564 1.423205 3.130989 13.500000
-12.698669 1.523281 3.175324 12.000000
-11.537741 1.549778 3.111252 32.500000
15.031375 1.587820 3.190191 21.000000
-11.681084 1.656201 3.153080 31.000000
-13.588107 1.781715 3.147806 12.333333
16.489410 1.899140 3.199656 17.000000
16.385851 1.939393 3.180728 2.000000
18.183357 2.155360 3.199014 10.000000
-12.422554 2.228453 3.133398 53.000000
-12.500175 2.364195 3.158458 2.000000
-12.454107 2.314976 3.144964 10.000000
17.745026 2.386608 3.128109 6.000000
-19.983353 2.616663 3.158906 17.000000
-16.116106 2.682475 3.149433 9.333333
17.837830 2.684982 3.151514 40.000000
17.994308 2.650750 3.177674 17.000000
-19.814672 2.911839 3.139086 3.000000
-17.537951 2.915971 3.106080 16.000000
17.957874 3.282929 3.189376 0.000000
-17.610043 3.384785 3.132927 18.000000
-17.549049 3.430262 3.123978 18.000000
-11.126766 3.423064 3.111252 10.000000
-11.101082 3.600546 3.118998 15.333333
-17.917364 3.677910 3.195572 26.000000
-17.858793 3.841638 3.191442 7.000000
-19.949543 3.964593 3.188018 5.000000
-17.239304 4.394248 3.108145 5.000000
-17.213501 4.483777 3.107686 1.333333
-17.498026 4.636251 3.162529 32.000000
-17.525240 4.702430 3.170101 1.000000
-11.345170 5.404077 3.119905 35.000000
-11.244598 5.443117 3.101592 10.000000
-16.983410 6.292496 3.164250 1.500000
-11.080123 6.250975 3.158458 15.000000
19.193157 6.340098 3.168197 1.000000
18.697416 6.569731 3.106258 16.000000
-16.669403 6.748421 3.141876 5.000000
-16.666359 6.808202 3.145319 33.000000
-9.353129 6.885650 3.104023 10.000000
-16.878042 6.956623 3.189376 6.000000
-10.273841 7.100685 3.100628 4.000000
-10.257854 7.137364 3.102556 1.000000
-9.233250 7.231989 3.134490 32.000000
18.824564 7.286452 3.163861 8.000000
-16.754536 7.372129 3.197981 26.500000
-16.530664 7.366840 3.161840 17.000000
-16.488575 7.441378 3.160463 20.500000
-10.447775 7.490868 3.191710 5.000000
-11.316485 7.768883 3.152880 43.000000
18.620916 7.751140 3.161384 50.000000
18.448925 7.884361 3.144660 15.000000
18.673378 7.876393 3.176559 33.000000
18.637753 8.208597 3.192044 10.000000
-18.411238 8.357860 3.169188 45.799999
-9.497635 8.346812 3.139181 20.000000
-9.419010 8.356651 3.126169 34.000000
18.524086 8.332827 3.183682 19.000000
-18.348215 8.489750 3.168816 60.500000
18.506517 8.500334 3.192044 10.000000
-18.343824 8.592871 3.175010 48.000000
-9.525544 8.531786 3.174843 32.000000
-9.295954 8.702043 3.161349 0.000000
-8.787616 8.983025 3.119905 9.000000
-10.255052 9.012453 3.135866 4.000000
-10.462434 9.136616 3.190489 1.000000
17.990545 9.206228 3.167578 6.000000
17.777428 9.452427 3.155809 23.000000
17.821014 9.403907 3.158287 33.000000
18.032509 9.443203 3.190495 22.000000
-9.720954 9.569442 3.133180 44.000000
-9.630265 9.600057 3.123330 16.000000
17.353451 9.579620 3.106877 27.000000
17.579149 9.584451 3.138260 19.333334
17.706814 9.534090 3.152093 21.666666
-9.588374 9.760638 3.142731 18.000000
-9.539583 9.875217 3.153775 5.500000
-9.490949 9.824727 3.137657 5.000000
17.761410 10.024382 3.196689 8.000000
16.998020 10.531007 3.134130 2.000000
16.978163 10.741446 3.148996 16.000000
19.688055 10.949230 3.128005 13.000000
-11.937009 11.351562 3.175428 39.500000
-11.811988 11.362949 3.159528 44.333332
-11.704942 11.426380 3.153219 68.000000
3.100344 11.403296 3.158244 0.000000
-13.629457 11.525945 3.118471 12.000000
-11.688721 11.506538 3.161799 2.000000
0.892321 11.570349 3.101441 5.000000
-13.577717 11.629296 3.123290 3.000000
1.826099 11.647923 3.151015 17.000000
2.486376 11.637674 3.180449 12.000000
-13.684380 11.795379 3.156333 0.000000
-10.327368 12.483611 3.123185 8.500000
-10.169488 12.491261 3.105014 21.000000
-10.250996 12.510901 3.117886 24.000000
-10.248760 12.669728 3.141357 22.000000
-10.127525 12.641245 3.122428 16.000000
-10.015374 12.869948 3.143628 2.000000
-11.284977 19.994963 3.187968 20.000000
-11.205122 20.073830 3.192094 2.500000
-16.667780 25.268419 3.130296 17.000000
15.772503 32.482193 3.100722 13.500000
12.064069 34.048992 3.101920 7.000000
11.979467 34.150654 3.107738 2.000000
11.893038 34.248356 3.113213 4.000000
11.803522 34.338314 3.118005 8.000000
11.714844 34.431820 3.123138 11.000000
7.020335 -37.694725 3.292539 55.000000
7.121658 -37.582428 3.284668 69.000000
7.241202 -37.567692 3.285352 19.000000
7.367614 -37.587780 3.289117 63.000000
5.886304 -37.460804 3.256263 12.000000
6.000177 -37.418514 3.254210 6.000000
8.204301 -37.471184 3.293908 26.000000
8.320252 -37.437443 3.293223 51.000000
8.447463 -37.453884 3.296988 11.000000
5.743731 -37.317616 3.242232 17.000000
5.602708 -37.177841 3.228543 4.000000
5.113861 -37.091335 3.215196 8.000000
5.462621 -37.037548 3.214854 22.000000
7.634775 -37.095093 3.252156 34.000000
7.949594 -36.861763 3.238125 7.000000
7.682761 -36.743244 3.223410 4.000000
8.035526 -36.700344 3.226147 7.000000
8.239653 -36.532509 3.215881 4.000000
8.467229 -36.472248 3.215196 69.000000
8.699002 -36.429955 3.216223 31.000000
8.326822 -36.386009 3.205272 51.000000
0.009393 -26.962969 3.265270 4.000000
1.085026 -23.711468 3.295793 1.000000
1.881701 -23.387327 3.257834 2.000000
1.950869 -23.329973 3.250683 22.000000
2.065681 -23.375744 3.258384 8.500000
1.351275 -23.154093 3.220426 2.000000
1.496731 -23.145145 3.220426 8.000000
2.450488 -23.159294 3.233629 3.000000
-3.412970 -20.728395 3.292695 22.000000
-3.281178 -20.739662 3.291147 11.500000
-3.502042 -20.661457 3.284643 15.000000
2.443969 -20.618168 3.254293 7.000000
2.503479 -20.567236 3.247479 1.000000
2.634165 -20.562860 3.249337 5.000000
2.765943 -20.565487 3.252434 2.000000
2.821375 -20.490145 3.241905 2.000000
3.260636 -20.356813 3.231375 3.000000
-3.697561 -20.265936 3.228898 3.000000
3.050398 -20.265501 3.212174 7.000000
4.835640 -20.126495 3.244382 6.000000
-4.868917 -19.882601 3.208457 25.000000
-4.321554 -18.310555 3.286900 34.000000
-4.403017 -18.227718 3.276115 3.000000
-4.919664 -18.107367 3.278181 37.000000
-4.830076 -18.000952 3.256152 31.000000
-4.119242 -18.043438 3.233434 15.000000
-4.051296 -18.006315 3.224485 35.000000
-3.936397 -18.023716 3.223108 26.000000
-3.975944 -17.934322 3.209340 34.000000
-6.046824 -17.854286 3.293325 3.000000
-4.536340 -17.796766 3.208652 32.000000
-6.080817 -17.501060 3.236876 2.000000
15.651415 -17.413162 3.250958 1.500000
15.750609 -17.358318 3.254534 7.000000
15.778348 -17.279493 3.249032 6.000000
15.864722 -17.264849 3.255634 3.000000
15.870464 -17.162563 3.245732 0.000000
16.125771 -17.004902 3.253983 1.000000
16.149025 -16.922628 3.247932 3.000000
16.261173 -16.827211 3.249170 4.500000
17.598038 -15.509247 3.257009 1.500000
17.690323 -15.443130 3.260585 1.000000
17.726780 -15.377093 3.258384 1.000000
17.841105 -15.280873 3.261685 1.000000
17.924959 -15.206885 3.263885 9.000000
17.990393 -15.117147 3.262785 10.000000
18.070522 -15.039814 3.264436 6.000000
18.186106 -14.943569 3.268287 1.500000
18.285805 -14.833984 3.269387 1.000000
18.355522 -14.747675 3.269387 5.000000
18.432726 -14.714655 3.274888 6.000000
18.501865 -14.627581 3.274888 12.500000
18.576830 -14.545160 3.275988 10.000000
18.657688 -14.467126 3.278189 11.500000
18.728798 -14.381503 3.278739 12.000000
18.818409 -14.309864 3.282590 10.000000
18.901485 -14.232952 3.285341 7.000000
18.982616 -14.154365 3.287816 7.500000
19.091906 -14.050095 3.291392 13.000000
19.200649 -13.944983 3.294968 10.000000
19.277441 -13.862453 3.296893 11.000000
-18.571955 -2.676258 3.278181 26.000000
-18.467117 -2.601960 3.258217 32.000000
-11.941939 -2.681073 3.271024 22.600000
-16.845078 -2.532545 3.283698 17.000000
-12.976991 -2.454376 3.278936 43.000000
-16.809423 -2.311569 3.270827 29.000000
-16.902243 -2.270256 3.287484 67.000000
-12.901226 -1.898189 3.237491 21.000000
-12.839857 -1.806811 3.219179 87.000000
-12.178668 -1.752803 3.288374 23.000000
-12.092275 -1.701612 3.263588 29.000000
-13.084662 -1.216133 3.262551 43.000000
-16.611511 -1.123725 3.209499 15.000000
-15.128012 -1.071121 3.200930 7.000000
-17.072287 -0.993348 3.296570 10.000000
-15.205496 -0.836809 3.214146 14.000000
-15.172873 -0.787214 3.206712 43.000000
-13.270018 -0.772113 3.300140 18.000000
-13.089803 -0.349625 3.250985 8.000000
-16.729462 0.289092 3.225399 11.000000
-18.331783 0.486435 3.203833 3.000000
-16.856325 0.556235 3.251141 1.000000
-18.299677 0.830986 3.200391 11.000000
18.809248 0.979168 3.290572 0.000000
-18.430235 1.301699 3.227927 7.000000
-15.374104 1.380214 3.257927 6.000000
18.830685 1.336587 3.298144 3.000000
-15.264474 1.418732 3.235624 69.000000
-15.119692 1.453197 3.205886 19.000000
