# This PCD file was generated using the MATLAB® pcwrite function
# from Computer Vision Toolbox®.
# .PCD v.7 - Point Cloud Data file format
VERSION .7
FIELDS x y z intensity
SIZE 4 4 4 4
TYPE F F F F
COUNT 1 1 1 1
WIDTH 1233
HEIGHT 1
VIEWPOINT 0 0 0 1 0 0 0
POINTS 1233
DATA ascii
19.064480 7.943585 1.052390 43.000000
19.109400 8.032853 1.056258 9.000000
19.157625 8.124039 1.060329 22.000000
19.260559 8.239175 1.067453 53.000000
19.342430 8.382312 1.074171 12.000000
-18.644470 8.583389 1.045876 1.000000
19.467369 8.545579 1.083331 26.000000
19.565552 8.698921 1.091066 11.000000
19.666445 8.854959 1.099005 45.000000
-5.766444 10.840542 1.054393 37.000000
-5.639137 10.863270 1.051039 29.299999
-4.344584 10.812941 1.000664 1.000000
-5.802821 10.909147 1.061066 54.500000
-5.241337 10.905302 1.038993 2.000000
-6.312962 11.099283 1.096486 14.000000
-4.818640 11.076829 1.037282 7.000000
-4.706857 11.202640 1.043442 6.000000
-4.653251 11.173224 1.039335 4.000000
-6.190327 11.209135 1.099566 15.000000
-4.847739 11.362582 1.060809 22.500000
-5.396399 11.599038 1.098540 23.000000
2.240541 11.569666 1.011957 3.500000
2.488872 11.579965 1.017090 18.000000
2.564446 11.577031 1.018231 16.000000
-5.356596 11.608696 1.097855 7.000000
-4.731927 11.670860 1.081428 2.000000
2.042373 11.618442 1.012984 0.000000
2.457432 11.611120 1.019144 0.000000
2.928642 11.887489 1.051313 23.500000
3.424022 11.870577 1.060895 1.000000
2.876341 11.916666 1.052682 0.000000
3.019646 11.907147 1.054849 14.000000
3.181954 11.941787 1.061237 32.500000
3.296488 11.919012 1.061922 25.500000
2.846947 12.128498 1.069793 2.000000
2.520255 12.223615 1.071732 23.000000
2.852745 12.415578 1.093920 25.000000
-17.423897 12.561958 1.094526 3.000000
0.946798 12.591969 1.084337 1.000000
1.045498 12.582173 1.084166 8.000000
1.252026 12.655417 1.092037 6.000000
-7.787420 13.016979 1.037281 10.000000
-17.117395 13.134644 1.099412 38.000000
-16.990685 13.122421 1.093916 38.000000
-6.378848 13.165953 1.000440 1.000000
-8.278600 13.263979 1.069210 10.000000
-6.313177 13.241792 1.003169 26.000000
-6.100396 13.442016 1.009446 26.000000
-6.107273 13.570288 1.017633 15.000000
-15.322422 13.752859 1.049133 19.500000
-6.617508 13.768611 1.044650 12.000000
-5.586967 13.779735 1.016814 1.000000
-15.272710 13.882394 1.051677 38.000000
-15.120430 13.918655 1.047199 38.500000
-15.137904 14.111418 1.054527 43.500000
-15.354925 14.449518 1.074374 27.000000
-15.334412 14.567118 1.077733 23.000000
1.427991 14.670222 1.007945 10.000000
2.290467 14.643334 1.013539 4.000000
3.218712 14.639307 1.025001 2.500000
-5.831771 14.782109 1.086676 0.000000
-15.389818 14.820324 1.088691 35.666668
1.335042 14.929420 1.025001 3.000000
1.982765 14.980041 1.033324 12.000000
2.449238 14.939860 1.035280 27.000000
-16.706829 27.135340 1.069912 42.000000
-16.579798 27.119471 1.067227 26.000000
-16.488289 27.161179 1.066825 16.000000
-16.419392 27.240231 1.067898 43.000000
-16.617554 27.964912 1.092193 1.000000
3.304493 -34.193340 1.153400 6.000000
2.838096 -33.797939 1.138769 9.000000
2.623513 -33.787201 1.137830 5.000000
2.707106 -33.499859 1.128434 15.000000
1.542891 -33.461575 1.124676 18.000000
3.965907 -33.358147 1.127897 5.000000
4.594500 -33.281429 1.128031 5.000000
2.868253 -32.916653 1.109374 11.000000
3.813309 -32.957432 1.113938 9.000000
4.643681 -32.874947 1.114743 6.000000
-6.146317 -32.590809 1.113535 7.000000
-6.204236 -32.339695 1.105616 5.000000
-6.713070 -32.246082 1.105884 16.000000
-6.390191 -32.213806 1.102663 2.000000
-6.477139 -32.123032 1.100247 4.000000
-16.467823 -30.443928 1.162125 5.000000
-17.226168 -30.348202 1.171655 1.000000
-16.716097 -30.331190 1.162796 5.000000
-16.609215 -30.362513 1.161990 5.000000
-17.265863 -30.196764 1.167896 4.000000
-16.923912 -30.256962 1.164004 1.000000
-13.249220 -30.268650 1.109374 39.000000
-13.744610 -30.104082 1.111119 2.000000
-13.615338 -30.070635 1.108300 41.000000
-13.484776 -30.033030 1.105347 43.000000
-13.318830 -30.041359 1.103334 33.500000
-17.614613 -29.292465 1.147628 3.000000
-17.615423 -29.086527 1.141722 2.000000
-17.902193 -28.340366 1.125481 2.000000
-19.691750 -28.143637 1.153266 16.000000
-19.902880 -28.068272 1.155279 6.000000
-19.775467 -28.075098 1.152997 44.000000
-16.887365 -28.083078 1.100247 2.000000
-19.756372 -27.676975 1.141722 6.000000
2.797078 -16.768616 1.162541 53.000000
4.223229 -16.751493 1.181371 6.000000
2.862515 -16.623936 1.153535 43.666668
2.920311 -16.545012 1.148896 46.000000
4.392430 -16.542820 1.170455 6.000000
2.962387 -16.480768 1.145076 57.000000
3.463585 -16.435766 1.148623 14.000000
3.574338 -16.448793 1.151079 30.000000
4.030378 -16.421137 1.156265 46.000000
2.459008 -16.317215 1.128429 8.000000
3.966562 -16.383297 1.152717 27.000000
4.661786 -16.311283 1.160085 16.000000
2.608262 -16.265732 1.126519 13.000000
3.005795 -16.233494 1.128975 15.333333
4.373917 -16.266882 1.151898 40.000000
4.851503 -16.201717 1.156537 19.000000
4.911633 -16.216951 1.158721 35.000000
3.587798 -16.143499 1.130885 5.000000
3.652542 -16.194435 1.135251 58.000000
4.017400 -16.148930 1.137980 47.000000
4.681964 -16.189219 1.152444 31.000000
4.746365 -16.126757 1.149579 16.500000
4.087181 -15.999639 1.129248 42.000000
4.520294 -16.070704 1.141619 24.666666
3.672769 -15.933983 1.118195 24.500000
3.769012 -15.931316 1.119514 24.000000
4.372392 -15.928179 1.129521 30.333334
4.112426 -15.890137 1.122425 18.000000
4.116787 -15.703427 1.110145 23.000000
13.186893 -9.732877 1.120788 130.000000
13.258536 -9.625872 1.120424 148.000000
13.383605 -9.462110 1.120856 109.250000
13.477281 -9.307817 1.120060 156.333328
13.564404 -9.180386 1.120060 181.666672
13.637372 -9.105315 1.121334 89.000000
13.680916 -9.010673 1.120242 114.000000
13.784176 -8.862890 1.120651 109.250000
13.877714 -8.721052 1.120842 133.800003
13.957400 -8.637099 1.122425 3.000000
3.066121 -8.071737 1.198904 8.666667
3.139252 -8.035070 1.197803 8.666667
14.436880 -7.930142 1.126382 36.000000
14.489918 -7.831422 1.126337 103.000000
14.532001 -7.775672 1.127064 53.000000
14.592280 -7.690406 1.127974 125.000000
14.671068 -7.614506 1.130339 112.000000
14.710267 -7.517941 1.129703 87.000000
14.789704 -7.412614 1.131294 24.000000
14.848539 -7.325670 1.132250 32.500000
14.908612 -7.239247 1.133341 11.500000
14.971369 -7.182717 1.135524 1.000000
15.037169 -7.069515 1.136275 11.750000
15.089593 -6.950010 1.136070 32.000000
15.154865 -6.893655 1.138526 40.500000
15.216995 -6.778235 1.139163 42.666668
15.305640 -6.702781 1.142620 59.000000
15.318724 -6.622656 1.141255 10.500000
15.401167 -6.572332 1.145076 4.000000
15.439672 -6.474337 1.144894 7.000000
15.525844 -6.339149 1.146804 25.666666
15.616043 -6.261786 1.150534 50.000000
15.626808 -6.180768 1.149169 28.500000
15.700390 -6.124484 1.152444 34.000000
15.744743 -6.028015 1.152899 57.333332
15.815884 -5.903892 1.154445 71.666664
15.897096 -5.830066 1.157902 46.000000
15.933409 -5.730078 1.157902 33.500000
16.020432 -5.676280 1.162268 46.000000
16.059515 -5.576752 1.162541 26.666666
16.123631 -5.457532 1.164042 45.000000
16.216312 -5.375588 1.168272 39.500000
16.263063 -5.277878 1.169227 45.500000
16.323879 -5.212754 1.171820 34.000000
16.374050 -5.115562 1.173093 26.666666
16.426258 -5.018877 1.174549 15.000000
16.487938 -4.952847 1.177278 13.000000
16.539785 -4.855356 1.178778 14.000000
16.618095 -4.793426 1.182735 26.000000
2.568820 -4.641139 1.119623 9.000000
2.683108 -4.652789 1.133611 13.000000
16.686852 -4.671533 1.184987 13.250000
4.208758 -4.581803 1.199303 4.000000
16.806955 -4.506490 1.189922 10.333333
4.095158 -4.430118 1.162961 18.000000
16.845274 -4.403566 1.190650 18.000000
2.946040 -4.342330 1.107522 3.500000
4.066705 -4.316993 1.143275 12.000000
16.933468 -4.341472 1.195425 15.000000
4.084979 -4.223513 1.132675 23.400000
17.006403 -4.218033 1.198200 18.666666
4.084526 -4.097377 1.115261 14.000000
17.049417 -4.115239 1.199382 10.000000
2.772108 -4.092847 1.135431 61.000000
2.953117 -3.998202 1.141699 19.000000
3.028800 -4.047167 1.161100 11.333333
-2.975375 -3.637139 1.166711 15.750000
3.084105 -3.599558 1.176831 11.000000
3.517395 -3.629692 1.160951 2.000000
3.852281 -3.628958 1.117021 8.750000
4.046854 -3.693990 1.156465 2.000000
-3.066987 -3.568200 1.168157 10.500000
4.067743 -3.535542 1.137535 17.208334
-3.695802 -3.416364 1.156026 7.000000
3.770714 -3.474542 1.177741 9.250000
-3.757666 -3.302614 1.125446 16.250000
2.970188 -3.341380 1.109942 3.000000
-3.902654 -3.197658 1.158892 15.200000
-3.614620 -3.201885 1.154007 8.000000
-3.588131 -3.259695 1.113492 18.500000
-4.013329 -3.153179 1.172368 3.000000
-3.769367 -3.188620 1.134038 31.222221
3.337151 -3.143381 1.152528 14.000000
3.762483 -3.142738 1.102683 0.000000
4.170207 -3.141336 1.101946 16.000000
-3.999332 -3.006062 1.117917 14.333333
-3.690622 -3.032304 1.185919 34.642857
3.310285 -3.066446 1.120287 13.333333
4.129690 -3.070334 1.181994 4.000000
-3.851085 -2.891541 1.195626 21.500000
3.326104 -2.867970 1.173755 15.000000
3.554098 -2.850996 1.131243 23.299999
-3.960542 -2.746521 1.196590 30.500000
3.518608 -2.791815 1.115147 54.000000
5.089840 -2.767009 1.116775 24.000000
3.701884 -2.507307 1.194927 40.000000
-3.987754 -2.400824 1.155627 32.000000
-3.480991 -2.405863 1.130895 43.000000
3.665936 -2.441221 1.177112 43.250000
4.284588 -2.426085 1.130954 21.500000
4.352901 -2.419816 1.143938 4.000000
-3.544597 -2.388273 1.106050 70.444443
-16.033775 -2.287671 1.107552 0.500000
-3.900633 -2.216767 1.199059 2.000000
-3.739686 -2.291775 1.172206 48.000000
4.514198 -2.282647 1.114114 8.500000
-3.913570 -2.102797 1.187403 22.714285
4.830955 -2.129653 1.114337 2.333333
5.312062 -2.180762 1.106933 7.500000
-3.872892 -1.986274 1.163256 8.333333
-16.044456 -1.700495 1.103323 0.000000
-16.158070 -1.609945 1.110418 4.000000
-16.103464 -1.553423 1.106324 0.000000
4.026885 -1.499986 1.148452 3.000000
-4.227741 -1.454903 1.194927 21.000000
-4.185121 -1.418262 1.180985 51.500000
-16.292944 -1.313760 1.117786 30.000000
-16.277098 -1.261029 1.116422 27.000000
-4.926121 -1.223655 1.165876 0.000000
-4.706773 -1.216378 1.116626 0.000000
-3.965106 -1.208484 1.107830 19.666666
-5.208383 -1.058744 1.121771 14.333333
-5.144236 -1.040063 1.107728 0.666667
-5.035013 -1.017951 1.179905 38.333332
-5.023247 -0.714942 1.165428 5.000000
-5.029573 -0.683607 1.165876 9.500000
-4.586868 0.136930 1.101432 14.111111
-4.490929 0.138328 1.103775 39.428570
-11.322811 1.734655 1.184559 2.000000
-11.269547 1.817181 1.180444 10.000000
-11.250979 1.905025 1.180033 15.250000
17.113350 3.831505 1.199246 11.000000
16.861923 3.998418 1.185055 12.000000
16.991716 3.916558 1.192423 12.000000
16.729851 4.078279 1.177550 11.500000
16.549488 4.199931 1.167590 33.000000
16.629137 4.136863 1.171820 33.000000
16.566229 4.287402 1.170182 25.000000
16.633743 4.360678 1.175913 32.000000
16.701641 4.462787 1.182190 13.000000
16.742077 4.558136 1.186556 12.000000
16.839600 4.670047 1.195016 30.000000
-4.586375 6.479932 1.102311 16.250000
-4.801335 6.627749 1.136373 8.000000
-4.570157 6.610169 1.115835 9.333333
-4.469771 6.641496 1.111580 7.200000
19.765841 8.974504 1.106129 21.000000
19.852127 9.126841 1.113355 9.500000
19.966497 9.293567 1.122210 31.000000
-4.780951 10.563945 1.199096 12.833334
-6.406436 11.100797 1.100593 29.333334
-19.677654 11.169376 1.152947 7.000000
2.688637 11.139008 1.184970 33.000000
2.703164 11.199821 1.191450 31.000000
-7.455928 11.241720 1.158360 37.200001
-6.824764 11.246867 1.129682 58.000000
-6.281930 11.249419 1.106411 19.500000
1.486243 11.273804 1.175918 18.333334
1.656343 11.284899 1.179484 30.666666
-19.781181 11.310463 1.161089 13.000000
-7.451700 11.374384 1.167669 14.000000
-7.359845 11.337525 1.160710 31.666666
-6.211883 11.374603 1.112913 9.500000
1.408654 11.325817 1.180238 4.500000
1.572509 11.332394 1.183118 25.500000
1.739476 11.354275 1.187850 30.000000
1.800745 11.395060 1.192993 36.500000
-19.464510 11.497528 1.151929 9.500000
-7.303992 11.500473 1.169893 50.000000
-6.196138 11.473873 1.119758 4.000000
-19.780630 11.558868 1.167400 5.000000
-19.375839 11.568659 1.149894 18.000000
-18.938540 11.551059 1.130352 13.000000
-7.233862 11.509444 1.167327 36.000000
-19.377060 11.652114 1.152133 29.000000
-19.299349 11.688104 1.149690 27.000000
-5.488667 11.701094 1.109833 14.000000
-19.167953 11.856863 1.148469 8.000000
-19.045843 11.864213 1.143380 2.000000
-6.969458 11.902945 1.184438 67.000000
-6.067647 11.852124 1.143371 45.000000
-5.960162 11.824727 1.137097 46.000000
-5.875639 11.888473 1.138751 41.500000
-5.823939 11.924992 1.139606 14.000000
-5.700478 11.956495 1.137439 33.666668
-5.334866 12.055846 1.132078 2.000000
-5.287359 12.050649 1.130024 1.000000
-19.208874 12.260942 1.161191 27.500000
-5.916770 12.212223 1.165273 54.000000
-5.032649 12.301440 1.141318 9.000000
-5.101686 12.359243 1.148162 3.000000
-19.249926 12.415237 1.167196 28.000000
-17.665457 12.526365 1.103483 10.000000
-17.590254 12.556268 1.101244 30.000000
-5.663435 12.690475 1.193336 17.000000
-18.262993 12.735667 1.134525 4.000000
-18.145622 12.781371 1.130963 26.000000
-5.559480 12.779832 1.196758 5.000000
1.021207 12.776085 1.100593 1.000000
1.680627 12.852819 1.113084 50.500000
1.614917 12.983805 1.123522 68.000000
1.779028 12.970383 1.124206 59.000000
1.985556 12.960535 1.125918 0.000000
2.279786 12.968650 1.130709 27.000000
2.781976 12.943689 1.136869 4.000000
2.862393 12.922017 1.136526 4.333333
-17.396835 13.090430 1.109386 27.000000
2.145890 13.089775 1.139036 34.333332
2.761928 13.049839 1.145424 54.000000
3.344004 13.042568 1.156204 11.000000
-18.033049 13.130656 1.136663 6.000000
-17.809027 13.197159 1.129470 37.000000
1.721784 13.167033 1.140291 33.000000
3.079183 13.117867 1.157060 14.000000
-17.684248 13.219881 1.125060 13.000000
-17.380964 13.250333 1.113661 53.000000
1.854112 13.209422 1.145424 48.000000
1.945595 13.255640 1.150472 38.000000
2.065679 13.206230 1.147820 10.000000
2.111555 13.227225 1.150216 29.000000
1.358978 13.309565 1.148847 32.000000
1.406208 13.356754 1.153296 48.000000
1.507976 13.355204 1.154117 26.799999
2.429060 13.326583 1.163220 41.000000
1.631177 13.459623 1.164247 9.000000
-17.852413 13.521276 1.141141 7.000000
1.296219 13.536036 1.167669 33.000000
2.645093 13.659025 1.194705 21.000000
1.274265 13.762270 1.186834 15.000000
2.543609 13.710733 1.197442 31.000000
-16.718632 13.889974 1.107554 10.000000
-18.529507 14.404070 1.195898 36.000000
-18.392925 14.390820 1.189995 36.000000
-17.777496 14.457681 1.167603 29.000000
-18.476305 14.549860 1.198340 28.000000
-18.058971 14.592582 1.183074 7.000000
-17.747440 14.526114 1.168621 39.000000
-18.446156 14.620246 1.199358 21.000000
-17.812721 14.673233 1.175949 18.000000
-17.028713 14.667702 1.145212 1.000000
-18.057585 15.066383 1.198340 18.000000
-17.970396 15.089640 1.195694 10.000000
-17.344061 15.258591 1.177103 28.000000
-15.747961 15.292840 1.118546 25.000000
-17.833839 15.361198 1.199358 40.000000
-17.544306 15.304878 1.186331 1.000000
-17.273895 15.358062 1.177781 12.000000
-15.811069 15.548343 1.129945 2.000000
-15.770658 15.606373 1.130556 10.000000
-14.961881 15.733555 1.106333 23.000000
-14.909591 15.810614 1.107350 33.000000
-16.054398 16.037683 1.156306 7.500000
-15.826972 16.010357 1.147146 33.500000
-15.015551 16.023525 1.118953 34.000000
-16.970097 16.171700 1.194473 29.000000
-16.965336 16.269178 1.197730 1.000000
-15.898551 16.440439 1.165364 3.000000
-15.762258 16.436701 1.160411 16.666666
-16.292801 16.742558 1.190402 30.000000
-15.701409 16.967854 1.177985 39.000000
-15.637426 17.059326 1.179206 28.500000
-15.990365 17.135571 1.194269 24.666666
-17.841654 27.791218 1.108837 9.000000
-17.720148 27.987215 1.112193 16.000000
-17.676117 28.210970 1.117763 18.000000
-9.941281 -36.190273 1.260109 10.000000
-10.436869 -35.784039 1.251519 8.000000
-13.104118 -34.899937 1.251653 9.000000
-12.622428 -34.945286 1.247492 44.000000
-15.893139 -34.809891 1.284807 5.000000
-12.700644 -34.819080 1.244405 57.000000
-12.872948 -34.781273 1.245210 52.500000
-11.445522 -34.730019 1.227761 8.000000
-11.909612 -34.666634 1.230714 6.000000
-15.885395 -34.505589 1.275411 3.000000
-12.147734 -34.304134 1.221855 5.000000
-11.934573 -34.387337 1.222124 16.000000
-11.674522 -34.332954 1.217560 8.000000
-11.565329 -34.365673 1.217426 9.000000
-16.371840 -34.140072 1.271250 2.000000
-11.381515 -34.174259 1.209372 16.000000
-16.150009 -32.879078 1.229909 2.000000
-16.487909 -32.782551 1.232056 2.000000
-17.721230 -32.638454 1.246955 4.000000
-17.058210 -32.629356 1.236217 5.000000
-3.749306 -23.752684 1.225312 9.500000
2.858411 -17.474407 1.210844 14.000000
4.808938 -17.447029 1.237588 2.500000
4.998452 -17.489256 1.243864 7.000000
5.058915 -17.492636 1.245229 2.000000
3.680882 -17.332067 1.211663 27.000000
3.275097 -17.283348 1.202930 21.000000
4.110644 -17.214685 1.210298 6.000000
4.202288 -4.603705 1.201575 3.000000
2.962693 -4.588402 1.254526 1.000000
2.908827 -4.197405 1.249007 16.000000
17.136566 -4.050903 1.204158 6.500000
3.737496 -3.980043 1.254078 1.000000
3.950234 -3.913149 1.225431 12.500000
4.030878 -3.918488 1.291239 1.000000
17.145765 -3.967870 1.203476 30.000000
17.230423 -3.901989 1.208115 14.500000
3.454204 -3.748389 1.265503 15.500000
4.032589 -3.739633 1.212281 6.000000
17.311197 -3.777548 1.211663 11.333333
17.413752 -3.628318 1.216393 20.666666
17.462324 -3.524193 1.218212 24.000000
3.014330 -3.462640 1.226944 4.500000
4.206180 -3.413392 1.244228 1.000000
17.545280 -3.454963 1.222851 9.000000
3.993226 -3.378150 1.250052 0.500000
17.561386 -3.372256 1.222851 25.000000
17.655512 -3.304145 1.228309 19.000000
-3.748774 -3.273447 1.235625 4.750000
3.246848 -3.196243 1.217649 32.000000
3.337074 -3.285162 1.206845 18.500000
3.449395 -3.294787 1.274865 27.600000
3.618332 -3.237358 1.205425 25.666666
3.785897 -3.202517 1.231127 18.000000
4.152460 -3.222136 1.207266 7.555555
4.261231 -3.252068 1.231244 11.000000
-3.717279 -3.165022 1.212108 15.400000
3.440241 -3.162596 1.239117 32.000000
17.724102 -3.173049 1.231311 19.666666
-4.164608 -3.010823 1.275865 64.000000
-4.058857 -3.057549 1.261648 17.500000
-3.865033 -3.076578 1.226469 25.000000
3.436837 -3.057029 1.229319 53.099998
3.622411 -3.016064 1.215315 36.666668
4.701874 -3.036068 1.285568 9.000000
17.779131 -3.067794 1.233767 29.000000
5.328979 -2.951459 1.285741 7.500000
17.861465 -2.947336 1.237952 42.500000
-4.016324 -2.847463 1.222324 40.200001
3.455300 -2.894928 1.204739 32.500000
3.617850 -2.879789 1.235894 17.333334
3.936843 -2.860379 1.208156 22.000000
5.181174 -2.858982 1.248982 7.000000
5.650815 -2.890424 1.223532 0.000000
17.956692 -2.837633 1.243182 15.500000
3.849664 -2.732641 1.261714 21.666668
18.044828 -2.706427 1.247776 10.000000
18.137341 -2.574838 1.252733 35.500000
-4.402980 -2.438606 1.249600 40.000000
-4.393720 -2.424509 1.245906 13.000000
18.213007 -2.439756 1.256600 42.000000
18.315079 -2.289631 1.262203 32.400002
-3.951907 -2.148391 1.202157 14.000000
4.722700 -2.148968 1.246712 10.214286
4.919151 -2.168632 1.234826 4.666667
-14.831038 -1.997329 1.285052 11.000000
4.273472 -2.027359 1.264124 0.500000
4.380298 -2.061198 1.201891 10.000000
4.836765 -2.062897 1.215885 14.916666
4.946896 -2.033950 1.228558 7.333333
-14.615889 -1.828279 1.264861 21.000000
-14.532801 -1.702074 1.256476 29.000000
4.262803 -1.608246 1.217649 11.000000
-4.626181 -1.211030 1.278066 10.500000
-4.759278 -1.107702 1.213181 15.571428
-15.070297 -1.072321 1.297372 49.000000
-4.942768 -1.054483 1.203562 22.772728
-5.154306 -0.941344 1.203485 16.000000
-5.030011 -0.931479 1.229158 11.000000
-4.977407 -0.941256 1.238790 17.400000
-15.096543 -0.598422 1.297372 0.000000
6.468650 -0.560241 1.251640 7.750000
-4.806205 -0.256945 1.286329 2.500000
-4.736030 -0.126498 1.266189 21.000000
-4.597325 -0.108342 1.229009 42.000000
-4.791223 -0.075273 1.280648 35.000000
-4.627343 -0.033948 1.236755 34.500000
-4.525084 0.028457 1.209386 31.500000
-4.844194 0.129387 1.295107 37.000000
-4.674850 0.155767 1.241287 34.799999
-4.624416 0.251207 1.206354 25.294117
-4.519116 0.284278 1.210161 40.750000
18.777258 2.709190 1.297352 20.000000
18.626970 2.806954 1.288165 10.333333
18.455261 2.929583 1.277840 12.000000
18.312464 3.025009 1.269244 12.000000
18.042315 3.184595 1.252870 15.000000
18.177063 3.120109 1.261193 12.500000
18.036150 3.241965 1.253143 13.000000
17.904882 3.305543 1.245092 12.500000
17.727488 3.416874 1.234586 11.333333
17.567104 3.529344 1.225307 12.500000
17.442980 3.618612 1.218212 12.500000
17.187750 3.763250 1.203203 9.000000
17.312584 3.705173 1.210707 12.500000
16.936604 4.811750 1.204021 13.000000
17.022902 4.952084 1.212345 19.000000
17.125317 5.098806 1.221896 23.000000
17.222736 5.245841 1.231175 19.500000
17.330418 5.397840 1.241272 25.000000
17.436852 5.551429 1.251369 15.500000
17.538250 5.705308 1.261193 24.000000
17.642181 5.861943 1.271291 24.000000
17.742935 6.019482 1.281251 29.000000
-17.858448 6.107364 1.290666 8.000000
17.854004 6.151112 1.291348 20.000000
-17.891699 6.213045 1.295169 2.000000
-17.630375 6.246706 1.279068 5.000000
17.883585 6.224225 1.294896 7.000000
-4.584229 6.476897 1.243742 14.000000
-4.764233 6.605743 1.276570 9.000000
-4.571874 6.612564 1.260053 26.333334
-4.482203 6.637514 1.255355 25.250000
-4.380532 6.613253 1.243329 5.333333
-17.380177 7.546299 1.295715 38.000000
-17.244961 7.811778 1.294623 42.000000
-6.737574 10.355163 1.277546 2.000000
-6.575461 10.317385 1.265202 25.200001
-6.617085 10.479540 1.281660 33.000000
-6.519014 10.592365 1.286186 19.000000
-4.881026 10.578053 1.204720 8.000000
-6.300366 10.606742 1.275763 32.333332
-6.078335 10.686769 1.271374 16.000000
-5.988770 10.684727 1.266642 28.000000
-6.304622 10.767489 1.290301 26.000000
-6.161325 10.753930 1.281660 28.000000
-6.003287 10.710867 1.269728 28.000000
-4.499133 11.197586 1.247921 0.000000
-4.797452 11.220333 1.261911 13.000000
-4.633309 11.224564 1.255739 1.000000
-4.629658 11.316399 1.264379 0.000000
1.868154 11.470896 1.201839 33.000000
2.663374 11.508846 1.221589 37.000000
1.928954 11.614120 1.217474 24.000000
2.663486 11.676201 1.238458 46.000000
1.196699 11.720240 1.218297 1.000000
2.956453 11.761442 1.254093 10.000000
2.267762 11.809400 1.243533 28.666666
2.356349 11.867813 1.251213 37.000000
2.582644 11.836677 1.252859 31.000000
-7.352755 11.947062 1.204629 12.000000
-7.229548 11.998758 1.202918 32.000000
2.461717 12.003454 1.267122 43.333332
2.610359 11.962507 1.266162 36.333332
-8.076945 12.078872 1.247749 8.000000
-7.398315 12.106124 1.218318 34.000000
-7.247063 12.113751 1.212158 18.000000
-8.030452 12.257799 1.258358 6.000000
-7.862911 12.252440 1.250145 12.000000
-7.648931 12.298048 1.243643 21.000000
-7.280202 12.256387 1.224136 7.000000
-7.199149 12.207107 1.216949 15.000000
2.067057 12.208214 1.280426 8.000000
-5.779294 12.734480 1.200865 8.000000
-7.284775 12.854982 1.268796 7.000000
-5.954371 12.904181 1.220371 16.000000
-5.697282 12.984921 1.217634 3.000000
-6.381848 13.067355 1.248776 9.000000
-5.981798 13.071401 1.234403 24.000000
-5.500339 13.091180 1.219345 5.000000
-6.284138 13.180882 1.253909 2.000000
-5.920812 13.155973 1.238852 5.000000
-5.563210 13.125207 1.224136 7.000000
2.336586 13.800077 1.201891 34.000000
2.619937 13.878902 1.212842 37.000000
1.251256 13.992467 1.206340 5.000000
2.773132 13.966955 1.222767 51.000000
2.898952 13.912889 1.220371 13.000000
1.388175 14.031610 1.210789 5.000000
3.599356 14.131141 1.252198 1.000000
2.461247 14.263945 1.242958 18.000000
2.552928 14.259967 1.243985 1.000000
2.884800 14.294140 1.252198 20.000000
2.302911 14.572847 1.266914 6.000000
-18.969875 14.651010 1.221342 0.000000
-18.518805 14.772784 1.207093 44.000000
-18.403769 14.775875 1.202615 30.000000
1.758131 14.799036 1.279747 4.250000
3.505235 14.724835 1.299767 5.000000
-18.639097 15.158384 1.224192 4.000000
-17.978275 15.241320 1.200987 22.000000
-19.394760 15.372101 1.261036 15.000000
-17.897181 15.318087 1.200376 34.000000
-18.331858 15.890753 1.236202 20.000000
-18.411285 16.061193 1.244955 5.000000
-18.423779 16.277058 1.252690 6.000000
-17.301201 16.281031 1.210554 14.000000
-18.412800 16.526615 1.260731 8.000000
-16.770166 16.595470 1.202208 20.000000
-17.039822 16.651709 1.214014 37.000000
-17.192509 16.906826 1.228670 15.000000
-17.127924 17.490467 1.247398 9.000000
-16.118172 17.750940 1.221749 30.000000
-16.073027 17.813358 1.222564 38.000000
-16.852932 18.443382 1.273046 9.000000
-16.513020 18.416986 1.260425 14.000000
-16.821764 18.525806 1.275081 4.000000
-16.646412 18.683529 1.275081 44.000000
-16.447165 18.635925 1.266532 29.000000
-16.310026 18.716343 1.265005 14.000000
11.887667 -39.673965 1.390576 2.000000
-11.737485 -39.322472 1.377825 11.000000
11.925286 -39.349480 1.380510 2.000000
-11.984326 -39.247944 1.377825 8.000000
11.994962 -39.135998 1.374335 4.000000
-11.737329 -38.875900 1.363463 19.000000
12.037366 -38.838463 1.365208 6.000000
12.087593 -38.571560 1.357154 6.000000
12.133848 -38.297112 1.348832 8.000000
16.438816 -38.097282 1.393127 9.000000
16.587141 -38.111427 1.395543 9.000000
12.179719 -38.026562 1.340645 8.000000
15.975241 -38.003597 1.384134 8.000000
16.132013 -38.041553 1.387355 8.000000
16.286039 -38.071548 1.390308 8.000000
15.373201 -37.897572 1.373127 4.000000
15.672049 -37.948032 1.378496 7.000000
15.825017 -37.979794 1.381449 8.000000
15.218278 -37.856655 1.369906 5.000000
12.221546 -37.748497 1.332188 6.000000
13.862066 -37.514271 1.342792 8.000000
14.009199 -37.549191 1.345611 7.000000
14.155271 -37.579819 1.348295 7.000000
14.291736 -37.583740 1.350040 2.000000
13.289186 -37.402969 1.332725 9.000000
13.425529 -37.413715 1.334605 8.000000
13.574322 -37.457802 1.337692 8.000000
13.718038 -37.486301 1.340242 8.000000
12.235629 -37.390762 1.320913 5.000000
12.861817 -37.311127 1.325074 8.000000
13.071869 -37.348145 1.328564 8.500000
12.439912 -37.222149 1.317692 10.000000
12.579810 -37.251057 1.320108 8.000000
12.721307 -37.283241 1.322658 8.000000
12.296550 -37.181339 1.314873 8.000000
-17.205957 -35.308727 1.318766 48.000000
-17.374836 -35.232559 1.318967 30.500000
-15.944838 -22.337345 1.398437 17.000000
-16.014935 -22.287142 1.398437 2.000000
11.997240 -16.177872 1.377311 7.000000
2.522171 -16.051256 1.395248 30.000000
2.675958 -16.042496 1.396617 10.000000
2.828422 -16.024412 1.397301 35.000000
2.383682 -15.987773 1.388061 5.500000
2.582771 -15.946727 1.387206 32.000000
11.939392 -15.942305 1.362029 1.000000
12.342180 -15.951644 1.379221 1.000000
2.718764 -15.888394 1.384183 29.666666
3.419451 -15.855778 1.392852 33.000000
11.999939 -15.866740 1.360391 61.500000
12.101222 -15.844931 1.363393 8.000000
3.337332 -15.714405 1.379506 15.000000
3.452199 -15.767095 1.386008 21.000000
3.942002 -15.740149 1.393366 32.000000
3.573972 -15.617312 1.375741 32.000000
3.784414 -15.631140 1.381046 16.000000
3.762435 -15.540181 1.373003 49.000000
4.255734 -15.592536 1.387924 23.799999
4.485253 -15.509036 1.386350 36.000000
4.518851 -15.564230 1.391712 27.000000
3.071062 -15.411155 1.349390 37.000000
3.133703 -15.471740 1.355550 14.000000
3.478418 -15.422417 1.357603 1.000000
3.603959 -15.414009 1.359314 30.500000
2.984082 -15.309130 1.339351 27.333334
2.836300 -15.229124 1.330225 9.000000
3.067924 -8.057400 1.351362 9.750000
3.153907 -8.053848 1.355697 5.500000
2.879359 -4.616871 1.350898 12.000000
2.922098 -4.541107 1.340682 16.000000
3.859277 -4.419300 1.347652 0.000000
2.968193 -4.338173 1.305020 21.500000
3.812366 -4.352082 1.347032 7.333333
3.708162 -4.122674 1.376665 9.000000
3.661425 -3.917535 1.331285 9.000000
3.638307 -3.825970 1.310803 6.500000
4.017315 -3.893049 1.388873 2.000000
3.965475 -3.775110 1.359316 3.666667
4.630405 -3.697728 1.361084 1.000000
3.467194 -3.600485 1.335902 7.333333
4.652355 -3.679497 1.362427 2.000000
3.460676 -3.477106 1.311115 11.750000
4.077568 -3.482651 1.382375 6.500000
-3.774676 -3.338376 1.346746 8.000000
-4.234799 -3.107356 1.304057 4.000000
4.618519 -3.160009 1.389355 9.000000
4.702786 -3.026011 1.388391 4.500000
-4.482314 -2.954314 1.383511 2.000000
5.278756 -2.826919 1.375411 11.000000
5.611286 -2.892481 1.332413 0.000000
-4.174287 -2.736326 1.333940 31.000000
5.780641 -2.753510 1.351412 1.000000
5.851377 -2.697522 1.359948 3.333333
5.846930 -2.628941 1.353064 0.000000
-4.192587 -2.506230 1.305435 7.000000
-4.638694 -2.336064 1.388057 11.000000
-4.531933 -2.264480 1.353976 0.000000
4.973218 -2.096658 1.339959 17.000000
4.841640 -2.086141 1.308876 10.000000
-4.856764 -1.206427 1.337451 1.000000
-4.732817 -1.223209 1.306468 9.500000
-15.122496 -1.123793 1.302163 1.000000
-15.347945 -1.043630 1.320985 17.000000
-15.275115 -0.966385 1.314312 10.000000
-15.697712 -0.857037 1.349989 6.500000
-15.488287 -0.760212 1.331594 10.000000
6.474494 -0.560727 1.371650 6.625000
-15.215172 -0.292156 1.306783 4.500000
-4.944561 0.101043 1.321753 31.400000
-4.880405 0.053664 1.304402 9.000000
19.981365 1.895810 1.372535 12.500000
19.823318 1.975137 1.362302 14.000000
19.809076 2.036586 1.361756 15.000000
19.646479 2.113448 1.351249 13.500000
19.378359 2.300439 1.334466 17.000000
19.492056 2.220789 1.341562 19.500000
19.264309 2.378968 1.327371 13.500000
19.114429 2.482486 1.318092 13.000000
18.979931 2.556069 1.309633 7.000000
18.837048 2.657432 1.300900 8.000000
18.928322 2.609688 1.306631 16.000000
17.943005 6.308171 1.300627 61.000000
-18.110392 6.480889 1.315363 15.000000
-4.591540 6.475210 1.386828 11.777778
18.035198 6.436267 1.309496 27.000000
-4.549373 6.535950 1.391265 5.000000
18.148155 6.605412 1.320685 29.000000
-18.739225 6.772411 1.362575 26.000000
18.242266 6.737162 1.329827 46.000000
-18.710361 6.828509 1.362029 4.000000
-18.465118 6.870785 1.347292 60.000000
-18.185677 6.831920 1.328462 8.000000
18.311165 6.860919 1.337195 12.000000
-17.756350 6.926482 1.303356 17.000000
-17.675390 7.023176 1.300627 26.000000
18.442936 7.042693 1.350021 19.500000
-18.079834 7.118187 1.328735 29.000000
-17.809906 7.163249 1.312725 44.666668
18.558430 7.187162 1.360937 28.000000
-17.671223 7.215091 1.305266 34.000000
-17.562895 7.299943 1.300627 15.000000
18.619022 7.311791 1.367896 25.000000
-17.971823 7.469975 1.330919 46.500000
18.754293 7.501206 1.381268 17.500000
-17.931995 7.585843 1.331464 36.000000
-17.853020 7.618641 1.327371 51.000000
-17.748358 7.639974 1.321367 39.000000
-17.420031 7.694051 1.302264 33.000000
18.857452 7.645718 1.391502 17.000000
-17.725592 7.762547 1.323277 43.000000
-17.516069 7.802320 1.311270 35.000000
-17.343052 7.856138 1.301991 37.500000
-17.478262 8.050197 1.315909 34.000000
-17.376879 8.069765 1.310178 36.000000
-17.452639 8.171696 1.317819 26.000000
-17.369135 8.199232 1.313453 16.000000
-4.509011 10.232905 1.354197 8.500000
-4.799507 10.330202 1.379444 23.666666
-4.438070 10.335156 1.362132 10.500000
-4.368434 10.397170 1.365739 6.000000
-4.248287 10.430685 1.363935 2.500000
-4.773853 10.519023 1.398920 15.000000
-6.521566 10.823732 1.306759 52.000000
-6.683509 11.014086 1.332268 29.000000
-6.430734 11.062426 1.323216 37.000000
-6.994530 11.285413 1.373002 28.000000
-6.877838 11.254448 1.363950 4.000000
-6.485446 11.237646 1.341732 49.000000
-6.233060 11.314489 1.335834 23.000000
1.182815 11.407037 1.388822 1.000000
-5.417507 11.596708 1.323628 5.000000
-5.031336 11.565764 1.304290 18.000000
-4.990251 11.570552 1.303056 15.000000
-6.341367 11.787061 1.384111 18.000000
-5.847437 11.784822 1.360453 50.500000
-5.362427 11.915249 1.351195 1.000000
-6.134913 12.029966 1.396454 5.500000
-5.878971 12.037673 1.385345 73.000000
-5.828187 12.126308 1.391311 15.000000
-4.915967 12.235015 1.363538 0.000000
0.927098 12.594581 1.305936 0.000000
2.382664 12.843198 1.350783 41.000000
1.332495 13.050196 1.356544 5.000000
-7.821587 13.167821 1.315168 4.000000
1.406311 13.158478 1.368476 28.000000
1.508729 13.212787 1.375224 17.600000
1.073738 13.433293 1.393574 0.000000
1.286124 13.430613 1.395220 10.000000
-7.536868 13.956606 1.362052 16.000000
-7.635909 14.034381 1.371977 17.000000
-6.570525 14.357885 1.355892 0.000000
-6.795250 14.486552 1.374030 3.000000
1.255551 15.707910 1.353154 3.000000
1.360729 15.775152 1.359657 2.000000
1.416315 15.838282 1.365474 3.000000
-18.749580 17.755411 1.315793 4.000000
-18.510660 17.975697 1.314775 4.000000
-14.478813 22.168179 1.349176 4.500000
-13.937557 22.244154 1.337573 10.000000
-14.350192 22.507954 1.360168 1.000000
-13.977888 22.783186 1.362000 3.500000
-13.687635 22.870363 1.358133 5.000000
-13.965639 23.169386 1.378488 1.000000
-14.241509 23.460056 1.398437 11.000000
-18.272385 36.520947 1.371114 17.000000
-18.003696 36.556137 1.368161 4.000000
-18.221560 36.707077 1.375946 11.000000
-17.938766 37.609390 1.399033 6.000000
-12.982217 -39.813255 1.406012 39.000000
-13.525253 -39.775661 1.410576 4.000000
-13.342844 -39.647453 1.404536 30.000000
-13.194221 -39.617111 1.401986 16.000000
-13.079703 -39.688740 1.403059 30.000000
19.873224 -38.802280 1.463729 5.000000
19.702320 -38.768295 1.460105 5.000000
19.179647 -38.637150 1.448293 9.000000
19.343868 -38.662510 1.451515 8.000000
19.512035 -38.694355 1.455005 9.000000
18.514181 -38.504013 1.434468 8.000000
18.682137 -38.542789 1.438092 8.000000
18.843489 -38.566521 1.441180 8.000000
19.006948 -38.593208 1.444401 9.000000
18.024788 -38.408985 1.424536 8.000000
18.186401 -38.438896 1.427757 8.000000
18.348377 -38.468170 1.430978 9.000000
17.538851 -38.308174 1.414603 8.000000
17.701006 -38.343624 1.417958 8.000000
17.863554 -38.378433 1.421314 8.000000
16.767853 -38.198235 1.400643 5.000000
16.915285 -38.207508 1.402925 5.000000
17.072723 -38.238140 1.406012 5.000000
17.225588 -38.257225 1.408697 9.000000
17.380402 -38.279366 1.411516 8.000000
-3.509209 -28.998545 1.488409 9.000000
-3.422296 -29.045134 1.490241 11.000000
-2.777466 -29.057690 1.487391 10.000000
-1.951134 -29.068794 1.484542 10.000000
-1.766267 -29.044594 1.482710 7.000000
-1.675011 -29.049999 1.482710 2.000000
-4.063483 -28.986591 1.491463 4.000000
-3.269023 -28.916012 1.482811 5.500000
-2.948233 -28.924414 1.481488 1.000000
-2.488405 -28.907454 1.478435 4.000000
-3.585031 -28.864481 1.482099 20.000000
-3.016958 -28.704443 1.470700 8.000000
-3.103681 -28.663052 1.469071 6.000000
-2.814170 -28.496229 1.459097 10.000000
-2.362922 -28.497107 1.457061 11.000000
-2.277829 -28.560139 1.459911 9.000000
-2.175889 -28.407829 1.451769 10.000000
-3.784334 -28.286957 1.454212 4.000000
-4.303535 -28.123726 1.449733 6.000000
-4.159434 -28.066616 1.445764 9.500000
-14.403782 -25.191187 1.478639 15.000000
-15.022177 -24.981339 1.485356 1.000000
-14.329332 -24.879259 1.462965 12.000000
-15.272654 -24.603550 1.475585 9.000000
-15.388468 -24.531322 1.475585 10.000000
-14.642159 -24.006550 1.432838 35.000000
-14.570807 -24.059267 1.433245 18.000000
-16.310278 -23.155594 1.443220 35.000000
-16.445908 -22.660801 1.426731 6.000000
-16.017853 -22.589363 1.411058 14.000000
-16.632715 -22.322605 1.418487 8.000000
-16.645260 -22.121119 1.410650 16.000000
-16.733969 -22.094191 1.412279 6.000000
-16.806795 -21.903046 1.406783 15.000000
11.046021 -17.948030 1.441169 1.000000
11.567934 -17.963631 1.461090 36.500000
11.125214 -17.887272 1.440487 41.000000
11.246537 -17.893812 1.445262 0.000000
12.122574 -17.409660 1.450720 49.000000
11.978081 -17.376228 1.443216 42.000000
4.320413 -16.912647 1.498942 3.000000
3.089740 -16.884459 1.473960 13.000000
3.573289 -16.825445 1.477040 10.000000
4.756295 -16.641966 1.486280 8.000000
3.360760 -16.592768 1.453768 7.000000
3.409659 -16.566513 1.452399 32.000000
3.735332 -16.561506 1.457875 46.000000
3.659078 -16.464226 1.448293 41.000000
4.319463 -16.476532 1.462666 1.000000
2.312605 -16.392754 1.421599 1.000000
2.930216 -16.301788 1.422284 2.000000
4.221745 -16.312540 1.446924 27.000000
2.499620 -16.240292 1.410990 14.000000
3.036239 -16.022848 1.400381 29.000000
3.345863 -16.001781 1.403804 53.000000
4.925561 -16.080658 1.444186 43.000000
5.259987 -16.083450 1.453084 10.000000
4.041263 -15.819889 1.402092 19.000000
4.471117 -15.832231 1.412701 62.000000
4.746686 -15.851676 1.420915 44.000000
4.974518 -15.883254 1.429242 17.000000
5.114534 -15.891798 1.433577 16.000000
4.388154 -15.727200 1.402092 7.000000
4.768737 -15.745144 1.412701 24.000000
4.645956 -15.694546 1.405515 25.000000
13.182051 -9.729303 1.406884 72.000000
13.255535 -9.623687 1.406627 69.500000
13.376251 -9.456908 1.406713 90.750000
13.472341 -9.304405 1.405971 89.666664
13.567135 -9.182229 1.406770 65.333336
13.642303 -9.108608 1.408595 50.000000
13.675901 -9.007365 1.406199 104.333336
13.778460 -8.877578 1.407500 114.400002
13.879959 -8.710291 1.407140 74.250000
14.407971 -7.943722 1.412815 54.333332
14.479855 -7.825980 1.413386 104.333336
14.537128 -7.778416 1.415781 45.000000
14.585651 -7.686926 1.415781 102.666664
14.669100 -7.613484 1.419204 100.000000
14.705955 -7.515695 1.418177 14.000000
14.888639 -7.229542 1.421257 16.000000
14.965683 -7.179989 1.425364 20.000000
15.017933 -7.060449 1.425022 43.000000
15.087476 -6.949035 1.426390 24.000000
15.143632 -6.888542 1.428615 19.500000
15.206606 -6.802244 1.430497 12.500000
15.278235 -6.719388 1.433235 20.000000
15.309175 -6.618522 1.432208 19.000000
15.478487 -6.433484 1.439395 0.666667
15.514937 -6.334688 1.439053 1.000000
15.594507 -6.281585 1.443673 1.000000
15.615135 -6.176155 1.441962 10.000000
15.716484 -6.130762 1.448635 15.000000
15.694777 -6.065553 1.444870 10.000000
15.728641 -6.021917 1.446239 17.000000
15.795925 -5.990847 1.450688 14.000000
15.814667 -5.941192 1.450688 6.000000
15.818313 -5.885921 1.449319 27.000000
15.911334 -5.835317 1.455308 10.000000
15.942062 -5.733196 1.454795 14.500000
16.002726 -5.670006 1.457875 33.000000
16.056828 -5.575806 1.459586 8.333333
16.130333 -5.459824 1.462324 1.000000
16.224190 -5.335822 1.466602 7.750000
16.314661 -5.238062 1.471393 14.000000
16.367329 -5.113462 1.472477 35.666668
16.411875 -5.014482 1.473617 31.000000
16.490660 -4.953661 1.478580 19.500000
16.534828 -4.853924 1.479777 3.000000
16.681767 -4.670107 1.487563 8.500000
3.083365 -4.506471 1.459319 1.000000
3.888164 -4.566961 1.489111 5.000000
16.738205 -4.544533 1.489360 46.000000
3.827996 -4.439548 1.455377 2.000000
16.830112 -4.437278 1.494607 55.333336
3.166246 -4.382056 1.444860 9.666667
3.199868 -4.275796 1.427303 1.000000
3.795666 -4.200759 1.405644 7.600000
3.394333 -4.012387 1.404582 1.000000
4.557149 -3.782146 1.470316 2.500000
4.169422 -3.549712 1.463451 31.000000
-4.468319 -3.225010 1.472746 17.500000
4.533014 -3.146998 1.474811 6.666667
4.628172 -3.170106 1.499254 15.666667
5.453890 -3.122209 1.443466 5.000000
5.507734 -3.130100 1.455106 2.000000
4.409013 -3.088371 1.438664 3.000000
-4.442752 -2.829256 1.407680 0.000000
5.247794 -2.831555 1.480437 1.000000
5.429536 -2.842113 1.407648 0.000000
5.719297 -2.857661 1.468538 3.000000
-4.837220 -2.084236 1.407680 9.000000
5.129390 -2.040163 1.475327 5.500000
-5.422818 -1.752569 1.414896 4.000000
6.468614 -0.560210 1.491372 6.500000
16.843208 3.993980 1.486451 11.000000
16.976719 3.913101 1.496033 11.000000
16.728729 4.078009 1.478580 11.000000
16.540836 4.197738 1.465404 32.500000
16.626194 4.136131 1.471222 32.000000
16.555611 4.284654 1.468484 22.000000
16.623022 4.357868 1.475671 27.000000
16.700443 4.462463 1.484397 12.500000
16.738873 4.557264 1.489702 10.000000
18.952217 7.788356 1.401190 15.000000
19.060854 7.938171 1.411969 38.000000
19.124121 8.035114 1.418518 7.000000
19.164921 8.123186 1.423431 14.000000
19.256725 8.233560 1.432163 43.000000
19.349499 8.381344 1.441988 8.500000
19.463314 8.539747 1.453449 21.000000
19.572330 8.697850 1.464638 10.000000
19.669456 8.852186 1.475008 25.000000
19.765106 8.970010 1.484287 17.000000
19.853107 9.123076 1.494111 7.500000
-6.672177 10.396970 1.496061 19.000000
-6.557819 10.506943 1.499908 16.000000
-6.406729 10.557967 1.495580 33.000000
-6.252314 10.627090 1.493176 21.333334
-5.349480 10.613144 1.439315 9.000000
-5.279176 10.639489 1.438354 19.000000
-4.781527 10.624497 1.410943 18.000000
-5.227249 10.746010 1.447170 21.000000
-5.131915 10.764112 1.444124 25.000000
-5.147301 10.884286 1.458070 19.000000
-4.845222 10.857043 1.439796 13.000000
1.654249 11.785518 1.441239 8.000000
1.708760 11.902114 1.456147 10.000000
2.931931 11.820840 1.474902 22.000000
3.019718 11.810950 1.476344 30.000000
-6.499536 11.945788 1.406329 41.000000
2.922153 11.941852 1.488847 21.000000
-17.644455 12.063313 1.461636 3.500000
-6.097821 12.097861 1.400980 11.000000
1.767480 12.042055 1.473940 31.000000
1.853209 12.097399 1.482115 32.000000
1.961516 12.044162 1.477787 37.000000
2.107906 12.035499 1.479711 35.000000
2.313958 12.050191 1.485962 38.000000
2.426328 12.061237 1.489906 27.799999
2.511049 12.051233 1.490771 26.000000
-17.565027 12.171666 1.461363 6.500000
-7.497075 12.181559 1.479155 6.000000
-7.358465 12.126380 1.466812 5.000000
1.202559 12.155416 1.479230 0.000000
2.001645 12.130040 1.488847 30.666666
-17.474800 12.231441 1.458634 9.000000
-6.092432 12.278500 1.417438 27.000000
-5.904909 12.285954 1.409621 94.000000
1.392393 12.298862 1.498946 4.500000
1.498001 12.253233 1.494939 7.666667
-6.772277 12.354452 1.456937 23.000000
-17.697258 12.470175 1.480466 19.000000
-17.674271 12.537251 1.481831 0.000000
-17.503685 12.526760 1.471915 9.333333
-6.674418 12.547474 1.469692 37.000000
-17.211267 12.619824 1.459453 8.000000
-5.801433 12.677267 1.441713 11.000000
-17.154057 12.744376 1.461363 5.000000
-5.575127 12.761023 1.440068 4.000000
-5.694801 12.869238 1.455291 8.000000
-17.162212 13.045680 1.474190 5.000000
-5.616175 13.250165 1.488207 10.000000
-5.532159 13.225084 1.482447 12.500000
-17.302385 13.367978 1.495203 13.000000
1.213761 13.573170 1.409209 10.000000
1.640942 13.540196 1.410443 48.000000
1.353381 13.679911 1.421553 1.000000
-16.914459 13.849258 1.494930 0.000000
3.664121 13.838799 1.480390 4.000000
3.718914 13.869492 1.484915 0.000000
-16.786114 13.921228 1.491291 8.333333
-16.539410 13.981838 1.481012 6.000000
2.534940 13.907478 1.461874 8.000000
3.588562 13.942371 1.488783 27.200001
-15.299278 14.266802 1.430526 49.000000
-15.533445 14.348914 1.446081 42.000000
1.697247 14.382974 1.497670 6.000000
1.802193 14.366176 1.497259 28.000000
-15.374277 14.472788 1.443898 41.000000
-15.331628 14.523767 1.444171 36.000000
-15.969450 14.658964 1.482376 33.000000
-15.638324 14.907791 1.477464 40.000000
-15.672045 15.034206 1.485105 24.000000
-15.569504 15.077299 1.482103 27.500000
-15.441193 15.094761 1.476646 28.000000
-14.926858 15.057693 1.449902 26.000000
-14.834726 15.106514 1.447855 6.000000
-14.558563 15.155037 1.437075 18.000000
-14.800981 15.214867 1.451539 14.000000
-14.708734 15.215382 1.447173 24.000000
-14.535684 15.226674 1.439532 42.000000
-14.388579 15.263450 1.434438 6.000000
-15.467704 15.440771 1.494566 25.333334
-14.146205 15.486642 1.434347 23.000000
-14.643025 23.616770 1.415943 13.000000
-14.575035 23.672867 1.416554 2.000000
-13.814083 23.926683 1.407801 0.000000
1.740700 -31.330971 1.598941 5.000000
-2.480141 -31.096783 1.589577 16.000000
1.829522 -31.161842 1.590595 11.000000
1.924699 -31.112082 1.588356 2.000000
2.111451 -30.971836 1.581842 7.000000
-4.419892 -30.824329 1.586727 29.000000
-2.260127 -30.777086 1.572478 7.000000
2.677849 -30.731529 1.571868 10.000000
2.875351 -30.761826 1.574310 8.000000
3.065801 -30.715328 1.572885 42.000000
3.555684 -30.730844 1.576346 14.000000
3.851605 -30.747498 1.578992 12.000000
3.157773 -30.661835 1.570646 20.000000
2.950844 -30.533947 1.563115 34.000000
3.239325 -30.512724 1.563522 19.000000
2.553550 -30.409384 1.554972 4.000000
3.312590 -30.295897 1.552937 11.000000
-3.376478 -30.292862 1.553140 39.000000
-2.506189 -30.224928 1.545405 4.000000
5.144151 -30.221548 1.562097 2.000000
5.241802 -30.220982 1.562911 1.000000
4.651782 -30.188070 1.556397 6.000000
4.720526 -30.007565 1.547848 4.000000
-3.437961 -29.988413 1.538077 7.000000
2.322227 -29.907061 1.528510 18.000000
2.419712 -29.943417 1.530749 13.000000
2.692826 -29.819815 1.525660 5.000000
-2.177621 -29.653574 1.515075 8.000000
2.208376 -29.647295 1.514872 1.000000
-2.076328 -29.544704 1.509172 7.000000
-2.627151 -29.436657 1.505915 8.000000
-15.453849 -26.637850 1.569221 38.000000
-15.501176 -26.527086 1.565557 46.000000
-16.837311 -26.470047 1.598534 9.000000
-15.803743 -26.468992 1.570850 41.000000
-15.679768 -26.449783 1.566779 50.000000
-15.537832 -26.399073 1.560876 49.000000
-16.885914 -26.363195 1.595277 11.000000
-17.498318 -25.864353 1.591205 4.000000
-17.224579 -25.807653 1.581028 6.000000
-17.622080 -25.697887 1.587745 2.000000
-17.518768 -25.720106 1.585709 4.000000
-17.819670 -25.639147 1.591002 4.000000
-16.668293 -25.666924 1.559451 8.000000
-17.881809 -25.556852 1.589373 8.000000
-17.136236 -25.501415 1.565557 7.000000
-16.067595 -25.259968 1.525457 3.000000
-16.370625 -25.036007 1.524235 5.000000
-16.396477 -24.904375 1.519350 5.000000
-17.837885 -24.824047 1.557619 2.000000
-18.033268 -24.603275 1.554362 5.000000
-17.998999 -24.395418 1.544795 6.000000
-18.377796 -23.950413 1.538281 3.000000
-18.383947 -23.726189 1.529426 42.500000
-18.761189 -23.518570 1.532988 40.000000
-18.509243 -23.504169 1.524439 53.000000
-18.437777 -23.565344 1.524642 47.000000
-18.615250 -23.486603 1.527085 41.000000
3.711740 -18.034235 1.581076 0.000000
4.212509 -17.641279 1.557462 5.000000
4.329916 -17.641556 1.559858 1.000000
3.027091 -17.470438 1.522555 5.000000
4.797301 -17.193588 1.532822 21.000000
2.910546 -15.100047 1.590246 34.000000
3.064748 -8.068099 1.507835 10.000000
3.129732 -8.048065 1.508638 9.500000
3.892515 -4.720319 1.518990 2.000000
3.520336 -4.394135 1.504762 0.000000
16.924294 -4.339117 1.500311 15.000000
17.002954 -4.217199 1.504303 12.000000
4.351414 -3.997127 1.579122 3.000000
17.106564 -4.072138 1.510007 13.666667
17.146090 -3.967945 1.511262 36.000000
17.224922 -3.891283 1.516395 42.666668
5.143147 -3.699811 1.572964 2.000000
17.287958 -3.786680 1.519732 34.000000
4.438848 -3.637038 1.533680 4.000000
5.236928 -3.668299 1.587421 0.000000
17.346500 -3.671293 1.522555 30.000000
17.431885 -3.603628 1.528544 40.500000
17.450647 -3.521837 1.528715 52.000000
17.531548 -3.452268 1.534362 44.000000
17.608353 -3.323890 1.538754 52.000000
17.716049 -3.171599 1.545484 51.000000
17.763166 -3.065039 1.547880 48.000000
17.838310 -2.991520 1.553185 59.500000
17.934048 -2.862901 1.559516 48.750000
18.025526 -2.715124 1.565333 40.000000
18.142632 -2.575605 1.573547 16.000000
18.211578 -2.425024 1.577653 40.500000
18.309521 -2.288954 1.584498 30.400000
-5.549618 -1.650162 1.547364 15.000000
-15.057626 -0.549509 1.558153 0.000000
18.325403 2.997501 1.594537 11.000000
18.041691 3.184484 1.573205 15.000000
18.160570 3.117259 1.582273 12.000000
17.884813 3.301838 1.561740 13.500000
18.015909 3.238327 1.571836 12.000000
17.752151 3.392820 1.551987 12.500000
17.626482 3.454983 1.542404 10.000000
17.553339 3.526568 1.537442 12.000000
17.297186 3.701877 1.518962 13.500000
17.425468 3.614963 1.528202 11.500000
17.180296 3.761618 1.510235 10.000000
17.105980 3.829842 1.505273 11.500000
16.836241 4.669115 1.500311 21.500000
16.933083 4.810743 1.511604 13.000000
17.023058 4.952122 1.522384 14.500000
17.123384 5.098215 1.534191 17.000000
17.228256 5.247519 1.546511 15.000000
17.328127 5.397124 1.558489 18.500000
17.430584 5.549422 1.570809 13.500000
17.535599 5.704443 1.583471 19.000000
17.639343 5.861004 1.596133 20.500000
-4.606860 6.477282 1.532227 13.142858
-4.556276 6.519165 1.533200 11.000000
19.965530 9.288877 1.505846 23.000000
-4.731259 10.090983 1.547499 25.000000
-4.637344 10.054511 1.537413 25.333334
-4.541291 10.095402 1.537046 23.000000
-4.875719 10.203771 1.570237 21.000000
-4.615537 10.174897 1.551350 19.000000
-4.463330 10.148736 1.539430 14.833333
-4.835742 10.230095 1.571154 24.000000
-5.077465 10.318731 1.596827 9.666667
-6.675759 10.474810 1.504236 28.000000
-6.741432 10.676101 1.529082 34.666668
-6.541012 10.609610 1.509406 21.750000
-6.439083 10.763249 1.518903 39.500000
-6.276441 10.797005 1.512411 34.000000
-6.497247 10.860405 1.532609 27.000000
-6.119397 10.891273 1.512892 19.000000
-6.284868 10.953511 1.529339 42.000000
-19.924339 11.231290 1.564064 4.000000
