# This PCD file was generated using the MATLAB® pcwrite function
# from Computer Vision Toolbox®.
# .PCD v.7 - Point Cloud Data file format
VERSION .7
FIELDS x y z intensity
SIZE 4 4 4 4
TYPE F F F F
COUNT 1 1 1 1
WIDTH 1251
HEIGHT 1
VIEWPOINT 0 0 0 1 0 0 0
POINTS 1251
DATA ascii
-2.751065 1.374630 0.592837 9.000000
4.877515 1.319708 0.522539 120.000000
-3.310907 1.413588 0.564267 15.000000
-2.641948 1.453510 0.526826 27.857143
-2.136895 1.491824 0.598608 3.000000
5.272761 1.450287 0.597615 44.666668
5.433393 1.451773 0.581582 51.000000
-2.666085 1.535548 0.593090 42.166668
-2.524332 1.563439 0.572395 1.000000
4.860680 1.548368 0.527552 38.883331
5.087129 1.699168 0.554632 57.000000
-16.811373 1.713567 0.567371 0.000000
4.532317 1.739033 0.587893 25.000000
4.806194 1.742427 0.508692 17.222221
-7.639226 1.831219 0.537198 11.500000
-1.421788 1.827005 0.574762 9.000000
5.383354 1.816930 0.587548 17.000000
-7.362134 1.974055 0.521233 9.000000
-3.430882 1.992034 0.550857 16.333334
4.072161 2.004635 0.549662 19.000000
4.402380 1.920508 0.595774 39.000000
4.478837 1.915011 0.589897 31.666666
4.987107 1.967312 0.585834 8.000000
5.150449 1.948214 0.569444 17.750000
-11.037491 2.081566 0.572335 13.000000
-7.690989 2.010520 0.543611 2.000000
4.363895 2.107550 0.586883 34.400002
4.474907 2.099057 0.554935 18.500000
5.118711 2.019411 0.569032 4.000000
5.841058 2.064022 0.531987 8.000000
6.576784 2.082489 0.592390 5.000000
-3.216124 2.125213 0.535271 25.312500
-3.105399 2.203335 0.528742 33.066666
-2.175877 2.114470 0.530071 3.000000
5.148608 2.201303 0.579044 18.666666
6.500485 2.114679 0.587000 3.500000
-17.303255 2.259582 0.585894 10.000000
-2.974378 2.251485 0.584707 3.600000
-2.860384 2.274985 0.572850 17.714285
-2.229798 2.263075 0.587144 71.555557
4.442955 2.274574 0.516161 29.750000
4.526542 2.272550 0.523773 14.000000
4.798507 2.287574 0.518362 27.000000
4.947139 2.226412 0.561009 9.500000
-11.037714 2.370312 0.575252 15.000000
-2.875611 2.380069 0.585094 23.000000
-2.524775 2.381282 0.543982 27.000000
-1.507759 2.351088 0.533368 25.600000
4.832372 2.355402 0.532107 23.000000
5.706181 2.376422 0.530790 2.000000
6.575802 2.311836 0.598550 24.000000
-2.715416 2.488181 0.577275 25.333334
-2.522094 2.434886 0.580765 51.500000
-2.311325 2.437333 0.526484 56.000000
-1.600977 2.417926 0.559019 26.666666
4.219688 2.494349 0.506904 7.333333
5.441956 2.475082 0.513393 38.933334
-11.033859 2.587968 0.577491 24.000000
-3.784765 2.578884 0.554631 10.333333
-2.694227 2.521242 0.512349 21.666666
-1.673011 2.554682 0.533513 6.000000
-1.520592 2.517837 0.596556 20.545454
4.060534 2.605815 0.584286 1.000000
-11.017900 2.620773 0.577084 17.000000
-2.494986 2.664535 0.506848 7.666667
-2.452230 2.636943 0.570947 46.700001
-1.403453 2.681156 0.583373 4.500000
4.807048 2.694281 0.569855 3.000000
5.519709 2.674277 0.526683 25.000000
-3.364264 2.752380 0.526399 11.625000
-2.739261 2.738069 0.520562 48.750000
-1.495520 2.725873 0.501438 9.250000
-1.413092 2.769774 0.599399 2.666667
4.864298 2.786937 0.579730 3.000000
4.926753 2.781750 0.585079 1.000000
-2.717395 2.819707 0.518444 15.636364
-2.359292 2.845091 0.546560 26.642857
-2.127266 2.902617 0.596528 27.250000
-1.386934 2.898598 0.561394 1.500000
-2.643790 2.932062 0.571731 20.444445
-2.342770 2.983134 0.504316 10.333333
-2.073812 2.947568 0.577931 22.700001
4.123971 2.957101 0.507055 50.000000
-2.535106 3.014028 0.511831 6.500000
-2.100153 3.092662 0.585946 19.666666
4.183493 3.041748 0.534882 42.500000
3.977279 3.168159 0.525830 4.000000
4.220387 3.109230 0.542083 8.500000
-2.258272 3.255385 0.550124 3.000000
3.623951 3.268751 0.591019 0.000000
-2.320964 3.408193 0.572542 25.500000
3.905449 3.391367 0.534882 2.000000
10.905414 3.379961 0.581766 15.000000
10.932767 3.313307 0.582105 14.666667
-3.106510 3.444080 0.561684 8.000000
-2.113139 3.463284 0.563327 21.666666
-2.830058 3.599981 0.594930 4.500000
-2.459990 3.580649 0.526098 30.000000
-2.223941 3.550441 0.544209 19.000000
10.790536 3.606195 0.579731 0.500000
11.081989 3.511158 0.592351 3.000000
3.628115 3.619260 0.529945 14.000000
4.398413 3.652929 0.591251 0.000000
5.222935 3.685740 0.548928 0.000000
-2.913839 3.790536 0.578996 6.000000
3.568095 3.729656 0.533765 23.285715
5.338040 3.792145 0.562274 9.000000
-3.260810 3.888707 0.524802 17.500000
-1.838014 3.839641 0.515518 9.500000
2.609292 3.890405 0.567295 4.000000
3.576099 3.871455 0.545014 27.000000
-3.367730 3.978125 0.538997 0.000000
3.482953 3.978602 0.546814 16.500000
3.580720 3.994368 0.554735 20.000000
-3.276484 4.086801 0.541671 7.500000
3.514469 4.014536 0.551752 1.000000
4.689235 4.033379 0.531132 11.500000
4.871616 4.046000 0.543794 15.666667
5.340509 4.052397 0.575678 21.833332
3.457155 4.142050 0.557923 24.000000
4.166383 4.208773 0.508545 15.000000
4.564242 4.129879 0.528565 23.500000
4.712693 4.157847 0.539688 10.500000
4.937643 4.153465 0.554061 4.000000
5.118467 4.156744 0.566210 19.500000
5.286431 4.157172 0.577503 10.750000
5.377563 4.147226 0.583150 18.000000
2.619268 4.274578 0.518424 11.600000
5.217500 4.278083 0.579386 1.000000
4.907531 4.370914 0.564328 8.000000
4.235861 4.633956 0.539117 21.666666
4.333474 4.681344 0.547787 3.333333
4.845829 4.625924 0.575279 25.000000
4.941296 4.687476 0.584861 7.000000
5.143528 4.698333 0.598208 4.000000
4.269042 4.709749 0.545848 20.000000
4.875130 4.808545 0.588010 18.600000
-3.286753 4.832692 0.501872 11.500000
4.263277 4.848369 0.568593 12.450000
4.860244 4.878941 0.591363 0.000000
5.018086 4.820584 0.597523 30.000000
3.983673 5.122797 0.557255 6.666667
-15.499605 5.488698 0.552070 1.000000
-15.403236 5.509089 0.549251 45.000000
-15.266886 5.568695 0.545627 43.000000
-15.201646 5.653441 0.544553 42.000000
-15.174813 5.725019 0.544553 42.000000
-15.173988 5.833890 0.545828 48.500000
-15.204088 5.927826 0.547909 39.000000
-15.270953 6.009228 0.550996 29.000000
-15.442182 6.605891 0.563926 40.666668
-15.499457 6.611079 0.565761 27.000000
-15.431941 6.697195 0.564821 16.000000
-15.587054 7.057487 0.574485 13.000000
-15.582991 7.114719 0.575156 37.000000
-4.023454 10.432453 0.569756 2.750000
-10.018519 11.867955 0.521466 0.500000
-9.900967 11.841429 0.518245 1.000000
-10.464998 12.162397 0.538714 0.500000
-10.133265 12.393699 0.537506 7.000000
6.770876 16.394857 0.595559 44.666668
6.504264 16.453018 0.594015 154.500000
6.644013 16.427952 0.594977 51.000000
-18.844675 29.971228 0.574702 2.000000
-19.290527 30.048069 0.579636 1.000000
-19.020048 30.040279 0.577169 3.000000
-18.809738 30.125265 0.576520 7.000000
-19.266977 30.219820 0.581779 6.000000
-18.562536 30.362623 0.577688 22.000000
-18.771057 30.488071 0.581194 21.000000
-18.079416 30.425014 0.574507 42.000000
-17.959362 30.440323 0.573728 10.000000
-18.965807 30.588701 0.584246 13.000000
-18.335121 30.635744 0.579571 25.000000
-18.666290 30.749002 0.583921 29.000000
-18.555149 30.783512 0.583467 23.000000
-17.997049 30.724363 0.578013 14.000000
-17.627134 30.753820 0.575416 4.000000
-18.235752 30.908794 0.582558 8.000000
-17.833656 30.888786 0.578987 5.000000
-6.376120 31.451981 0.520945 1.000000
-6.563702 31.611464 0.524094 3.000000
0.083347 -39.794670 0.645988 6.000000
-4.670717 -39.640522 0.647936 12.000000
-4.544345 -39.639103 0.647676 47.000000
-0.664995 -39.685200 0.644300 8.000000
-0.540043 -39.667095 0.643975 27.000000
2.326018 -39.618549 0.644235 18.000000
-9.962270 -17.296959 0.670188 32.000000
-9.389009 -17.292408 0.660658 12.000000
-9.802082 -17.268820 0.666698 7.000000
-9.804693 -17.147709 0.663208 25.000000
-9.397243 -17.178652 0.657437 13.000000
-9.858076 -16.992399 0.659584 3.000000
12.966949 -16.325071 0.699986 9.000000
-10.893215 -16.210918 0.655759 4.000000
12.905838 -16.143736 0.693946 7.000000
-7.977922 -16.050488 0.601800 7.500000
12.908877 -16.043932 0.691396 8.000000
12.964732 -15.907733 0.689024 7.333333
-9.257910 -15.843016 0.616095 1.000000
13.002574 -15.750966 0.685758 10.000000
13.008771 -15.608151 0.682201 10.000000
13.019169 -15.471721 0.678913 12.000000
13.028463 -15.335568 0.675624 10.000000
13.031994 -15.145830 0.670859 11.000000
12.993759 -14.840172 0.662269 6.250000
13.014312 -14.699658 0.659182 5.000000
13.020777 -14.568135 0.656027 5.000000
13.413140 -14.495021 0.663074 16.000000
13.529447 -14.528877 0.666564 17.000000
13.670341 -14.542099 0.670121 16.500000
13.853782 -14.552919 0.674618 16.500000
13.991441 -14.559588 0.677973 17.000000
14.126730 -14.562297 0.681195 12.000000
13.021043 -14.430915 0.652605 5.000000
13.014811 -14.288141 0.648913 6.500000
13.031994 -14.172190 0.646430 8.000000
3.007499 -13.226772 0.691178 19.500000
4.951048 -12.428806 0.681713 30.000000
-2.736583 -12.364348 0.645276 0.000000
2.960069 -12.386702 0.648940 0.000000
4.773125 -12.376247 0.675911 49.000000
-2.825246 -12.131181 0.634691 7.000000
4.631683 -12.180185 0.664003 31.000000
3.524807 -12.038305 0.639169 19.000000
-2.911583 -11.989511 0.628686 0.000000
3.180827 -11.971178 0.631163 3.000000
-3.894902 -11.818599 0.634080 1.000000
-1.699915 -11.855207 0.610264 4.000000
4.250367 -11.614675 0.630213 20.000000
6.134079 -11.614655 0.669296 6.000000
-3.484671 -11.541787 0.614335 8.000000
5.020162 -11.534571 0.641001 3.000000
3.633700 -11.406600 0.610010 17.750000
4.031831 -11.404587 0.616371 45.000000
4.814447 -11.453118 0.633062 28.000000
4.922365 -11.457155 0.635403 5.000000
5.090355 -11.400964 0.636218 5.000000
-4.080894 -11.297984 0.612096 1.000000
-3.430209 -11.297270 0.601613 13.000000
3.527789 -11.382382 0.607211 18.000000
4.074257 -11.298239 0.611994 41.000000
3.676323 -11.234446 0.602325 20.000000
3.844298 -11.266757 0.606600 23.000000
3.926835 -11.276335 0.608432 9.000000
5.284319 -11.168973 0.629602 10.000000
6.013517 -11.131049 0.644665 33.000000
-4.355288 -11.016977 0.603648 13.500000
6.040434 -11.014773 0.640119 11.000000
5.644382 -10.852002 0.623292 27.000000
6.180978 -10.823225 0.635098 14.500000
4.929030 -10.765936 0.603343 80.000000
5.377571 -10.664349 0.608585 31.250000
5.550394 -10.650862 0.611994 37.250000
5.680252 -10.593624 0.612503 11.000000
5.403085 -10.549472 0.603954 23.000000
5.624423 -10.569098 0.610061 63.000000
-8.680347 -10.206590 0.682730 9.000000
-8.886702 -10.187017 0.688837 3.000000
-8.731014 -10.114910 0.680864 21.166668
-8.124132 -9.957644 0.654843 4.000000
-2.141691 -9.964640 0.696979 77.000000
-8.173820 -9.891000 0.653825 24.000000
-2.061821 -9.792580 0.684335 9.333333
-2.719754 -9.714900 0.689884 29.500000
-1.759739 -9.741164 0.676921 22.666666
-1.583794 -9.724865 0.673783 8.000000
-9.665800 -9.525121 0.691483 10.000000
3.599716 -9.471341 0.692885 17.000000
-3.487581 -9.372814 0.683880 53.000000
-2.439472 -9.331888 0.659592 15.000000
-9.186600 -9.225161 0.663392 5.000000
-3.245703 -9.199670 0.667116 33.714287
-2.513584 -9.280753 0.657518 24.400000
-2.420844 -9.221215 0.651951 16.000000
3.462055 -9.284377 0.677603 15.000000
-9.805922 -9.189066 0.684766 17.000000
-3.869838 -9.147920 0.679241 16.000000
-2.239475 -9.151980 0.644310 14.000000
2.919879 -9.121696 0.654953 9.000000
-3.401929 -9.055480 0.661502 48.000000
-3.262044 -8.996503 0.654407 22.000000
3.003212 -9.086195 0.654407 7.000000
-9.827787 -8.923806 0.676420 5.000000
-8.288595 -8.919591 0.620442 24.000000
-3.278727 -8.896940 0.648403 1.000000
-3.083592 -8.970660 0.648676 13.000000
-2.862523 -8.964067 0.643491 26.000000
-2.228827 -8.986094 0.633121 37.000000
-2.147979 -8.899059 0.626026 21.000000
-2.967886 -8.859209 0.638920 24.500000
-2.852095 -8.835991 0.634940 26.000000
-2.038819 -8.810046 0.618385 15.000000
-10.115132 -8.786754 0.682730 10.000000
-9.707850 -8.731785 0.665326 5.000000
-2.826924 -8.757548 0.629300 41.000000
-2.725720 -8.772848 0.628209 7.000000
15.975655 -8.739169 0.611397 6.000000
16.080322 -8.730902 0.614350 8.000000
16.223808 -8.742926 0.618780 8.000000
-2.193840 -8.669842 0.611562 25.500000
-2.049643 -8.650387 0.607923 19.333334
-1.959540 -8.673970 0.608105 16.666666
-9.991238 -8.569580 0.670721 5.000000
-8.829926 -8.565758 0.626854 7.000000
-9.923861 -8.457818 0.664410 21.000000
-8.325832 -8.413480 0.603140 11.000000
-8.887657 -8.381163 0.622477 13.000000
-8.713219 -8.373211 0.615760 23.000000
-10.280385 -8.271554 0.672349 2.000000
-8.679749 -8.271422 0.610943 28.333334
-10.532620 -8.099503 0.677031 0.000000
-8.926786 -8.156991 0.616167 17.000000
-8.845683 -8.159657 0.613216 9.500000
-8.845897 -8.032231 0.608839 14.000000
-10.610474 -7.897287 0.673977 3.000000
-10.515277 -7.877884 0.669499 1.000000
-10.750940 -7.691246 0.673570 2.000000
-10.049215 -7.237063 0.631027 6.000000
-11.021318 -7.149109 0.669397 12.000000
-10.985977 -7.052870 0.665224 25.000000
-10.012542 -7.068308 0.624513 3.000000
-11.004613 -6.919250 0.662375 15.000000
-10.973825 -6.936108 0.661510 18.000000
-18.752537 -6.862451 0.670457 3.000000
18.062922 -6.847034 0.648578 14.000000
-19.123903 -6.727089 0.680658 4.000000
-18.717627 -6.783077 0.668443 5.000000
-11.160444 -6.727101 0.664003 20.000000
-11.040351 -6.765547 0.659796 15.000000
-9.981009 -6.744936 0.613826 10.000000
18.068743 -6.752052 0.647638 11.500000
-11.340506 -6.666692 0.670313 8.500000
-11.173126 -6.663189 0.662884 21.000000
18.071396 -6.623947 0.646229 13.500000
-19.029140 -6.542978 0.675624 2.250000
18.087063 -6.469019 0.644954 14.666667
18.116104 -6.351269 0.644551 21.000000
-10.349430 -6.106014 0.612300 13.000000
-7.247143 -6.174417 0.651064 17.750000
-10.344432 -6.059338 0.610875 14.000000
-10.203128 -6.062994 0.604768 11.000000
18.109264 -5.999600 0.640524 37.500000
-10.341816 -5.798813 0.604157 10.000000
-7.148271 -5.805030 0.629710 21.500000
18.118082 -5.876446 0.639518 38.000000
-7.189573 -5.708819 0.627800 17.750000
-6.776610 -5.700371 0.605558 18.000000
18.143694 -5.790391 0.639450 29.000000
-7.085067 -5.625629 0.618657 30.000000
-6.834193 -5.669747 0.607241 30.166666
-7.566499 -5.304057 0.631893 25.000000
-8.787272 -5.108330 0.695069 16.500000
-8.545589 -5.094172 0.680332 17.000000
-8.662807 -5.072217 0.686472 15.000000
-8.725013 -4.980642 0.687018 22.500000
-8.780791 -4.600248 0.677876 6.000000
18.245377 -4.522035 0.631128 1.000000
-11.331875 -4.411266 0.619628 4.000000
-9.032289 -4.376106 0.686336 8.000000
-8.981791 -4.213112 0.678422 13.000000
-8.827280 -4.208347 0.668734 25.000000
-17.678877 -4.107500 0.609384 7.000000
-18.270941 -4.063958 0.628444 3.000000
-9.059606 -4.043072 0.678422 4.000000
-8.964111 -4.051117 0.672691 7.500000
3.995541 -4.061109 0.629509 11.200000
4.039768 -4.011579 0.644144 14.150000
-18.064936 -3.958611 0.620927 6.000000
4.092996 -3.976096 0.691045 0.000000
-18.068068 -3.810815 0.619988 2.000000
-9.109314 -3.760149 0.673919 11.000000
-9.150008 -3.676423 0.674328 14.000000
-6.580554 -3.607226 0.644408 1.000000
-6.990067 -3.468398 0.670075 5.333333
-6.442283 -3.439759 0.627126 14.250000
-6.875672 -3.357945 0.657070 19.000000
-6.571155 -3.363917 0.633913 21.000000
-6.454377 -3.364246 0.625015 36.000000
-7.222473 -3.230071 0.679401 4.250000
-6.973876 -3.244565 0.660493 32.000000
-7.029548 -3.190224 0.662888 14.000000
-6.828431 -3.150842 0.645777 43.000000
-6.715196 -3.166849 0.637564 35.777779
-6.604832 -3.148927 0.628324 30.000000
-11.445537 -3.079670 0.603954 70.000000
-19.297237 -2.973573 0.655558 2.000000
-19.784344 -2.794597 0.670859 7.000000
-19.293209 -2.880016 0.654953 11.500000
13.235018 -2.863986 0.690008 33.000000
13.239340 -2.712839 0.688634 37.333332
-19.424728 -2.681580 0.658376 28.000000
-12.034463 -2.637140 0.627770 19.000000
-19.742561 -2.536084 0.668309 18.000000
-19.195343 -2.588490 0.650323 20.000000
13.253618 -2.564266 0.687870 33.500000
-19.567961 -2.451195 0.662135 2.000000
-11.902378 -2.490872 0.619628 13.000000
13.261730 -2.414860 0.686869 31.666666
-7.339821 -2.340593 0.661554 17.049999
13.268410 -2.265643 0.685886 28.500000
13.272175 -2.116368 0.684834 30.666666
-19.917749 -1.988060 0.672067 0.000000
-17.865482 -1.896652 0.603210 3.000000
13.281431 -1.968356 0.684155 33.000000
-7.023502 -1.829436 0.623247 37.500000
13.293075 -1.820942 0.683680 33.000000
-19.718130 -1.718177 0.664551 1.000000
-7.128553 -1.761507 0.630548 18.000000
-7.141942 -1.675838 0.629949 6.000000
13.296730 -1.672716 0.682883 31.750000
13.305786 -1.504248 0.682323 37.500000
13.316261 -1.357317 0.682052 35.333332
13.322717 -1.210116 0.681662 35.250000
-19.934422 -1.170353 0.670457 0.000000
13.329613 -1.063118 0.681373 37.333332
13.337136 -0.916267 0.681204 30.750000
13.345779 -0.769517 0.681170 34.000000
13.353901 -0.652178 0.681265 30.799999
-18.194998 -0.495516 0.611129 0.000000
-18.908682 -0.158412 0.634887 8.000000
-17.881487 -0.121718 0.600391 14.500000
3.505151 -0.184280 0.676627 17.222221
3.645518 -0.134081 0.615162 12.416667
3.719275 -0.143569 0.605769 17.416666
-18.321636 -0.038370 0.615156 34.000000
3.401274 -0.026714 0.655680 30.000000
3.464729 0.003747 0.642500 16.200001
4.884990 -0.037515 0.678303 0.000000
-18.461588 0.019332 0.619853 7.000000
3.646729 0.013124 0.658729 56.666668
3.892430 0.019022 0.610102 25.000000
4.026707 0.032329 0.631162 20.000000
-18.097227 0.132688 0.607639 30.000000
-2.500803 0.159978 0.669758 15.500000
3.533682 0.120932 0.617728 2.000000
3.619129 0.139796 0.665465 48.000000
3.987216 0.129790 0.611086 20.799999
4.034065 0.144886 0.622485 20.857143
4.158804 0.125008 0.652221 19.000000
4.415218 0.146503 0.652900 14.000000
4.713058 0.134531 0.612958 17.250000
4.841038 0.118582 0.672389 17.000000
5.085178 0.129576 0.616025 2.000000
-18.155796 0.266224 0.609652 24.666666
-2.466680 0.286323 0.663783 6.285714
3.666150 0.283497 0.642434 22.444445
3.941321 0.292199 0.690469 141.000000
4.252897 0.261664 0.642379 18.333334
4.643324 0.269472 0.636501 38.777779
4.948840 0.297467 0.600396 9.500000
-7.901643 0.382307 0.679315 15.000000
3.729674 0.341399 0.654328 16.500000
4.354735 0.316182 0.625560 49.500000
5.733262 0.317528 0.695373 20.000000
-2.560806 0.418144 0.693512 4.000000
3.786485 0.448942 0.638718 10.200000
3.937184 0.422413 0.691846 4.000000
4.542095 0.418854 0.633358 55.900002
3.679935 0.542085 0.649854 8.000000
3.747014 0.583675 0.621572 17.400000
4.997550 0.512921 0.697557 108.000000
5.673340 0.574270 0.690564 10.000000
-2.299744 0.630703 0.637329 19.500000
3.803405 0.703372 0.675783 13.333333
-19.022985 0.737441 0.639182 14.000000
-2.307513 0.743463 0.604635 26.411764
3.877713 0.727966 0.653864 2.000000
4.279307 0.782282 0.604036 56.000000
4.371652 0.749537 0.615864 30.000000
4.532225 0.723048 0.637264 17.799999
4.619385 0.769705 0.650247 46.000000
5.877761 0.725861 0.612440 4.500000
-3.535907 0.907410 0.637806 10.500000
4.008807 0.811230 0.641072 0.000000
4.244495 0.872792 0.611351 42.937500
4.343503 0.899526 0.638551 39.714287
6.210517 0.836384 0.648030 33.000000
-18.453268 0.947715 0.620390 23.000000
-18.043034 0.983494 0.606699 27.000000
-3.532495 0.959759 0.639527 9.000000
5.005697 0.948551 0.616987 1.000000
5.730748 0.974429 0.601125 1.000000
5.852898 0.938631 0.612989 13.000000
6.636959 0.946962 0.693290 34.000000
-19.177324 1.105755 0.644954 0.000000
-2.473545 1.017820 0.664076 7.000000
-2.230003 1.049407 0.631496 19.250000
4.264072 1.059991 0.610088 53.000000
4.495720 1.028006 0.640344 23.000000
-18.236015 1.108976 0.613411 2.000000
-2.681718 1.208320 0.620833 15.142858
-2.324605 1.198230 0.604521 46.423077
4.219358 1.186495 0.653113 48.142857
4.347852 1.163548 0.651559 79.333336
4.519287 1.168731 0.620264 34.333332
4.704788 1.195883 0.645312 59.000000
4.817210 1.208668 0.689620 47.857143
-2.544201 1.291305 0.602188 1.000000
-2.362136 1.306965 0.639734 22.153847
4.137014 1.224154 0.676254 23.600000
4.519340 1.295147 0.610860 51.250000
5.155825 1.299838 0.643917 89.000000
5.573956 1.294024 0.692968 33.000000
-6.879470 1.388393 0.602657 0.000000
-3.364921 1.337731 0.632643 16.428572
-2.289459 1.398040 0.666004 15.000000
-1.889046 1.336590 0.618464 3.833333
4.118977 1.339136 0.678907 48.500000
4.265473 1.320385 0.619990 39.000000
4.634621 1.334393 0.655356 36.333332
5.424883 1.385811 0.678060 19.000000
-6.884889 1.434588 0.603912 16.333334
-2.300548 1.441517 0.674036 30.000000
-2.206829 1.489474 0.661185 32.277779
4.081495 1.484837 0.680775 42.799999
4.495533 1.506612 0.608089 31.200001
4.659292 1.436876 0.677019 10.333333
4.820144 1.456864 0.668889 26.666666
4.959095 1.493568 0.627206 8.250000
5.610273 1.439401 0.632954 34.333332
5.690642 1.434671 0.606886 3.000000
5.896614 1.447256 0.627869 10.000000
-7.080665 1.529615 0.622049 8.000000
-3.263061 1.579534 0.698836 3.000000
-3.166040 1.563352 0.680665 36.000000
4.103063 1.590329 0.678370 31.428572
4.936600 1.563137 0.627086 0.000000
-18.028973 1.666153 0.607907 2.000000
-7.361801 1.630726 0.647488 19.000000
-2.690758 1.614414 0.648162 35.833332
4.459868 1.652953 0.637868 47.631577
4.723227 1.668882 0.606648 7.500000
4.255363 1.766541 0.639794 32.333332
4.367309 1.807963 0.656340 23.615385
-7.726856 1.839373 0.682053 0.000000
-1.599454 1.905167 0.609202 27.681818
-1.513431 1.891939 0.601550 21.750000
-1.366584 1.847283 0.614117 12.875000
-18.169622 1.909702 0.613411 12.000000
-7.719327 1.930169 0.683285 10.800000
-3.596935 1.929827 0.639833 7.000000
-1.724724 1.974973 0.626576 9.000000
4.266648 1.942306 0.650934 35.916668
4.660422 1.958104 0.612178 61.000000
4.900630 1.969048 0.639589 0.000000
5.573480 1.920065 0.609601 49.599998
6.114976 1.999864 0.665311 0.000000
-3.554713 2.045985 0.642868 30.000000
-3.424589 2.036568 0.612654 23.500000
-1.841467 2.082132 0.638456 8.000000
-1.587481 2.035541 0.689898 20.333334
4.641621 2.071439 0.615544 11.000000
5.006187 2.057352 0.655458 11.000000
5.273068 2.042112 0.684793 26.000000
-3.271468 2.131026 0.611961 12.666667
-2.236081 2.120266 0.639330 27.600000
-2.043728 2.155900 0.682333 35.000000
-1.943793 2.143366 0.646237 26.910255
4.763056 2.197815 0.635261 3.000000
5.234748 2.180087 0.686716 4.000000
5.774375 2.142823 0.636921 10.500000
6.009465 2.112730 0.658728 2.000000
6.382366 2.154106 0.696581 4.000000
-12.528691 2.240723 0.648533 34.000000
-3.245093 2.243930 0.665639 28.000000
-2.349150 2.259640 0.608719 148.666672
-2.074061 2.227927 0.679899 35.222221
-12.760482 2.364965 0.661289 33.333332
-3.235373 2.334310 0.697009 31.000000
-2.374732 2.393296 0.634793 88.750000
-2.257110 2.354742 0.643859 108.125000
4.307978 2.378132 0.683254 4.000000
4.668357 2.380595 0.634620 7.000000
5.159910 2.361302 0.687197 2.000000
-12.545476 2.433980 0.651179 51.333332
-4.360944 2.454901 0.694875 19.875000
-2.477017 2.485119 0.607177 49.363636
-1.735366 2.444608 0.688601 11.000000
4.204480 2.452034 0.675827 25.000000
-12.563503 2.522990 0.652960 46.500000
-12.244982 2.589350 0.637744 17.000000
-2.966130 2.560357 0.684602 35.142857
-2.821500 2.590691 0.669227 40.285713
-2.398113 2.545414 0.610394 51.666668
-1.734861 2.529912 0.647420 34.615383
-1.561312 2.549012 0.604019 37.000000
6.136835 2.578428 0.688352 11.000000
6.618203 2.586985 0.610186 5.000000
6.715490 2.600722 0.618399 0.000000
6.855326 2.580845 0.629008 22.000000
7.056327 2.530700 0.643724 1.000000
-12.571480 2.686012 0.655047 5.000000
-11.516772 2.663093 0.602325 34.000000
-2.740782 2.677050 0.639272 36.833336
-1.890793 2.666633 0.659948 3.500000
-1.771105 2.693020 0.601493 50.666668
-1.626293 2.625524 0.651869 22.428572
3.909053 2.661042 0.628799 28.555555
6.120384 2.696982 0.691644 6.000000
6.713846 2.648715 0.619768 3.000000
6.876987 2.613696 0.631746 3.000000
-12.563272 2.780613 0.655657 21.000000
-12.332305 2.770160 0.644055 25.000000
-12.167745 2.773376 0.635912 32.000000
-3.262378 2.761547 0.625074 5.583333
-3.185378 2.780742 0.662751 0.000000
-2.676432 2.779494 0.632199 17.200001
-2.584952 2.777849 0.662933 28.000000
-1.914896 2.792768 0.640691 52.799999
-1.633501 2.798783 0.683966 16.333334
5.374619 2.772859 0.625401 35.000000
5.799505 2.720391 0.662431 2.000000
5.879991 2.752450 0.671380 5.250000
6.030081 2.736603 0.684786 18.000000
-11.933877 2.878292 0.625531 4.000000
-2.203187 2.863691 0.616391 34.192307
-1.782304 2.830894 0.634464 17.166666
3.857769 2.832092 0.636192 10.000000
5.675931 2.838578 0.656259 20.000000
-11.916290 2.933525 0.625327 2.500000
-2.751372 2.994192 0.637356 56.000000
-2.479545 2.920634 0.600502 20.500000
-2.189800 2.966973 0.615748 33.000000
-1.452192 2.924129 0.610397 6.833333
3.774295 2.964918 0.604264 52.363636
5.726843 2.931835 0.665311 5.000000
-1.695761 3.026772 0.606140 11.000000
3.719503 3.068303 0.669501 49.000000
-12.217636 3.191564 0.643444 13.000000
-2.849011 3.261284 0.601286 2.000000
4.590929 3.239744 0.680465 3.000000
-2.906866 3.377260 0.645186 48.333332
3.749171 3.338042 0.697007 38.000000
4.649216 3.335896 0.692968 3.500000
-2.230315 3.471942 0.617183 17.400000
3.731257 3.451555 0.615544 1.000000
-3.834557 3.598402 0.636824 10.500000
-2.525642 3.556595 0.605686 16.333334
3.651888 3.597796 0.620834 7.500000
-2.096539 3.687337 0.627242 5.500000
-2.071037 3.642640 0.619363 22.000000
4.712788 3.694057 0.619229 34.000000
4.759836 3.672918 0.621732 56.083332
-2.156173 3.710631 0.672661 1.000000
-1.654545 3.805195 0.650363 12.000000
-1.541208 3.752282 0.635807 0.000000
3.355478 3.752907 0.699024 19.666666
4.172383 3.739724 0.678541 15.000000
4.444144 3.756186 0.601743 11.500000
5.045361 3.803333 0.653379 26.000000
-1.929259 3.886017 0.680050 10.071428
-1.753941 3.841078 0.661856 9.333333
-1.669415 3.817357 0.653047 5.333333
2.877820 3.875215 0.627449 16.000000
3.579499 3.907803 0.610379 8.666667
4.594582 3.889600 0.622521 0.000000
4.673924 3.868909 0.627458 13.000000
5.155346 3.835683 0.664488 33.000000
5.271884 3.907017 0.609287 27.200001
-1.888429 3.978821 0.690314 19.000000
2.791384 3.986488 0.675736 7.333333
5.402404 3.914973 0.631406 8.500000
4.184756 4.051850 0.602360 18.750000
-3.144888 4.131242 0.628769 3.000000
4.167144 4.206173 0.612286 10.500000
4.572073 4.202670 0.642202 16.500000
4.400578 4.316875 0.637470 19.666666
4.634358 4.341309 0.656671 5.000000
-18.662062 4.501040 0.644551 1.000000
-2.868075 4.660167 0.662672 12.000000
-18.142889 4.769791 0.629853 6.000000
-2.863661 4.752986 0.672001 11.400000
5.150997 4.779886 0.603427 18.250000
-18.155003 4.895210 0.631330 6.000000
4.329736 4.822221 0.613491 6.000000
5.098976 4.939542 0.609615 18.333334
4.952042 5.084826 0.609501 10.400000
-18.845106 7.968242 0.686966 3.000000
-18.735405 7.991328 0.683879 3.000000
-17.310896 7.969449 0.639853 12.000000
-18.541800 8.046819 0.678644 18.000000
-18.455448 8.101364 0.676720 48.666668
-17.307533 8.033890 0.640658 15.000000
-18.393780 8.224102 0.676497 33.000000
-18.405834 8.333771 0.678376 19.000000
-17.518818 8.401136 0.652336 7.000000
-17.994270 8.490491 0.668040 28.000000
-18.498363 8.516126 0.683745 8.000000
-18.110558 8.568580 0.672694 24.000000
-18.133007 8.765839 0.676228 5.000000
-17.510933 8.807082 0.658108 6.000000
-17.319153 8.778904 0.651933 26.000000
-18.008127 8.845518 0.673633 15.666667
-17.562218 9.041258 0.663208 6.000000
-18.389515 9.248963 0.691127 1.000000
-17.209204 9.273947 0.656363 3.000000
-17.017317 9.308987 0.651262 2.000000
-16.977482 9.356618 0.650860 0.000000
-18.186674 9.435127 0.687906 4.000000
-17.418884 9.457685 0.665490 1.000000
-18.307215 9.865659 0.698241 1.000000
-17.546814 9.887122 0.676228 1.000000
-17.948811 9.990151 0.689696 8.000000
6.478173 16.667206 0.600391 19.333334
10.499096 17.647400 0.689449 57.000000
10.394064 17.723372 0.689852 57.000000
10.687307 17.709393 0.694483 16.500000
10.345563 17.832682 0.692201 37.000000
2.523571 18.001734 0.610323 4.000000
10.321413 17.920525 0.694349 9.000000
2.406735 18.207251 0.616632 27.500000
2.064889 18.265274 0.617169 2.500000
2.500643 18.255140 0.618645 18.000000
2.348692 18.436525 0.624014 5.000000
2.694134 18.581097 0.630390 15.500000
2.863643 18.519323 0.629182 7.000000
-15.933009 33.676121 0.604761 5.000000
-15.782963 33.631870 0.603073 67.000000
-15.685658 33.699425 0.603398 67.000000
-15.588098 33.766689 0.603723 66.000000
-15.498594 33.851852 0.604372 64.000000
-15.408695 33.936798 0.605021 62.000000
-15.326640 34.039738 0.605995 58.000000
-15.240814 34.135201 0.606839 55.000000
-15.165888 34.256054 0.608137 53.000000
-15.096783 34.391415 0.609696 48.000000
-15.028557 34.530361 0.611319 46.000000
-14.962791 34.676548 0.613072 27.000000
15.905003 38.974018 0.683319 33.000000
15.653857 39.058334 0.683059 34.000000
15.783983 39.027500 0.683384 25.000000
15.507756 39.168144 0.683838 25.000000
15.181988 39.304188 0.683968 20.000000
13.863458 39.945068 0.686370 22.000000
13.995496 39.920185 0.686695 17.000000
12.336206 -19.349058 0.770455 24.000000
12.349419 -19.236195 0.767502 37.000000
12.358270 -19.052031 0.762468 35.500000
12.368003 -18.871523 0.757569 23.000000
-10.494356 -18.762278 0.721798 4.500000
12.374385 -18.752493 0.754348 28.000000
-10.905777 -18.663004 0.725757 42.000000
-10.750683 -18.598213 0.721261 26.000000
-10.615815 -18.634125 0.720053 6.500000
12.377931 -18.630280 0.750992 32.000000
-11.365839 -18.503839 0.729113 7.000000
12.387492 -18.518200 0.748039 28.000000
11.201944 -18.322956 0.721060 0.000000
12.386145 -18.328789 0.742737 23.500000
11.256627 -18.218929 0.719046 26.000000
11.372019 -18.213175 0.720925 1.000000
12.403693 -18.169506 0.738643 33.000000
12.415338 -18.003918 0.734281 35.000000
12.425856 -17.838577 0.729918 35.000000
12.431341 -17.727442 0.726965 35.000000
12.439575 -17.562654 0.722603 33.000000
12.446670 -17.398155 0.718241 27.000000
12.476984 -17.268005 0.715288 25.000000
12.623068 -17.240845 0.717435 34.000000
12.794256 -17.246281 0.720992 28.500000
12.892720 -17.096865 0.718957 6.666667
12.943330 -16.941429 0.715825 9.000000
12.942876 -16.830963 0.712872 9.000000
12.950882 -16.678228 0.708979 9.000000
12.960326 -16.528912 0.705221 9.000000
12.967606 -16.431627 0.702805 9.000000
15.062593 -14.627284 0.704952 11.000000
15.160253 -14.629859 0.707369 17.000000
15.309961 -14.635544 0.711127 17.000000
15.465818 -14.645763 0.715154 17.000000
15.622157 -14.654709 0.719180 17.000000
15.775945 -14.659914 0.723073 17.000000
15.938997 -14.671985 0.727368 16.500000
16.093607 -14.674890 0.731261 0.000000
3.163349 -13.615211 0.712246 2.000000
3.260482 -13.456671 0.705529 5.000000
-9.335636 -11.590507 0.758352 11.500000
-10.048191 -11.373402 0.773313 17.000000
-9.549935 -11.229075 0.751126 4.000000
3.580228 -11.104517 0.797860 42.333332
-9.483860 -11.080654 0.743187 2.000000
-1.657394 -11.050303 0.764112 70.000000
2.975194 -10.995991 0.778984 6.000000
3.843409 -11.042974 0.799588 13.000000
-9.196615 -10.952334 0.728734 11.000000
-2.090447 -10.948168 0.762201 23.666666
-1.426570 -10.909428 0.752377 1.000000
3.163069 -10.937210 0.778575 8.000000
3.362524 -10.977753 0.785125 17.000000
3.887346 -10.947154 0.794403 23.000000
-9.682603 -10.821798 0.739930 9.000000
-4.440595 -10.827430 0.800270 16.000000
-1.659468 -10.832029 0.749375 39.000000
-1.458715 -10.889071 0.751285 1.000000
1.898458 -10.855494 0.753605 4.000000
2.636821 -10.743308 0.756470 5.000000
2.753064 -10.742491 0.758358 32.750000
3.784109 -10.763544 0.780212 42.000000
-9.465406 -10.646168 0.725884 22.000000
-3.216478 -10.646770 0.760564 34.000000
-3.168166 -10.607114 0.757016 40.000000
2.570189 -10.615787 0.746919 9.000000
2.837823 -10.687842 0.756198 31.000000
4.537244 -10.611746 0.789218 44.000000
-9.642265 -10.507951 0.726699 13.000000
-3.631037 -10.563264 0.763839 3.000000
-2.085942 -10.505905 0.732455 0.000000
1.892793 -10.530252 0.731637 0.000000
2.347133 -10.561058 0.739824 11.000000
2.429959 -10.542295 0.739824 9.000000
2.905553 -10.541359 0.747738 2.000000
4.471179 -10.548789 0.783487 40.000000
4.695235 -10.520948 0.787854 52.000000
4.754467 -10.564373 0.792220 54.000000
-9.623737 -10.421844 0.722831 18.000000
-9.169039 -10.444247 0.708175 12.000000
-4.651140 -10.485954 0.784442 17.500000
-3.002804 -10.410274 0.740915 82.000000
-2.696331 -10.448499 0.737913 3.000000
-2.100780 -10.409328 0.726179 27.000000
2.174090 -10.479855 0.731910 5.000000
-2.271283 -10.330547 0.723313 8.000000
3.807541 -10.309707 0.751558 74.000000
4.528022 -10.320015 0.770661 74.000000
-3.739194 -10.245525 0.745827 0.000000
-2.038683 -10.268357 0.715900 7.333333
3.742234 -10.231668 0.745009 21.000000
4.410936 -10.227337 0.761655 70.000000
-9.515282 -10.143478 0.708684 18.000000
-2.889131 -10.135658 0.720721 86.000000
-1.427258 -10.168342 0.702164 9.000000
4.204068 -10.184696 0.753469 96.000000
4.220701 -10.134598 0.750740 99.000000
4.395287 -10.103646 0.753469 89.000000
-2.916979 -9.994719 0.711988 69.000000
3.025143 -10.079906 0.719684 8.800000
11.467211 -10.035247 0.776468 31.500000
11.549100 -10.011203 0.778809 0.000000
-2.942714 -9.966368 0.710624 27.000000
3.834980 -9.902542 0.726179 28.000000
3.922112 -9.896193 0.727953 23.750000
4.047639 -9.938278 0.733820 6.000000
4.193779 -9.981482 0.740369 62.000000
-9.699859 -9.863759 0.704918 6.000000
-4.023134 -9.853472 0.727816 8.000000
-3.847497 -9.863369 0.723996 39.000000
-3.779805 -9.872471 0.722904 43.000000
3.773831 -9.836297 0.720448 24.000000
-3.760740 -9.777077 0.716355 48.500000
4.829984 -9.734204 0.743098 7.000000
4.984656 -9.736681 0.748011 11.000000
5.079903 -9.696342 0.748556 15.000000
-3.835373 -9.608643 0.707485 19.500000
-3.569893 -9.687030 0.705984 27.000000
4.571218 -9.626925 0.728771 18.500000
4.764128 -9.677723 0.737641 35.000000
5.019964 -9.655600 0.744190 9.000000
5.368118 -9.612982 0.752923 10.500000
-4.533718 -9.565210 0.723859 7.500000
-3.846961 -9.507229 0.701345 13.000000
4.222911 -9.543027 0.713626 43.000000
4.558613 -9.484803 0.719629 11.000000
-10.171444 -9.353122 0.704104 10.000000
4.549109 -9.351971 0.711169 24.500000
4.877785 -9.216441 0.713080 12.666667
4.652986 -9.188047 0.704293 27.400000
4.918810 -9.108543 0.707895 30.000000
-2.432083 -8.957495 0.797040 27.000000
-2.350865 -8.901645 0.790606 20.799999
-2.231469 -8.818564 0.781127 10.500000
-2.123594 -8.798034 0.777191 9.000000
-3.190385 -8.741768 0.799093 9.000000
-2.787160 -8.728066 0.786773 10.000000
-2.161194 -8.772444 0.775822 22.500000
-2.963986 -8.578966 0.779416 22.000000
-2.795697 -8.538053 0.771487 17.666666
-2.789320 -8.476810 0.766308 23.200001
-8.165107 -8.094163 0.786216 14.000000
-7.962122 -8.043132 0.773936 11.000000
-8.006851 -7.987309 0.773390 12.000000
-7.545934 -7.340662 0.719902 6.000000
-7.923057 -7.237280 0.733820 1.000000
-7.692247 -7.251341 0.722904 13.000000
13.217035 -7.058457 0.763502 35.599998
13.225022 -6.913926 0.760421 51.000000
-9.500424 -6.771612 0.797814 9.500000
-8.442704 -6.790536 0.740915 0.000000
13.232677 -6.759898 0.757164 42.333332
-9.567328 -6.617327 0.795495 56.000000
13.244568 -6.609313 0.754247 45.333332
-8.498987 -6.554602 0.733956 29.000000
-8.392313 -6.578049 0.729181 15.000000
-8.749191 -6.424568 0.742280 29.000000
-8.648302 -6.413404 0.736276 21.000000
-8.388019 -6.447974 0.723504 23.400000
13.248813 -6.456195 0.750990 44.666668
-8.789385 -6.369468 0.742280 32.000000
-8.727901 -6.325007 0.737095 15.000000
-8.483397 -6.374139 0.725633 7.500000
13.260973 -6.308159 0.748276 45.000000
-9.353098 -6.233075 0.768614 46.500000
-9.555150 -6.131941 0.776392 7.000000
13.267899 -6.158794 0.745358 41.000000
-8.851868 -5.999896 0.731273 17.666666
-8.659646 -6.070127 0.723177 2.500000
13.276834 -6.011502 0.742644 35.000000
-9.854574 -5.937626 0.786762 146.000000
-9.419024 -5.940710 0.761519 6.000000
-9.335428 -5.949615 0.757016 2.000000
-8.937682 -5.895555 0.732183 16.000000
-8.627620 -5.927381 0.715809 0.000000
13.283987 -5.914413 0.740948 27.000000
13.417765 -5.898326 0.746851 20.500000
-9.710833 -5.850986 0.775300 3.500000
13.483876 -5.826628 0.748479 10.000000
-9.474235 -5.749106 0.757835 8.000000
-8.810183 -5.724511 0.718483 35.000000
13.493619 -5.705515 0.746512 10.000000
-7.160921 -5.612861 0.781298 28.000000
-7.006824 -5.671989 0.774111 0.000000
-9.994509 -5.519542 0.780758 8.000000
-9.705746 -5.560784 0.764930 0.000000
-7.016815 -5.589445 0.770347 21.000000
13.501235 -5.559327 0.744001 10.000000
13.501103 -5.411065 0.741151 10.666667
-9.897765 -5.304909 0.767932 13.000000
-9.979057 -5.288105 0.772298 2.500000
-7.598534 -5.237970 0.792506 14.000000
13.495695 -5.261756 0.738098 11.666667
13.573253 -5.120788 0.739217 2.750000
-9.722873 -5.054941 0.749375 2.000000
-14.192755 -4.917415 0.765375 16.000000
-9.947412 -4.974782 0.760564 12.000000
-8.966811 -4.964214 0.700890 6.666667
13.595617 -4.959178 0.737419 1.000000
-14.219555 -4.851814 0.765578 10.000000
-10.077376 -4.882447 0.765749 2.000000
13.590291 -4.812592 0.734637 1.000000
-9.551889 -4.739520 0.729181 16.000000
13.607332 -4.674792 0.733145 1.333333
-10.460228 -4.530906 0.779530 0.500000
-9.219306 -4.502531 0.701618 4.000000
13.612892 -4.533698 0.731109 1.000000
13.619532 -4.393753 0.729209 2.000000
-10.447736 -4.351113 0.773936 3.000000
-10.229129 -4.335690 0.759745 4.000000
-13.990511 -4.192033 0.744205 18.000000
-10.679260 -4.193747 0.784579 7.000000
13.565627 -4.226305 0.724012 11.400000
-14.573606 -4.118422 0.771685 7.000000
-14.288778 -4.183746 0.758657 16.000000
-14.068728 -4.167344 0.747665 25.000000
-9.786144 -4.184241 0.727816 15.000000
-14.359462 -4.009231 0.759675 31.000000
-14.210437 -4.088140 0.753466 24.000000
3.998462 -4.060398 0.791262 10.333333
4.045158 -4.011337 0.791017 10.222222
13.557790 -4.070118 0.721304 12.500000
-14.926062 -3.965940 0.786952 6.000000
-10.774206 -3.902475 0.783624 11.500000
-10.648931 -3.913803 0.775846 17.500000
-10.527914 -3.976042 0.769570 16.000000
13.660660 -3.914588 0.724103 24.500000
-14.893110 -3.807283 0.783288 3.000000
13.668571 -3.754709 0.722288 26.000000
-13.760084 -3.656133 0.725477 4.000000
-10.749627 -3.665756 0.776665 15.000000
13.677606 -3.618909 0.720931 26.000000
-10.522443 -3.496275 0.758244 18.500000
-6.541047 -3.453079 0.764882 0.000000
13.682961 -3.459816 0.719167 25.750000
-6.555635 -3.294136 0.758710 17.600000
13.690446 -3.301974 0.717606 26.000000
-10.916968 -3.194417 0.777847 7.333333
-6.987005 -3.224013 0.795740 19.000000
-6.820240 -3.251625 0.781340 41.000000
-6.717319 -3.254513 0.771876 18.000000
-6.518833 -3.234558 0.752538 30.000000
-6.868615 -3.143015 0.781134 27.500000
-6.722757 -3.187804 0.769408 31.000000
13.679425 -3.163273 0.715435 21.333334
-11.052018 -3.027654 0.783624 23.500000
13.614647 -3.058207 0.711025 12.000000
-10.926245 -2.919524 0.773390 22.000000
-7.079226 -2.928706 0.792243 11.250000
-6.830393 -2.929991 0.768585 31.625000
-6.734765 -2.980232 0.761590 32.000000
-10.589928 -2.388502 0.742371 12.666667
-11.380730 -2.249382 0.793311 41.500000
-10.544114 -2.262403 0.737459 20.333334
-15.457098 -2.133752 0.795094 12.500000
-11.312332 -2.162055 0.787581 52.000000
-15.447683 -2.008986 0.793771 4.500000
-11.292883 -2.048218 0.784852 54.000000
-11.325254 -1.925657 0.785579 47.000000
-11.501595 -1.794873 0.796040 39.333332
-11.390604 -1.844860 0.789082 55.500000
-7.024190 -1.794474 0.749710 27.000000
-7.214271 -1.770658 0.768173 18.000000
-15.458258 -1.665612 0.792244 16.750000
-15.441297 -1.345583 0.789801 12.000000
-15.302089 -1.333377 0.782677 16.000000
-15.533031 -1.206112 0.793873 0.000000
-15.353966 -1.240743 0.784916 25.000000
-15.236819 -1.038745 0.778199 4.000000
-15.455688 -0.615360 0.788173 39.000000
-15.313988 -0.657909 0.781048 27.000000
-14.655361 -0.491294 0.747190 24.666666
-14.407959 -0.392381 0.734434 16.000000
-15.304782 -0.320592 0.780031 7.000000
-14.852417 -0.357797 0.757029 15.000000
-15.046092 -0.267882 0.766799 5.000000
-14.663398 -0.214993 0.747258 14.000000
-14.472488 -0.144018 0.737487 12.000000
3.454598 -0.126492 0.729635 16.142857
4.501800 -0.133610 0.786846 17.000000
4.918924 -0.099601 0.771145 13.000000
-14.465034 -0.075742 0.737080 5.000000
3.376591 -0.037051 0.744065 17.000000
3.492007 -0.047389 0.737109 36.500000
3.666964 -0.007121 0.778436 50.529411
4.439827 -0.089900 0.775831 38.000000
4.570210 -0.071034 0.798549 1.000000
4.722206 -0.036265 0.740175 27.000000
4.844437 -0.057688 0.759376 3.000000
-15.144343 0.015858 0.771685 2.000000
3.481710 0.103943 0.735181 18.000000
3.775345 0.009112 0.757011 73.857140
3.867454 0.048626 0.781094 76.000000
4.136168 0.098196 0.722824 0.000000
4.701870 0.082071 0.737078 32.000000
5.049823 0.072277 0.791585 37.000000
5.131286 0.033127 0.735387 12.000000
-15.049860 0.133930 0.766901 9.500000
3.657823 0.109158 0.777563 24.214285
3.756557 0.121880 0.743153 74.818184
3.913569 0.129192 0.754864 105.333336
4.570801 0.132345 0.744079 26.333334
3.657633 0.264774 0.774005 3.500000
3.809009 0.257669 0.735936 21.000000
3.968814 0.281007 0.766979 40.000000
4.078862 0.259664 0.777328 41.714287
4.728275 0.305764 0.742653 13.000000
4.565323 0.398589 0.718290 33.833332
5.722564 0.406183 0.796580 0.000000
-2.592111 0.431446 0.702291 2.000000
3.642453 0.425349 0.774005 18.500000
3.755373 0.428515 0.728617 25.666666
4.079205 0.449008 0.742038 23.000000
5.634335 0.417715 0.784477 5.000000
-15.370299 0.547483 0.783695 6.000000
-3.588398 0.606560 0.701562 20.799999
4.352324 0.554260 0.766538 18.500000
5.369243 0.587324 0.786240 25.125000
3.837193 0.675910 0.751079 69.000000
3.936054 0.680582 0.770007 61.000000
4.243701 0.686569 0.751049 10.000000
4.666242 0.672416 0.738936 56.000000
5.031398 0.700821 0.796230 26.500000
5.284976 0.668426 0.765050 14.100000
4.062443 0.743093 0.792651 62.857143
4.450307 0.741533 0.788223 35.000000
4.585621 0.753033 0.728407 17.500000
5.162230 0.760450 0.724513 0.000000
6.864734 0.782141 0.714479 16.000000
4.027069 0.885890 0.789145 65.230766
4.228412 0.872279 0.754353 35.000000
4.419828 0.896725 0.760978 17.333334
4.587790 0.848652 0.731297 89.000000
6.309775 0.869942 0.771354 5.000000
6.493509 0.874495 0.793475 4.000000
6.885748 0.846761 0.717428 21.333334
-10.246611 0.964995 0.703801 12.500000
-2.608150 0.985534 0.745151 6.000000
-2.545382 0.920830 0.723463 8.250000
-2.439654 0.976303 0.702291 7.000000
3.963234 0.946704 0.749099 48.099998
5.468936 0.937804 0.770449 5.500000
6.706423 0.967605 0.700696 24.000000
6.757114 0.920747 0.705222 29.000000
-10.237993 1.012863 0.703528 2.000000
-3.690594 1.045176 0.774245 10.833333
-3.620415 1.046699 0.777236 31.600000
-2.504529 1.013951 0.722172 3.000000
3.954697 1.035200 0.782394 59.923077
4.185847 1.048556 0.753901 34.571430
4.380089 1.065169 0.706604 25.200001
4.518530 1.045120 0.760222 36.599998
6.925637 1.088241 0.724971 1.000000
-2.632332 1.183717 0.771487 6.625000
-2.339788 1.187555 0.701258 4.000000
3.899913 1.164654 0.767853 27.136364
4.382359 1.149841 0.771153 58.375000
4.824475 1.199300 0.779197 26.000000
4.943761 1.143534 0.777155 28.000000
5.588576 1.167515 0.792729 0.000000
5.824393 1.189221 0.719898 15.500000
4.202981 1.228926 0.765046 57.000000
4.265467 1.287346 0.778413 25.250000
4.652983 1.265793 0.798754 25.500000
5.065908 1.220030 0.754787 33.666668
5.776037 1.226681 0.715089 8.000000
-3.483771 1.310170 0.785570 37.000000
-2.850021 1.373925 0.785518 21.500000
-2.656494 1.371673 0.749411 20.375000
-2.517586 1.331966 0.744278 25.384615
3.955006 1.319958 0.773628 22.000000
4.063898 1.360472 0.778402 24.923077
4.341664 1.351388 0.794418 8.000000
5.763515 1.328317 0.716291 19.500000
6.100568 1.396096 0.757889 8.000000
-6.870682 1.442880 0.726000 11.000000
-3.511905 1.442224 0.792059 48.000000
-3.463366 1.482452 0.778308 19.250000
-2.848634 1.412215 0.789373 14.000000
-2.689651 1.490874 0.775106 21.500000
-2.298804 1.504868 0.734307 4.000000
-2.273547 1.494472 0.727225 23.714285
5.779368 1.489366 0.722784 18.333334
5.866412 1.420319 0.730959 51.000000
-3.287424 1.553256 0.767397 7.000000
-3.277032 1.592791 0.769049 19.000000
-2.376297 1.603955 0.711785 38.500000
2.468235 1.577303 0.782848 6.250000
4.230016 1.546292 0.786846 65.000000
4.843594 1.516034 0.704709 14.000000
5.882554 1.581729 0.737691 62.000000
-6.986477 1.628382 0.741841 11.000000
-2.804884 1.682467 0.751283 21.000000
-2.721395 1.673544 0.733821 46.500000
3.923523 1.636269 0.800251 20.250000
4.087100 1.633810 0.784825 3.100000
-3.870036 1.798080 0.745542 3.000000
-3.604822 1.773211 0.773884 46.500000
-2.741655 1.790963 0.780597 12.333334
-2.362191 1.796157 0.785168 19.571428
4.373842 1.780447 0.740175 20.000000
-3.253923 1.862786 0.791352 29.000000
4.201690 1.842664 0.719116 17.000000
4.333292 1.871982 0.739865 12.500000
-10.907793 1.935117 0.757562 12.000000
-3.977517 1.925036 0.772045 5.500000
-3.743359 1.932770 0.764678 13.125000
3.751940 1.910515 0.781310 47.200001
4.044592 1.990186 0.787534 0.000000
4.657641 1.921643 0.789726 108.000000
-1.633313 2.058513 0.702291 14.000000
5.808644 2.083228 0.747309 13.000000
-3.568206 2.193653 0.757068 12.000000
-2.251736 2.141249 0.764317 18.500000
-2.043234 2.128433 0.732508 33.000000
-1.823632 2.175558 0.758750 17.000000
4.023914 2.172058 0.798893 4.500000
-3.420148 2.231806 0.719349 52.799999
-3.330101 2.285263 0.705614 53.666668
-2.093491 2.242841 0.775619 31.000000
-1.933328 2.217474 0.760946 26.500000
-1.506354 2.293205 0.733274 7.000000
-3.249995 2.373418 0.703090 11.333333
-2.924391 2.407320 0.799463 56.181820
-2.370638 2.397687 0.769809 45.566666
-1.616967 2.369380 0.766668 28.333334
3.771866 2.402943 0.781339 48.000000
3.922117 2.378952 0.746580 27.333334
4.216813 2.385709 0.769006 14.888889
4.373084 2.386919 0.780900 34.500000
5.392529 2.386263 0.714127 1.000000
6.393497 2.406979 0.706456 1.000000
6.726075 2.317286 0.735669 6.000000
-3.117915 2.505517 0.770305 28.000000
-2.902585 2.459414 0.767981 40.500000
-2.389306 2.488936 0.792473 160.000000
-1.761491 2.448668 0.748893 30.000000
-1.463216 2.424741 0.747812 4.833333
5.971571 2.486948 0.783376 10.000000
-4.429129 2.534534 0.708560 1.000000
-2.825557 2.513389 0.753589 54.511112
-2.542227 2.525355 0.778299 66.000000
-1.948225 2.587614 0.789178 15.666667
-1.771516 2.518759 0.777083 28.750000
-1.454798 2.510895 0.759221 13.882353
3.849625 2.582034 0.726548 28.000000
3.922542 2.573678 0.747286 35.285713
4.048105 2.560888 0.779319 15.666667
-3.635374 2.661965 0.746537 6.750000
-2.729652 2.673086 0.772467 61.878788
-2.525045 2.635916 0.793381 64.333336
-1.920744 2.621349 0.793514 44.666668
-1.727144 2.617763 0.778634 36.285713
-1.598913 2.676903 0.774241 33.099998
3.923872 2.707050 0.747195 6.333333
4.148959 2.629448 0.769906 10.500000
6.485854 2.629677 0.723737 1.000000
6.617270 2.622621 0.736080 3.500000
-11.218057 2.745039 0.789764 16.000000
-11.058318 2.742804 0.779121 10.000000
-2.355466 2.756373 0.773923 35.916664
-1.476661 2.753971 0.775476 20.444445
-1.382345 2.744860 0.705913 7.333333
5.572793 2.732475 0.751637 4.000000
5.790354 2.738324 0.775682 6.000000
5.817567 2.773591 0.780491 15.000000
6.239961 2.761262 0.705633 5.000000
6.387058 2.802393 0.721268 4.000000
-2.538834 2.811055 0.769229 43.437500
-1.862821 2.845516 0.717834 37.000000
-1.759638 2.850689 0.746963 37.480000
4.077001 2.869814 0.781468 10.666667
4.513346 2.855425 0.741567 11.000000
-2.318590 2.959956 0.738843 3.200000
-2.261061 2.943480 0.715493 18.000000
-1.715007 2.995783 0.728573 1.000000
-1.657964 2.994302 0.722437 1.428571
-1.459608 2.960907 0.742733 4.750000
-1.384355 2.941889 0.746805 7.500000
4.230823 2.954784 0.716537 13.500000
-2.609489 3.103262 0.708368 24.000000
-2.097461 3.014482 0.707922 87.000000
4.867841 3.058328 0.798230 8.000000
3.641288 3.126808 0.772563 49.176472
3.898844 3.236883 0.703609 72.000000
4.555719 3.278559 0.779342 15.000000
-2.390508 3.355078 0.719727 12.000000
3.674467 3.313153 0.775480 91.000000
4.074119 3.404077 0.737166 13.000000
-2.947630 3.417274 0.707347 15.000000
-2.820641 3.467797 0.764833 4.600000
-2.519715 3.413589 0.796370 33.142857
-2.372798 3.411443 0.732965 14.272727
3.922664 3.448616 0.771847 42.500000
4.027616 3.574846 0.795614 54.500000
4.229514 3.585929 0.769938 31.857143
-4.429499 3.609563 0.793389 14.600000
-4.223515 3.676573 0.777518 2.500000
-3.093754 3.609545 0.745130 10.000000
-2.145850 3.613164 0.776911 15.625000
4.242156 3.659148 0.777875 0.000000
4.468608 3.687568 0.701624 16.000000
-1.633469 3.790988 0.795750 8.250000
3.331408 3.792062 0.700858 8.000000
3.675467 3.786240 0.795792 40.166668
4.091556 3.724512 0.768248 40.750000
-1.949694 3.862198 0.755868 30.250000
-1.737391 3.884949 0.756238 7.333333
-1.631239 3.871998 0.779342 6.200000
-1.531412 3.830742 0.720759 0.500000
3.325012 3.877297 0.709220 10.400000
4.143808 3.862247 0.786540 14.500000
4.662854 3.892471 0.735575 27.799999
