# This PCD file was generated using the MATLAB® pcwrite function
# from Computer Vision Toolbox®.
# .PCD v.7 - Point Cloud Data file format
VERSION .7
FIELDS x y z intensity
SIZE 4 4 4 4
TYPE F F F F
COUNT 1 1 1 1
WIDTH 1220
HEIGHT 1
VIEWPOINT 0 0 0 1 0 0 0
POINTS 1220
DATA ascii
-6.585051 3.273717 -0.753818 44.090908
-6.479815 3.281797 -0.767913 41.000000
8.387252 3.283538 -0.793564 8.750000
-6.553138 3.433810 -0.706064 31.166666
-6.436216 3.439612 -0.771530 39.200001
8.386116 3.420610 -0.797953 7.500000
-10.446139 3.511456 -0.778556 5.000000
-6.484538 3.570859 -0.782632 39.666668
-6.559754 3.612090 -0.725586 21.500000
-6.575828 3.735664 -0.710303 35.666668
-6.422257 3.730553 -0.785215 31.571428
-9.617005 3.815412 -0.730918 5.000000
-7.599913 3.848985 -0.750560 7.000000
-6.404109 3.902991 -0.792893 36.599998
-6.335377 3.943423 -0.788940 43.000000
-6.402093 4.057972 -0.721027 36.799999
-10.501387 4.204507 -0.799133 1.000000
-6.875279 4.131083 -0.706678 13.000000
-10.402253 4.279004 -0.794623 1.000000
-7.157969 4.455441 -0.742837 10.000000
-6.659787 4.441524 -0.705274 35.000000
-6.809904 4.510796 -0.719667 12.000000
-6.588424 4.637299 -0.709837 17.000000
-7.478840 4.753545 -0.780751 9.000000
-6.671695 4.790605 -0.723646 41.000000
-8.693588 4.858680 -0.703575 11.000000
-6.583179 4.853518 -0.720603 38.833336
-6.458261 4.840197 -0.711066 39.500000
-6.457414 4.935333 -0.716069 47.250000
-7.505882 5.039942 -0.796548 4.000000
-6.407851 5.042427 -0.718403 41.000000
-6.312218 5.064277 -0.712997 29.000000
-9.011127 5.299488 -0.738529 1.000000
-6.355789 5.252731 -0.726469 48.625000
-8.963944 5.347826 -0.737401 3.000000
-6.357304 5.351398 -0.732129 50.000000
-6.682261 5.430525 -0.758634 35.000000
-6.404287 5.503598 -0.743978 36.250000
8.256859 5.540005 -0.702448 9.333333
-8.971810 5.662979 -0.749522 10.000000
-6.445789 5.642783 -0.754773 39.000000
12.640285 5.792512 -0.740132 15.000000
13.252566 5.773384 -0.769473 4.000000
13.369535 5.749464 -0.774683 2.500000
-6.557876 5.870891 -0.775485 34.599998
12.460551 5.813037 -0.731911 25.500000
12.924059 5.824579 -0.754590 10.000000
13.068735 5.824024 -0.761607 5.666667
-6.467738 5.949486 -0.774256 37.000000
12.394931 5.933340 -0.731485 46.333332
-6.568989 6.010862 -0.784495 35.333332
-6.517077 6.147883 -0.789352 38.500000
-6.489377 6.121955 -0.786017 40.000000
12.372474 6.147144 -0.735401 32.000000
-6.532118 6.279423 -0.798304 40.000000
12.377331 6.361131 -0.740770 34.166664
7.491088 6.595188 -0.705098 39.200001
12.360096 6.558122 -0.744810 34.000000
12.493445 6.553644 -0.750975 19.000000
7.469158 6.701693 -0.708931 40.000000
7.432734 6.753891 -0.709495 42.666668
12.320154 6.721665 -0.747063 29.200001
7.437057 6.886904 -0.716072 46.333332
12.304357 6.915093 -0.751316 44.799999
-7.671029 7.078620 -0.737401 3.000000
7.435961 7.039328 -0.723378 46.000000
12.296050 7.066308 -0.754909 32.000000
7.400629 7.184290 -0.728663 40.500000
12.286278 7.185339 -0.757638 33.000000
-7.615061 7.228902 -0.741770 8.500000
7.375436 7.342244 -0.735217 44.250000
11.146078 7.385798 -0.711747 22.500000
12.282899 7.322087 -0.761181 38.666668
7.352374 7.481908 -0.741066 45.333332
11.102633 7.483184 -0.712704 8.000000
12.264647 7.486379 -0.764867 27.000000
12.218462 7.528612 -0.763945 8.000000
7.356288 7.628443 -0.748676 39.000000
12.258988 7.660266 -0.769473 43.000000
7.348047 7.765068 -0.755254 39.333332
12.255117 7.756397 -0.772025 26.000000
-7.744130 7.902528 -0.781657 1.000000
-7.484415 7.881420 -0.767844 2.000000
-6.748785 7.988870 -0.738811 42.000000
7.348028 7.938098 -0.764180 42.750000
12.242681 7.909292 -0.775852 35.799999
-6.908328 8.048636 -0.749334 20.333334
-6.731723 8.070914 -0.742475 31.500000
-6.614752 8.084671 -0.737965 36.500000
7.313913 8.077565 -0.769818 50.666668
-7.673221 8.131244 -0.789831 96.000000
7.300332 8.164977 -0.773764 48.000000
-7.653740 8.291311 -0.797160 44.500000
-7.470272 8.273286 -0.787482 34.333332
-6.597777 8.247279 -0.746140 36.333332
7.312001 8.256056 -0.779120 46.500000
-7.601098 8.312602 -0.795751 33.000000
-6.600311 8.357443 -0.752341 36.000000
7.315915 8.392455 -0.786542 46.666668
-6.647918 8.472308 -0.760797 35.000000
7.265963 8.549562 -0.792650 41.000000
7.312625 8.522814 -0.793355 45.500000
-6.685395 8.659204 -0.772848 39.250000
7.277682 8.618073 -0.796878 40.000000
-6.625041 8.721842 -0.773764 27.000000
-9.345514 9.903358 -0.724823 2.000000
-7.727071 10.769196 -0.705546 21.000000
-7.741576 10.939885 -0.713395 22.500000
-7.709188 11.059091 -0.717594 20.000000
6.960514 11.221894 -0.702923 45.000000
-6.825592 11.341780 -0.704624 4.666667
6.943467 11.393328 -0.710223 40.666668
6.917805 11.554300 -0.716850 38.000000
-7.619627 11.697413 -0.743109 11.000000
6.927725 11.822249 -0.729395 45.250000
6.886582 12.010077 -0.736943 40.500000
6.865948 12.150513 -0.742896 40.500000
6.857405 12.269880 -0.748211 40.000000
6.845952 12.340263 -0.751188 39.000000
6.872659 12.480673 -0.758417 43.000000
6.873646 12.575808 -0.762882 42.000000
6.822815 12.623871 -0.763839 41.000000
6.813179 12.749239 -0.769473 47.000000
6.788437 12.848307 -0.773513 43.500000
6.751648 13.025313 -0.780955 49.000000
6.702409 13.131547 -0.784782 41.000000
6.708045 13.245187 -0.790310 39.000000
-4.248932 13.394337 -0.747999 0.000000
-4.182204 13.402751 -0.747361 45.500000
6.665683 13.369291 -0.795201 41.000000
6.704063 13.341146 -0.794775 45.000000
-4.115478 13.410874 -0.746723 56.000000
-4.086086 13.465782 -0.749062 34.000000
4.556345 14.294144 -0.798602 81.000000
4.604905 14.291164 -0.799240 74.000000
4.516222 14.323625 -0.799453 75.000000
-7.238595 18.162107 -0.700518 34.000000
-7.204998 18.244244 -0.702810 26.000000
6.601247 18.467030 -0.702667 13.000000
-7.253983 18.538536 -0.713266 27.000000
6.408911 18.665728 -0.707107 43.000000
6.609884 18.676094 -0.709828 5.000000
-7.272282 18.758776 -0.720857 35.000000
6.529089 18.823004 -0.713838 7.000000
-7.330840 19.087524 -0.732601 30.000000
5.853062 19.325445 -0.723482 36.666668
-7.408717 19.472874 -0.746494 28.000000
5.834571 19.559210 -0.731312 46.000000
-7.361085 19.625443 -0.751006 27.500000
-7.362098 19.913021 -0.760673 27.000000
5.873723 19.918688 -0.744059 19.000000
-7.394341 20.195057 -0.770556 26.000000
5.807102 20.158785 -0.751650 1.000000
5.756876 20.223064 -0.753369 35.000000
-7.363557 20.308384 -0.773993 10.000000
5.714963 20.318014 -0.756233 42.000000
5.704618 20.528442 -0.763395 53.000000
5.693007 20.739004 -0.770556 39.000000
5.680129 20.949694 -0.777717 2.000000
-5.305729 -35.459137 -0.662138 29.000000
5.946582 -34.898956 -0.653792 57.000000
6.058245 -34.891926 -0.654014 12.000000
6.181067 -34.947544 -0.655417 4.000000
-5.549730 -34.842777 -0.651576 12.000000
-5.359481 -34.821255 -0.650641 25.333334
4.976707 -34.793846 -0.649102 46.500000
5.146149 -34.807640 -0.649804 29.000000
5.260852 -34.826893 -0.650469 24.000000
5.431707 -34.845135 -0.651281 60.000000
5.602181 -34.858685 -0.652020 23.000000
5.716834 -34.872486 -0.652610 43.000000
5.830979 -34.881966 -0.653127 69.000000
-5.638630 -34.698849 -0.649213 24.000000
4.809113 -34.791210 -0.648622 2.000000
16.063543 -29.945829 -0.627573 28.000000
15.525370 -29.836668 -0.621147 2.000000
16.075777 -29.743929 -0.624397 33.000000
16.123234 -29.608988 -0.622624 48.000000
16.245029 -29.610785 -0.623732 57.000000
15.621695 -29.343063 -0.613909 33.000000
7.831678 -16.545607 -0.655880 14.333333
9.075244 -16.541988 -0.676027 9.000000
7.895072 -16.412075 -0.652538 16.000000
12.348139 -14.905067 -0.693500 6.000000
12.512204 -14.911400 -0.697439 25.000000
11.634891 -14.833191 -0.675454 31.000000
11.718585 -14.843631 -0.677602 5.000000
11.843227 -14.856977 -0.680753 22.500000
12.004165 -14.866230 -0.684620 39.000000
12.170731 -14.880245 -0.688774 20.000000
11.003838 -14.682404 -0.657407 4.000000
11.445714 -14.686796 -0.667147 7.000000
11.018574 -14.558678 -0.654185 18.500000
11.225759 -14.498269 -0.656978 30.000000
11.107467 -14.485935 -0.654042 24.500000
-5.211206 -11.865728 -0.689847 26.500000
-5.185051 -11.656768 -0.679110 33.000000
-5.212029 -11.570278 -0.675495 31.000000
-5.236363 -11.431997 -0.669329 30.500000
5.434986 -11.410954 -0.672792 51.428570
5.504176 -11.345478 -0.671243 62.000000
-6.251258 -11.226707 -0.684000 8.000000
-6.169401 -11.203565 -0.680811 0.000000
-5.252404 -11.279398 -0.662313 32.500000
5.515223 -11.277896 -0.668266 30.000000
-5.269406 -11.132418 -0.655615 32.500000
-6.889535 -11.068504 -0.693993 7.000000
-5.325356 -11.048117 -0.652851 37.250000
-5.372586 -10.947460 -0.649130 33.000000
-5.398431 -10.827681 -0.644027 33.333332
-5.499069 -10.568002 -0.634141 31.500000
-5.367119 -10.515400 -0.628435 31.333334
5.159281 -10.143160 -0.605756 18.000000
7.982111 -10.139819 -0.686924 11.250000
8.144522 -10.180583 -0.693993 12.000000
-5.348526 -10.008398 -0.604055 36.000000
-5.274353 -10.020652 -0.602779 32.000000
5.181413 -10.069008 -0.602779 79.000000
5.257221 -10.022092 -0.602425 76.000000
8.308516 -10.057557 -0.694418 7.000000
-5.497302 -9.909234 -0.603204 3.000000
-5.408479 -9.920040 -0.601432 32.000000
5.313871 -9.977130 -0.601716 54.000000
5.419547 -9.911593 -0.601326 53.166668
5.718766 -9.897012 -0.608449 69.666664
5.876201 -9.916301 -0.613569 52.500000
6.026953 -9.920210 -0.617875 34.333332
6.120532 -9.933238 -0.621064 9.000000
8.278392 -9.893813 -0.686693 16.000000
5.562283 -9.839228 -0.601645 57.000000
8.298487 -9.761072 -0.681980 13.000000
8.309299 -9.680938 -0.679110 4.000000
-2.185576 -9.466770 -0.686381 0.000000
-7.675098 -9.383820 -0.645303 10.000000
-2.208604 -9.365100 -0.679757 1.000000
-2.221802 -9.162970 -0.666085 0.000000
-2.226650 -8.997473 -0.654810 0.000000
7.837287 -9.034812 -0.636657 33.666668
8.283861 -9.030711 -0.652320 3.500000
7.805243 -8.894020 -0.629888 16.000000
-8.387691 -8.807943 -0.647429 9.000000
-2.231383 -8.837934 -0.643958 0.000000
8.308784 -8.860473 -0.646579 2.333333
-2.239709 -8.697880 -0.634515 0.000000
7.870511 -8.661718 -0.622978 3.000000
-2.253763 -8.584963 -0.627045 0.000000
4.187916 -8.518552 -0.670595 4.666667
-2.269288 -8.428074 -0.616615 0.000000
4.246650 -8.461328 -0.668823 15.285714
-3.360311 -8.292018 -0.632072 1.666667
-2.374865 -8.298566 -0.609803 4.166667
-2.285275 -8.330708 -0.610273 1.000000
-3.269793 -8.279478 -0.628877 2.500000
-3.125012 -8.252449 -0.623408 2.400000
-2.976567 -8.249480 -0.619575 3.200000
-2.830036 -8.246912 -0.615967 2.200000
-2.673970 -8.253922 -0.612951 2.333333
-2.519892 -8.262677 -0.610273 3.400000
8.327192 -8.080890 -0.617662 10.000000
-8.286039 -7.968266 -0.611922 0.000000
-5.644675 -7.926726 -0.687473 30.625000
8.283081 -7.962677 -0.611603 5.000000
-8.792157 -7.839033 -0.627018 1.000000
8.212070 -7.820249 -0.603630 1.000000
-5.958034 -7.770276 -0.691736 78.000000
-5.629053 -7.618345 -0.669186 26.333334
-5.587824 -7.529712 -0.662421 36.000000
-6.361593 -7.485427 -0.693991 6.000000
-5.666169 -7.425804 -0.659884 29.500000
-5.594388 -7.440200 -0.657629 35.000000
-6.188733 -7.328564 -0.677642 11.000000
-6.457270 -7.222063 -0.684408 4.000000
-5.941522 -7.241018 -0.661716 15.500000
-5.673699 -7.227604 -0.649137 21.375000
5.100305 -7.209953 -0.623916 24.000000
-6.410537 -7.124622 -0.677079 1.000000
-5.908113 -7.131537 -0.654246 24.000000
-5.757229 -7.118365 -0.646776 22.500000
5.442553 -7.003816 -0.626622 55.000000
5.530831 -7.025950 -0.631696 8.500000
-6.304338 -6.962477 -0.663548 1.000000
5.019558 -6.941946 -0.605199 41.000000
5.136839 -6.896416 -0.607510 29.600000
5.346823 -6.981894 -0.621266 46.500000
-6.297847 -6.803286 -0.654951 11.500000
-5.775836 -6.883373 -0.634796 18.000000
-5.669862 -6.800353 -0.625494 18.000000
-5.794657 -6.753517 -0.628666 7.500000
-6.087000 -6.680150 -0.638461 4.000000
-5.997642 -6.458751 -0.622676 15.000000
-7.301853 -6.327209 -0.682575 1.500000
-9.674970 -6.215988 -0.612134 5.000000
7.964827 -5.421023 -0.680649 39.666668
-5.898892 -5.292773 -0.698252 40.000000
5.629629 -5.361024 -0.684912 107.000000
-5.829002 -5.263214 -0.691933 37.000000
7.976757 -5.265690 -0.675246 49.500000
8.123164 -5.235022 -0.682716 43.000000
-6.049204 -5.126469 -0.698604 27.000000
-5.965019 -5.135993 -0.693513 34.250000
-5.861763 -5.160571 -0.688072 38.666668
8.108266 -5.135864 -0.678065 48.000000
7.971897 -5.049338 -0.666649 55.000000
7.981784 -4.926633 -0.662646 50.000000
7.995028 -4.812387 -0.659250 50.250000
8.066180 -4.812224 -0.663548 50.000000
-6.299504 -4.769496 -0.696146 14.000000
7.991776 -4.649535 -0.653189 52.000000
-6.263369 -4.543924 -0.681753 5.000000
7.984168 -4.544857 -0.649031 60.000000
8.052443 -4.533616 -0.652837 42.000000
-6.168153 -4.474935 -0.671397 16.500000
8.094697 -4.490663 -0.653964 44.666668
8.128483 -4.409723 -0.653307 44.666668
8.396303 -4.419380 -0.670313 64.000000
8.552740 -4.478905 -0.682059 49.333332
8.202973 -4.383659 -0.657065 49.000000
8.519190 -4.382027 -0.676797 63.000000
-10.620824 -4.196509 -0.607882 3.000000
-6.423763 -4.271170 -0.679646 14.000000
8.436207 -4.272530 -0.668058 94.000000
-10.488860 -4.182509 -0.601078 3.000000
4.755558 -4.145617 -0.666982 80.000000
-11.348863 -4.076896 -0.641901 3.000000
5.167422 -4.053194 -0.694318 62.500000
8.240055 -4.076070 -0.649454 2.000000
10.662527 -3.999287 -0.606181 44.000000
-10.973988 -3.903344 -0.620001 1.000000
-10.673020 -3.948068 -0.605756 3.500000
-6.383512 -3.970362 -0.662328 19.000000
5.286170 -3.910301 -0.695159 84.666664
8.191653 -3.935430 -0.642031 3.666667
10.675589 -3.902416 -0.605047 32.333332
11.007144 -3.893511 -0.621490 30.000000
-6.279489 -3.878254 -0.693175 45.666668
-5.971167 -3.803219 -0.623741 46.250000
5.325990 -3.824274 -0.693196 97.000000
8.190345 -3.829668 -0.638743 3.000000
8.203537 -3.867290 -0.640716 0.000000
10.874489 -3.885068 -0.614686 39.000000
11.289693 -3.834532 -0.634672 30.000000
11.461378 -3.812693 -0.642964 30.000000
11.697755 -3.809841 -0.654871 49.799999
-6.178863 -3.727330 -0.635764 13.000000
5.416888 -3.787190 -0.698776 85.199997
8.207867 -3.744042 -0.637333 4.000000
10.823287 -3.790262 -0.610433 59.000000
10.952412 -3.777623 -0.616706 42.500000
11.127521 -3.740501 -0.624892 55.000000
11.607331 -3.699908 -0.648492 30.000000
11.882022 -3.705389 -0.662525 19.000000
-6.131698 -3.663956 -0.629328 33.000000
-6.034314 -3.666036 -0.622073 23.000000
8.187599 -3.672785 -0.633951 2.000000
8.217859 -3.614320 -0.634233 2.666667
11.527470 -3.634597 -0.643390 46.000000
11.905056 -3.671573 -0.663163 35.000000
12.042420 -3.603846 -0.669117 32.666668
12.149697 -3.663583 -0.675495 30.000000
17.325819 -3.603775 -0.634062 16.000000
-8.831895 -3.586262 -0.673414 3.000000
-6.135544 -3.493976 -0.622073 19.000000
12.003442 -3.496411 -0.665502 31.000000
-8.363013 -3.457237 -0.639307 2.000000
-6.216446 -3.488508 -0.628041 23.000000
-5.978070 -3.473719 -0.609162 36.000000
8.177939 -3.424261 -0.626340 4.000000
8.220472 -3.487690 -0.630850 3.500000
12.247302 -3.442452 -0.677196 36.500000
12.542237 -3.440581 -0.692292 27.000000
16.733959 -3.425859 -0.612005 43.000000
16.885714 -3.401690 -0.617161 39.000000
17.472233 -3.434292 -0.638000 46.000000
-12.105968 -3.384606 -0.669117 0.000000
-6.137172 -3.293372 -0.613648 44.666668
-6.000925 -3.375830 -0.606627 37.333332
8.170229 -3.390905 -0.624931 27.000000
8.225373 -3.333305 -0.626998 7.666667
17.580511 -3.369564 -0.641366 36.000000
19.225880 -3.372744 -0.699373 37.000000
-12.082552 -3.133761 -0.664439 0.000000
-8.143132 -3.158514 -0.617038 13.000000
-6.091496 -3.154796 -0.604403 48.000000
8.235350 -3.177856 -0.623615 3.666667
-6.799076 -3.038525 -0.656126 12.000000
-6.751047 -3.035294 -0.689064 13.571428
-6.552797 -3.002871 -0.635062 35.000000
8.240677 -2.992956 -0.619387 2.333333
-5.860114 -2.969145 -0.694528 35.000000
-6.205082 -2.890870 -0.603116 31.000000
-5.959725 -2.856834 -0.698734 39.500000
8.252312 -2.860883 -0.617038 1.000000
-8.110314 -2.742022 -0.604823 14.333333
-6.682056 -2.786946 -0.637871 33.000000
-5.946788 -2.755424 -0.692916 31.333334
8.264062 -2.720302 -0.614642 3.500000
-8.544446 -2.622088 -0.631414 1.000000
-8.470698 -2.657801 -0.627186 8.000000
-8.244104 -2.672312 -0.612246 11.000000
-6.636179 -2.646225 -0.629445 42.000000
-6.398855 -2.668829 -0.610839 49.000000
-6.636409 -2.502398 -0.624882 5.000000
-6.442759 -2.534005 -0.609962 18.000000
-5.975517 -2.541996 -0.686538 33.250000
8.279659 -2.582068 -0.612716 6.000000
-6.778614 -2.425511 -0.609343 2.600000
-6.640790 -2.456503 -0.623828 1.000000
-6.115102 -2.421906 -0.695369 28.750000
-6.029423 -2.459334 -0.688430 44.000000
8.283129 -2.405716 -0.609357 2.250000
-8.482853 -2.386005 -0.622535 14.000000
-6.801908 -2.299700 -0.632605 3.000000
-2.845522 -2.343984 -0.685665 4.500000
8.293752 -2.261118 -0.607313 0.500000
-8.544475 -2.130377 -0.622112 3.000000
-6.177161 -2.110099 -0.690112 19.000000
8.302608 -2.110152 -0.605199 0.800000
11.317677 -2.093528 -0.612666 22.250000
11.348331 -2.025533 -0.613623 12.000000
-8.545794 -1.988669 -0.619857 17.000000
-6.084296 -1.936395 -0.686330 37.599998
8.319955 -1.989787 -0.604353 1.000000
-9.265290 -1.851388 -0.667495 0.000000
-9.149942 -1.858249 -0.659602 13.000000
-6.239902 -1.702364 -0.683804 54.000000
-6.088263 -1.647750 -0.666842 41.666668
8.348658 -1.653092 -0.601253 3.000000
-8.787793 -1.527688 -0.630145 13.500000
-6.029383 -1.523486 -0.657478 44.400002
8.352147 -1.572116 -0.600407 3.000000
-9.024484 -1.481052 -0.646072 2.000000
-8.438465 -1.453019 -0.604917 9.000000
-6.122409 -1.472095 -0.665721 31.333334
-6.025996 -1.366533 -0.653273 47.599998
-8.924354 -1.206620 -0.636206 1.000000
-6.225523 -1.223657 -0.670767 24.000000
-6.078499 -1.203884 -0.674873 39.636364
-6.402199 -1.050696 -0.685907 38.000000
-5.988277 -1.050659 -0.624941 48.666668
-9.063518 -0.951020 -0.643817 4.500000
-8.531434 -0.935852 -0.606326 19.000000
-6.751957 -0.929053 -0.600483 21.000000
-6.078124 -0.908031 -0.603249 39.428570
8.592175 -0.900011 -0.610329 16.200001
-6.811704 -0.888307 -0.605222 22.000000
-6.061193 -0.800199 -0.646376 50.000000
-6.886898 -0.762606 -0.610488 32.833332
-6.039465 -0.750996 -0.643432 47.400002
8.615146 -0.745403 -0.610907 11.000000
-8.525824 -0.651491 -0.604071 10.500000
-6.827257 -0.683859 -0.604520 2.000000
-6.144691 -0.674039 -0.653525 35.000000
-6.051631 -0.683077 -0.643853 38.000000
8.611305 -0.596788 -0.609822 8.000000
-6.585524 -0.534485 -0.698523 46.000000
-9.718430 -0.466988 -0.687367 7.500000
-8.784354 -0.491121 -0.621548 47.000000
-8.498969 -0.448388 -0.601253 11.000000
-6.120719 -0.424252 -0.621499 44.000000
8.604199 -0.447918 -0.608675 13.333333
-6.174131 -0.314038 -0.653609 41.599998
-6.084535 -0.340178 -0.644273 41.000000
8.594723 -0.316665 -0.607595 12.500000
-8.859587 -0.202581 -0.626058 6.000000
-8.686241 -0.266906 -0.613937 0.000000
-6.104965 -0.110825 -0.645535 12.000000
8.586669 -0.181361 -0.606749 12.500000
-8.935646 -0.035810 -0.631273 13.000000
-8.758170 0.006114 -0.618729 38.000000
-6.539306 -0.057067 -0.691374 1.000000
-6.408131 -0.001977 -0.677496 19.666666
8.578484 -0.046415 -0.606045 13.500000
-9.619531 0.097380 -0.679616 0.000000
-7.208025 0.027675 -0.635062 6.000000
-6.825394 0.047651 -0.601361 54.000000
-6.562475 0.107548 -0.693897 27.666666
8.572170 0.088278 -0.605622 13.500000
-8.891545 0.201778 -0.628313 46.000000
-6.158484 0.197842 -0.651422 36.000000
-9.435146 0.273511 -0.666837 2.333333
8.552773 0.282958 -0.604565 23.750000
-6.540226 0.352291 -0.692467 11.000000
-9.577142 0.458348 -0.677360 1.000000
-6.182796 0.432364 -0.699029 41.200001
8.545273 0.457593 -0.604565 18.500000
-9.038605 0.517996 -0.639588 1.000000
-7.774068 0.580546 -0.686843 11.000000
-6.559549 0.603894 -0.696421 71.000000
-6.212948 0.583794 -0.659749 29.600000
-9.276079 0.677936 -0.657065 13.000000
-6.185522 0.628303 -0.657310 46.000000
8.537436 0.620969 -0.604729 22.333334
-9.496700 0.724064 -0.672850 1.000000
8.526630 0.754985 -0.604729 21.000000
-9.310567 0.886666 -0.660729 1.000000
-6.957026 0.817264 -0.617158 27.000000
-6.839705 0.825272 -0.606978 3.000000
8.498206 0.896208 -0.603696 22.666666
8.508400 0.888264 -0.604353 22.000000
-9.043854 0.947355 -0.642407 4.000000
8.530159 1.017159 -0.606890 30.000000
9.480022 1.070057 -0.673978 17.000000
8.532900 1.153693 -0.608300 32.000000
9.356264 1.175352 -0.666179 52.000000
-6.832755 1.262033 -0.612185 21.500000
-6.786081 1.277339 -0.608382 45.000000
8.553178 1.293546 -0.611118 40.000000
-11.575900 1.359857 -0.620427 1.000000
-9.499037 1.389144 -0.678206 2.000000
8.932170 1.322174 -0.637897 90.000000
9.345865 1.323483 -0.666837 56.333332
-7.665740 1.492845 -0.688072 30.000000
8.575094 1.434978 -0.614219 53.000000
8.784303 1.441634 -0.628877 100.000000
9.341004 1.472802 -0.668058 57.333332
-8.815351 1.544868 -0.632259 8.000000
-8.452662 1.577249 -0.607454 11.000000
8.717381 1.571646 -0.625776 97.000000
-7.532427 1.664381 -0.679646 30.000000
-7.324984 1.642699 -0.661391 5.000000
8.625547 1.639312 -0.620280 80.500000
9.335063 1.622535 -0.669374 59.333332
-8.468875 1.769217 -0.611212 10.000000
-7.460979 1.796733 -0.676136 78.000000
8.480292 1.805635 -0.612528 17.000000
8.658821 1.730203 -0.623803 96.000000
9.325412 1.772192 -0.670595 58.333332
-7.107707 1.830240 -0.646647 0.000000
-7.054163 1.963735 -0.619561 8.000000
8.470329 1.943076 -0.613937 21.000000
9.324816 1.933061 -0.672770 53.285713
-11.102365 2.071676 -0.601184 10.000000
8.462011 2.081601 -0.615628 21.000000
9.313178 2.074934 -0.674072 55.333332
-8.636749 2.252923 -0.630568 1.000000
-8.358606 2.250720 -0.611541 22.000000
-7.035419 2.252197 -0.676739 4.800000
8.524748 2.239606 -0.622676 48.000000
8.817550 2.286942 -0.643535 92.000000
9.294210 2.209069 -0.674894 61.500000
-11.496839 2.313993 -0.624254 0.000000
-6.880915 2.355137 -0.640767 18.500000
-6.731594 2.369196 -0.628743 30.500000
-6.606790 2.407334 -0.619528 21.250000
8.622936 2.396208 -0.632259 83.500000
9.295927 2.348800 -0.677360 60.333332
-8.834745 2.483336 -0.648327 13.000000
-6.568534 2.493123 -0.619001 23.250000
8.433187 2.507149 -0.621548 17.600000
9.284855 2.501791 -0.679334 55.333332
-8.980011 2.585155 -0.660166 12.000000
-8.676868 2.527434 -0.638461 33.000000
-6.466610 2.518577 -0.611424 40.000000
8.672725 2.513095 -0.637897 52.000000
-9.093719 2.679876 -0.669750 3.000000
-8.468333 2.611674 -0.626058 0.000000
-6.681529 2.650803 -0.633307 6.000000
-6.560013 2.700761 -0.602443 40.454544
8.490438 2.634727 -0.628031 40.000000
9.277365 2.640986 -0.681448 54.500000
-11.123239 2.789837 -0.610433 1.000000
-10.967312 2.787378 -0.602354 14.000000
-8.537586 2.795472 -0.634655 26.500000
-6.480841 2.761640 -0.620669 42.000000
8.604086 2.803921 -0.639307 77.000000
-6.569869 2.860875 -0.606207 34.200001
8.420111 2.876283 -0.628595 19.000000
9.154765 2.809379 -0.676515 52.000000
9.261848 2.831694 -0.684220 57.333332
-11.407207 2.937364 -0.627018 3.000000
-8.955004 2.994635 -0.667072 17.000000
9.262058 2.954128 -0.686803 54.000000
8.494057 3.051352 -0.637615 47.000000
8.736680 3.107555 -0.655092 86.000000
9.253652 3.063936 -0.688636 54.000000
8.401905 3.148027 -0.633857 10.666667
9.239685 3.134664 -0.689293 51.000000
-6.536340 3.258897 -0.643488 29.000000
8.387031 3.283469 -0.636300 6.333333
9.237443 3.274856 -0.692394 51.333332
-11.532626 3.398610 -0.639988 1.000000
9.237418 3.400546 -0.695401 48.000000
-8.760141 3.459528 -0.665381 7.500000
-6.714490 3.440636 -0.664726 10.000000
8.384687 3.414901 -0.639588 11.000000
8.378739 3.577412 -0.643629 5.666667
-11.943276 3.642308 -0.664652 0.000000
-11.859252 3.657449 -0.660612 1.000000
8.342803 3.697021 -0.644662 0.000000
-6.821440 3.728441 -0.684912 50.000000
-6.661057 3.727370 -0.672508 31.666666
8.371001 3.741161 -0.647763 15.000000
-6.602324 3.841159 -0.672976 36.000000
8.346470 3.824837 -0.648609 3.000000
-6.682738 3.944304 -0.683684 40.500000
8.356226 3.941056 -0.652696 9.000000
-10.839787 4.026975 -0.615536 2.000000
-6.802676 4.058428 -0.697901 21.000000
8.359238 4.052131 -0.656276 7.400000
-6.642765 4.178320 -0.691407 33.000000
-6.437578 4.185851 -0.676537 36.428570
8.362748 4.187752 -0.660729 0.000000
-11.062527 4.228792 -0.630420 3.000000
-10.516384 4.210512 -0.602992 1.000000
8.338007 4.219130 -0.660166 11.333333
-10.410995 4.320894 -0.600015 7.000000
-6.500246 4.364692 -0.689827 21.000000
8.333845 4.349433 -0.664112 10.666667
-6.534827 4.462769 -0.697199 55.000000
8.321867 4.482738 -0.667777 7.500000
-10.349662 4.525959 -0.601291 1.000000
-8.551575 4.535475 -0.683844 3.000000
-6.465681 4.543311 -0.696234 32.250000
-7.458053 4.674802 -0.621830 30.000000
8.313726 4.614059 -0.671723 8.000000
8.312244 4.750842 -0.676374 8.000000
-10.401835 4.903607 -0.612134 1.000000
8.296866 4.943144 -0.682293 10.750000
8.291902 5.109327 -0.688072 8.500000
8.279764 5.261073 -0.693033 6.400000
8.279549 5.411803 -0.698783 8.500000
7.862364 5.591623 -0.681589 32.000000
8.050003 5.546045 -0.690609 14.833334
-6.419906 5.668001 -0.605011 39.333332
7.580678 5.683584 -0.669355 39.400002
7.690526 5.616178 -0.672756 38.000000
7.824588 5.620439 -0.680602 36.500000
7.989757 5.625710 -0.690327 23.500000
-6.473783 5.806551 -0.614360 35.000000
-6.498116 5.883870 -0.619293 40.000000
7.552225 5.830750 -0.674048 41.750000
-6.522938 5.973911 -0.624874 32.400002
7.549476 5.988002 -0.680743 34.333332
-9.636478 6.019227 -0.604799 2.500000
7.612194 6.011748 -0.685253 43.000000
-6.340676 6.133803 -0.623239 34.500000
7.537966 6.128214 -0.686310 37.250000
-9.598531 6.293175 -0.610965 5.000000
-6.746009 6.303856 -0.652273 29.000000
-6.545100 6.258942 -0.639776 23.333334
-6.357374 6.208236 -0.627749 43.000000
7.507104 6.261411 -0.690609 41.000000
-6.842187 6.393852 -0.661575 25.000000
-6.671463 6.313303 -0.648890 9.000000
7.489215 6.407790 -0.696317 39.750000
-6.558207 6.465005 -0.650582 35.000000
-9.179432 6.569405 -0.600865 3.000000
-6.586063 6.595449 -0.658474 36.000000
-6.545738 6.714610 -0.662468 27.666666
-6.481872 6.761609 -0.661716 33.000000
-6.489789 6.834035 -0.665803 15.000000
18.150877 6.971104 -0.696651 0.000000
-7.703697 8.266989 -0.601503 72.000000
7.331780 8.572287 -0.600440 38.000000
-8.044068 8.686803 -0.630207 16.000000
7.265173 8.658329 -0.601645 43.666668
-8.117756 8.849731 -0.639243 17.000000
7.272861 8.835424 -0.609158 43.000000
7.311063 8.881655 -0.612347 37.000000
-8.168678 8.989858 -0.646579 15.000000
-7.923527 9.000133 -0.638287 1.000000
7.237827 8.963646 -0.613268 39.666668
-8.128036 9.058844 -0.647855 3.000000
-7.885347 9.128822 -0.642114 1.000000
7.237234 9.108300 -0.619257 38.000000
7.214850 9.257992 -0.624785 48.500000
7.175995 9.419916 -0.630349 39.333332
7.160092 9.553783 -0.635523 38.500000
7.134404 9.645119 -0.638606 40.000000
-7.584918 9.792523 -0.659336 17.000000
7.158511 9.773705 -0.644878 36.000000
-7.548391 9.840832 -0.660187 26.000000
7.179179 9.899486 -0.650938 35.000000
-7.740892 9.929306 -0.670180 22.000000
7.142960 9.947806 -0.651894 35.000000
-7.976420 10.099899 -0.685063 1.000000
-7.592717 10.083027 -0.671881 27.333334
-7.467935 10.059173 -0.666884 40.000000
7.132589 10.066364 -0.656714 36.000000
-7.470922 10.185211 -0.672377 29.666666
7.106604 10.198565 -0.661675 40.000000
-7.463576 10.287824 -0.676558 4.000000
7.077432 10.328741 -0.666494 39.000000
-6.900537 10.497213 -0.668691 38.666668
7.063824 10.484501 -0.672944 41.000000
-6.861905 10.621531 -0.673114 31.799999
7.075407 10.681685 -0.682016 42.666668
-6.846514 10.767582 -0.679216 37.000000
7.008346 10.763193 -0.683681 47.500000
-6.915889 10.990755 -0.691229 38.000000
7.011816 10.917921 -0.690698 43.000000
-6.850200 11.039602 -0.691584 39.000000
6.975580 11.090036 -0.697395 41.000000
7.008546 11.026678 -0.695482 42.000000
-6.845346 11.214596 -0.699380 27.333334
-7.194706 15.324224 -0.606562 29.000000
-7.081518 15.332837 -0.605130 19.000000
-7.101569 15.504014 -0.611002 17.000000
6.633898 15.425860 -0.601645 53.666668
6.781922 15.434922 -0.604056 47.000000
6.878125 15.455781 -0.606133 30.000000
-7.050668 15.586454 -0.612936 26.500000
6.394312 15.536850 -0.601979 47.000000
-7.015451 15.705303 -0.616302 17.000000
6.375113 15.700145 -0.607135 46.000000
7.064133 15.740445 -0.618163 2.000000
-7.606553 15.897246 -0.631436 16.333334
-7.514737 15.876034 -0.629335 18.000000
6.338274 15.822783 -0.610716 49.000000
6.344576 15.983802 -0.616158 39.000000
6.210866 16.012630 -0.615371 46.000000
6.342613 16.126417 -0.620885 42.000000
-7.179773 16.209719 -0.635207 49.000000
-7.177039 16.341993 -0.639504 104.000000
6.267457 16.387096 -0.628619 48.000000
-7.171939 16.470747 -0.643658 29.000000
6.269763 16.548754 -0.634062 26.000000
-7.224731 16.735418 -0.653111 33.000000
-8.554101 16.956306 -0.680467 0.000000
-7.401756 17.294584 -0.674022 41.000000
-7.257301 17.255999 -0.670727 31.000000
-7.353628 17.332476 -0.674595 23.000000
-7.214573 17.357609 -0.673496 28.333334
-7.183728 17.541885 -0.679178 29.000000
-7.185704 17.705122 -0.684620 25.000000
-7.152424 17.783237 -0.686769 29.000000
6.765499 18.027975 -0.689920 9.000000
6.745040 18.146561 -0.693644 9.000000
6.730808 18.283953 -0.698084 17.000000
6.645243 18.317324 -0.698155 17.500000
-7.631714 34.282833 -0.648622 6.000000
7.527406 -30.623041 -0.582371 25.000000
7.623575 -30.599241 -0.582371 38.000000
7.503303 -29.718184 -0.566049 38.000000
7.648731 -29.703762 -0.566455 42.500000
-4.881221 -29.453173 -0.551351 6.000000
-5.060079 -29.386450 -0.550686 44.000000
-4.933085 -29.197142 -0.546846 52.000000
7.688605 -29.286402 -0.559180 39.000000
7.723025 -29.045662 -0.555044 17.000000
7.809038 -29.001947 -0.554675 20.000000
-5.045955 -28.763775 -0.539312 20.000000
7.799126 -28.606853 -0.547584 16.000000
7.990547 -28.599657 -0.548397 50.000000
8.170088 -28.548887 -0.548397 22.000000
7.834686 -28.385599 -0.543817 15.000000
8.020502 -28.362749 -0.544334 40.000000
8.352408 -28.179203 -0.542783 15.000000
8.132922 -28.085150 -0.539977 15.000000
8.134522 -27.763935 -0.534290 51.000000
-4.798653 -26.858034 -0.503860 2.000000
-4.849366 -26.657894 -0.500389 26.000000
16.328022 -26.509710 -0.574986 2.000000
16.369062 -26.390310 -0.573508 38.000000
16.381975 -26.226818 -0.571071 34.000000
7.831001 -26.118649 -0.503565 20.000000
16.402531 -26.077051 -0.568929 37.000000
16.510056 -26.065937 -0.569816 42.000000
16.615519 -26.051029 -0.570628 3.000000
8.275525 -25.821684 -0.500758 2.000000
8.450045 -25.807188 -0.501497 4.000000
-2.167168 -15.478997 -0.560014 50.000000
-2.066285 -15.465849 -0.559059 52.666668
4.820886 -15.340360 -0.576141 61.000000
4.919056 -15.348672 -0.577487 26.000000
-1.460415 -14.814589 -0.533374 5.666667
-1.314541 -14.757345 -0.530843 10.000000
-1.664751 -14.543637 -0.524494 5.000000
-1.513427 -14.423511 -0.519624 21.000000
-1.534243 -14.192151 -0.511460 5.000000
7.702244 -14.144536 -0.577058 4.000000
7.748424 -14.018891 -0.573907 23.000000
7.821382 -14.011879 -0.574957 29.333334
8.399275 -13.929131 -0.582787 5.000000
8.391117 -13.817259 -0.579206 15.000000
8.390685 -13.719214 -0.576198 13.000000
8.830162 -13.607631 -0.581211 10.000000
8.392438 -13.530343 -0.570469 3.000000
8.871609 -13.485048 -0.578347 18.500000
5.990657 -13.336211 -0.523825 8.333333
6.142903 -13.300556 -0.524923 7.000000
8.365862 -13.346680 -0.564382 20.500000
6.056103 -13.276600 -0.522847 21.000000
6.177909 -13.266696 -0.524350 0.000000
8.382688 -13.234517 -0.561303 6.000000
6.696000 -13.170042 -0.529363 2.000000
8.374950 -13.040318 -0.555287 2.000000
8.373830 -12.860147 -0.549845 9.000000
8.360815 -12.622378 -0.542469 5.500000
8.354177 -12.441819 -0.536954 4.000000
8.352188 -12.312973 -0.533087 4.000000
8.350251 -12.227252 -0.530509 4.000000
-7.544641 -11.948290 -0.506304 4.000000
-9.473372 -11.002155 -0.520197 4.000000
-5.375544 -9.834926 -0.596613 29.000000
-5.453633 -9.686546 -0.591723 33.000000
-5.399304 -9.519964 -0.582580 33.000000
-2.324999 -9.394883 -0.515179 0.000000
-5.372575 -9.335851 -0.573367 32.333332
-2.373160 -9.337505 -0.512841 1.000000
-5.410547 -9.167286 -0.566634 32.750000
-2.415998 -9.164071 -0.504478 2.000000
-5.428742 -9.003005 -0.559617 34.500000
-2.457904 -9.071612 -0.500296 1.000000
-3.226631 -8.986776 -0.508269 0.000000
-3.128675 -8.979008 -0.506143 0.750000
-3.018925 -8.934372 -0.501997 1.000000
-6.346191 -8.838169 -0.579178 5.000000
-5.495110 -8.859289 -0.554939 26.000000
-5.365155 -8.803349 -0.548773 35.000000
-6.315429 -8.737258 -0.573863 4.000000
-5.521958 -8.748390 -0.550687 35.000000
-5.421790 -8.751345 -0.547994 26.333334
-6.452994 -8.526138 -0.569185 8.500000
-5.527088 -8.517477 -0.540481 21.000000
-5.437998 -8.555704 -0.539631 35.000000
4.187717 -8.518152 -0.505257 5.333333
-6.415521 -8.421687 -0.563551 13.000000
-5.843925 -8.471219 -0.547817 21.500000
-5.640929 -8.400727 -0.538639 21.000000
-5.548213 -8.433655 -0.537363 29.333334
-5.426444 -8.449312 -0.534528 34.000000
4.245847 -8.459711 -0.503850 18.428572
-5.544406 -8.257172 -0.529425 34.000000
5.793314 -8.273735 -0.537646 38.666668
5.831261 -8.226643 -0.536760 44.500000
-6.551709 -8.140072 -0.556215 5.000000
-5.536763 -8.190075 -0.526236 35.000000
-7.442515 -7.964381 -0.580241 0.000000
-6.539340 -7.944147 -0.547710 4.000000
-5.633885 -7.951178 -0.518723 30.000000
-5.573173 -7.971154 -0.517731 39.000000
-6.446486 -7.707163 -0.534847 12.000000
-5.640175 -7.751647 -0.510289 27.000000
-5.568579 -7.729499 -0.507100 13.000000
-7.510100 -7.642307 -0.570354 0.500000
-5.634232 -7.642086 -0.505399 35.666668
6.793564 -7.633331 -0.543944 47.000000
6.895609 -7.620782 -0.547072 31.333334
-6.462292 -7.507806 -0.527299 8.000000
-5.677343 -7.583545 -0.504265 27.000000
-7.479396 -7.422179 -0.560893 0.000000
-6.407389 -7.396893 -0.520920 4.000000
-6.332229 -7.403613 -0.518581 16.000000
-5.902076 -7.309302 -0.500083 8.000000
-6.161497 -7.249982 -0.506462 20.000000
8.221251 -7.212380 -0.582155 4.000000
-7.563313 -7.070201 -0.551112 7.000000
-7.565712 -6.961904 -0.547285 0.000000
-8.613532 -6.542766 -0.575776 7.000000
8.025784 -6.543452 -0.551219 43.500000
-8.343903 -6.296721 -0.556428 15.000000
8.004657 -6.319403 -0.542873 51.250000
-8.312511 -6.232137 -0.553026 7.000000
8.018592 -6.228827 -0.540481 6.000000
-5.687790 -6.163800 -0.592514 16.000000
-8.714713 -5.993935 -0.563019 1.000000
-8.693921 -5.939490 -0.560468 0.000000
-5.876614 -5.905439 -0.588568 2.500000
6.105484 -5.814174 -0.595615 57.000000
6.139738 -5.719434 -0.592796 84.666664
-6.007021 -5.668653 -0.583494 45.000000
-5.797683 -5.610504 -0.569964 18.000000
-5.792697 -5.676590 -0.572971 2.666667
6.169923 -5.622076 -0.589695 3.000000
8.023085 -5.665987 -0.522834 30.000000
-5.743381 -5.523119 -0.562917 18.000000
5.183574 -5.539340 -0.535950 18.000000
8.029036 -5.576221 -0.520353 59.333332
8.150703 -5.566257 -0.525385 43.000000
-5.904235 -5.415949 -0.566017 25.000000
-5.760371 -5.427427 -0.559135 29.250000
5.191189 -5.483770 -0.533460 40.500000
5.286277 -5.411445 -0.534447 48.875000
8.097420 -5.474125 -0.520282 41.000000
-6.043559 -5.320621 -0.568836 30.000000
5.449313 -5.371805 -0.540578 45.250000
5.514956 -5.351834 -0.542903 36.000000
8.008461 -5.377406 -0.513478 38.000000
-6.111243 -5.285502 -0.570809 29.600000
-5.868919 -5.265940 -0.557054 40.200001
7.997520 -5.273431 -0.509935 47.000000
8.063166 -5.280439 -0.513053 41.666668
-6.035311 -5.147358 -0.560380 15.000000
-5.871050 -5.136097 -0.551078 16.000000
7.973338 -5.103115 -0.503910 44.333332
-5.858425 -4.933276 -0.541071 12.500000
7.978190 -4.983368 -0.500721 52.000000
-5.777584 -4.865180 -0.533601 25.000000
8.158679 -4.832722 -0.504761 38.000000
8.232222 -4.600832 -0.501997 46.000000
-5.925247 -4.398854 -0.521339 27.000000
-5.847969 -4.420463 -0.517886 20.500000
8.317140 -4.394389 -0.500721 55.000000
-6.129263 -4.359060 -0.531346 31.000000
4.658948 -4.299155 -0.558532 3.000000
9.027945 -4.360391 -0.533677 34.000000
9.205048 -4.304126 -0.540906 29.000000
9.333519 -4.292938 -0.546860 19.000000
9.743336 -4.297323 -0.566846 33.000000
-5.979194 -4.216477 -0.598189 26.000000
-5.854647 -4.247454 -0.510994 40.799999
4.676095 -4.194212 -0.553441 76.750000
8.944339 -4.285408 -0.527937 50.000000
9.049708 -4.277760 -0.532827 34.333332
9.225771 -4.278546 -0.541332 51.000000
9.384552 -4.262931 -0.548667 43.000000
9.431875 -4.230941 -0.550262 32.000000
9.642198 -4.288950 -0.561743 38.000000
9.808229 -4.252504 -0.569057 42.200001
9.960459 -4.207471 -0.575564 28.666666
10.419095 -4.209673 -0.598172 30.333334
4.741704 -4.098776 -0.552213 78.000000
5.178831 -4.101749 -0.582053 53.000000
-5.945611 -4.069835 -0.527212 32.714287
-5.855457 -4.054571 -0.503158 24.500000
4.771452 -4.048697 -0.551335 72.000000
5.258325 -4.044958 -0.584510 57.750000
10.393391 -4.063053 -0.594019 42.200001
-5.949873 -3.902329 -0.527598 30.200001
-5.886150 -3.967269 -0.501467 42.000000
4.805246 -3.930236 -0.546947 69.142860
4.926006 -3.926753 -0.555021 43.000000
5.300682 -3.908096 -0.580227 91.000000
10.394670 -3.973496 -0.592361 46.000000
10.520921 -3.927163 -0.597782 30.000000
5.319829 -3.832538 -0.577664 102.000000
5.415424 -3.798776 -0.582813 87.166664
-8.802943 -3.704031 -0.508376 0.000000
5.530940 -3.770803 -0.589776 30.250000
-8.920781 -3.638728 -0.512841 6.500000
-8.759237 -3.653296 -0.505186 2.000000
13.579578 -3.317878 -0.500861 46.000000
13.818580 -3.307369 -0.509097 42.000000
15.587012 -3.344412 -0.571185 49.000000
15.714775 -3.320217 -0.575482 45.000000
15.885589 -3.304207 -0.581354 13.000000
-5.902890 -3.215687 -0.592233 32.000000
-5.882433 -3.240573 -0.591707 38.000000
14.129167 -3.287889 -0.519767 46.000000
14.410780 -3.258112 -0.529363 40.000000
14.605521 -3.229944 -0.535952 44.000000
-6.094161 -3.007327 -0.598753 41.285713
-10.143763 -2.939359 -0.562169 12.000000
-9.915998 -2.907156 -0.550049 11.000000
-7.913708 -2.989827 -0.597645 24.400000
-6.138249 -2.898822 -0.598084 40.333332
-9.757428 -2.794210 -0.540269 5.000000
-9.527699 -2.825849 -0.529000 8.000000
-7.902966 -2.866902 -0.593924 22.750000
-9.843026 -2.785296 -0.544521 11.000000
-7.979896 -2.782015 -0.597024 7.000000
-10.265911 -2.628201 -0.564082 11.000000
-10.099081 -2.619323 -0.555365 9.000000
-5.969896 -2.628663 -0.574710 26.000000
-6.774834 -2.530333 -0.510910 2.500000
-6.237964 -2.570928 -0.594457 33.666668
-6.151696 -2.543067 -0.586499 35.333332
-10.402919 -2.420835 -0.568547 1.000000
-7.987328 -2.368985 -0.588568 21.000000
-6.151882 -2.386158 -0.581351 6.000000
-6.086499 -2.306057 -0.573452 31.000000
-9.409220 -2.283284 -0.515392 4.000000
-5.999178 -2.283668 -0.565553 35.000000
-2.905079 -2.193112 -0.513570 33.000000
-2.834131 -2.250219 -0.570711 59.228573
-2.922166 -2.182059 -0.596046 33.250000
-2.881431 -2.187109 -0.596667 59.666668
-6.507810 -1.907949 -0.597499 4.000000
-6.398029 -1.941430 -0.589074 1.000000
-6.281530 -1.959652 -0.579771 8.000000
-6.102105 -1.930464 -0.563885 24.250000
-6.000429 -1.976338 -0.556601 9.500000
-8.223424 -1.859262 -0.595615 49.000000
-7.840500 -1.850525 -0.569118 3.000000
-6.286480 -1.837685 -0.577050 39.250000
-6.013441 -1.859156 -0.554553 30.333334
-8.055669 -1.768205 -0.582648 33.000000
-7.936574 -1.637809 -0.572501 19.000000
-7.803407 -1.644382 -0.563386 21.333334
-7.690689 -1.662786 -0.555870 40.000000
-6.046338 -1.649561 -0.552184 39.500000
-6.240057 -1.555821 -0.566606 20.000000
-6.092398 -1.554631 -0.553968 29.000000
8.360657 -1.492290 -0.599984 3.000000
-6.028618 -1.472960 -0.546771 38.500000
-8.253031 -1.327831 -0.590541 3.000000
-6.136008 -1.316657 -0.552915 41.000000
-5.990612 -1.369543 -0.566810 35.882355
8.367902 -1.358302 -0.598904 3.000000
-6.435361 -1.285912 -0.578191 38.000000
-6.266292 -1.231714 -0.562657 33.000000
-6.157656 -1.220339 -0.553090 29.166666
8.380560 -1.205418 -0.598152 2.250000
-6.220760 -1.101323 -0.556601 33.000000
-7.699235 -1.065616 -0.549105 2.000000
-6.125106 -1.074941 -0.565951 40.833332
8.409073 -1.049109 -0.598675 18.428572
-6.006843 -0.919302 -0.566118 38.142857
8.404661 -0.973936 -0.597729 20.500000
-6.661636 -0.836836 -0.591531 13.000000
-8.084890 -0.707336 -0.573346 10.000000
-8.445230 -0.605361 -0.598152 25.000000
-6.673713 -0.636769 -0.590654 6.000000
-6.697633 -0.522411 -0.591882 16.000000
-6.614086 -0.589105 -0.585037 11.500000
-8.400707 -0.416741 -0.594206 4.000000
-6.422010 -0.409678 -0.566957 42.000000
-6.251739 -0.481274 -0.552447 25.166666
-8.141129 -0.326981 -0.575601 5.000000
-6.420785 -0.325183 -0.566431 23.500000
-6.281818 -0.351208 -0.554319 32.000000
-8.451713 -0.233127 -0.597306 14.000000
-6.497571 -0.260969 -0.572925 3.000000
-6.549637 -0.148016 -0.577208 36.599998
-6.403219 -0.183422 -0.564383 28.000000
-6.316228 -0.124633 -0.556601 40.500000
-6.578053 -0.078075 -0.579595 17.000000
-6.255599 -0.044796 -0.551160 19.000000
-6.158135 -0.005358 -0.542559 21.500000
-6.745523 0.068286 -0.594340 33.000000
-10.777487 0.109120 -0.573721 2.666667
-8.364005 0.137252 -0.590964 30.000000
-6.422934 0.139083 -0.566021 25.666666
-6.309857 0.138358 -0.556074 32.750000
-6.185432 0.179258 -0.545192 44.000000
-9.962566 0.257398 -0.530488 1.000000
-6.428054 0.284113 -0.566899 30.166666
-6.315593 0.222751 -0.556776 18.000000
-11.117338 0.392109 -0.592148 3.000000
-9.797069 0.314732 -0.521771 1.000000
-6.573955 0.335322 -0.579946 12.000000
-6.177786 0.366989 -0.545250 28.166666
-6.363244 0.505268 -0.562393 19.000000
-6.296953 0.456904 -0.556250 32.166668
-8.278590 0.526647 -0.586031 4.000000
-6.231276 0.580224 -0.551394 24.666666
-6.191505 0.550398 -0.547649 45.000000
-7.958897 0.682319 -0.564326 5.000000
-7.076364 0.651473 -0.502030 3.000000
-6.191086 0.687873 -0.548819 40.000000
-8.000432 0.711204 -0.567427 17.000000
-7.794378 0.729899 -0.553051 34.000000
-7.199199 0.708424 -0.511051 48.000000
-6.230428 0.784852 -0.553266 36.000000
-8.116517 0.876005 -0.576729 13.000000
-7.971015 0.809667 -0.566017 5.000000
-7.766472 0.899843 -0.552346 8.500000
-6.258988 0.866987 -0.556718 34.500000
-9.724686 0.941513 -0.520070 1.500000
-6.503956 1.013842 -0.579946 78.000000
-6.372250 1.054920 -0.569063 32.000000
-6.288793 1.018580 -0.561301 32.444443
9.446553 1.066279 -0.506037 20.000000
-10.607718 1.195511 -0.568228 4.000000
-9.592550 1.142198 -0.514223 5.000000
-8.191690 1.145437 -0.584340 9.000000
-6.424820 1.125934 -0.574680 1.000000
9.337259 1.172965 -0.500934 51.666668
-10.913056 1.351559 -0.585344 8.000000
-7.174993 1.397276 -0.516406 41.000000
-6.999334 1.317479 -0.503158 5.000000
9.329548 1.321164 -0.501572 51.333332
-11.129091 1.502731 -0.597782 2.500000
-7.160315 1.468588 -0.537645 11.000000
9.322113 1.469820 -0.502351 53.000000
-8.080684 1.547321 -0.581239 2.000000
-7.188263 1.588334 -0.520071 45.000000
-7.000192 1.512134 -0.537437 22.250000
-10.944159 1.653182 -0.589171 5.000000
-9.341554 1.697649 -0.505399 0.000000
-8.176483 1.618988 -0.588850 35.000000
-7.016032 1.621465 -0.576434 17.692308
9.314930 1.619028 -0.503273 50.000000
-7.444948 1.780571 -0.540789 43.500000
-7.297132 1.805859 -0.531064 86.000000
-7.051481 1.780416 -0.577205 14.000000
9.307969 1.768878 -0.504336 49.666668
-7.756286 1.893646 -0.564044 47.000000
-7.141313 1.898978 -0.586142 2.750000
-10.162890 1.912953 -0.550474 9.000000
-9.337186 1.909854 -0.507312 9.000000
9.288125 1.939511 -0.505080 49.250000
-8.045266 2.026831 -0.586125 35.333332
-7.980402 2.081713 -0.582648 2.000000
-7.705061 2.061682 -0.563480 47.000000
-7.028364 2.089224 -0.597872 17.000000
9.277940 2.090017 -0.506249 50.500000
9.287733 2.207525 -0.508163 51.500000
-7.024032 2.238704 -0.546457 7.600000
-6.890244 2.257591 -0.566231 27.285715
-6.709870 2.278999 -0.500621 23.000000
-6.390146 2.282970 -0.597850 26.000000
-7.926655 2.363040 -0.584340 10.000000
-7.034514 2.340073 -0.523735 3.000000
9.274940 2.343494 -0.509226 53.000000
9.262697 2.495821 -0.510643 49.666668
9.256607 2.635070 -0.512309 51.000000
-9.303627 2.709999 -0.515817 13.000000
-6.670327 2.768398 -0.510205 34.000000
9.243789 2.826192 -0.514542 51.666668
-10.730176 2.979774 -0.592786 2.000000
-6.538968 2.976237 -0.590999 39.733334
-6.449543 2.986661 -0.558542 37.909092
9.247280 2.949412 -0.516668 51.000000
-9.104860 3.012888 -0.510502 3.500000
-9.026202 3.034146 -0.506887 24.000000
-6.766351 3.009744 -0.523171 24.000000
-10.409656 3.138896 -0.578753 2.000000
-8.983591 3.146011 -0.506675 2.000000
-6.544409 3.126959 -0.582741 43.888889
-6.453482 3.142151 -0.554148 45.625000
9.221889 3.109799 -0.518050 50.000000
-8.829091 3.280002 -0.501359 9.000000
-6.470703 3.258931 -0.529972 37.000000
9.221022 3.269030 -0.520778 52.333332
-10.746527 3.388369 -0.599802 0.000000
-8.853753 3.384460 -0.504548 18.000000
9.217364 3.393157 -0.522834 42.500000
-6.552598 3.410477 -0.541636 36.538460
-6.477689 3.461670 -0.582867 30.000000
-9.136515 3.691394 -0.524535 99.000000
-7.000361 3.797660 -0.562635 35.666668
-6.843541 3.768494 -0.551923 20.000000
-6.786311 3.764811 -0.548259 30.000000
-6.556624 3.751382 -0.533657 36.400002
-6.424582 3.762794 -0.525990 36.857143
-6.415275 3.888381 -0.529968 37.444443
-10.132457 3.909792 -0.578115 0.000000
-7.009380 3.946360 -0.568272 15.000000
-9.975592 4.066903 -0.573437 58.000000
-6.519973 4.029963 -0.541494 34.000000
-6.436976 4.066614 -0.537900 31.375000
-10.010789 4.117974 -0.576201 74.000000
-6.417263 4.178715 -0.541000 44.500000
-10.353156 4.335065 -0.597463 0.000000
-6.443837 4.312274 -0.547766 38.250000
-8.940495 4.492692 -0.532614 1.000000
-8.542895 4.428214 -0.512203 7.000000
-6.465219 4.475156 -0.555494 37.500000
8.319095 4.475626 -0.502847 10.333333
-9.040366 4.578505 -0.539418 19.000000
-8.684721 4.536404 -0.521558 7.000000
-6.415987 4.606904 -0.558012 38.000000
8.308780 4.605625 -0.505682 10.333333
-9.221612 4.706760 -0.551112 12.000000
-6.315665 4.625755 -0.553051 47.000000
-6.477064 4.806839 -0.569823 53.500000
8.302109 4.745046 -0.509013 7.500000
-9.480285 4.876388 -0.567484 23.000000
-8.592289 4.873167 -0.525810 5.000000
-6.520377 4.838930 -0.573628 36.000000
-8.974748 4.942074 -0.545371 4.000000
-8.608150 4.917972 -0.527724 16.000000
-6.506667 4.956750 -0.577856 48.000000
-6.459682 4.921142 -0.573699 42.500000
8.294784 4.933120 -0.513726 10.500000
-8.541296 5.059297 -0.528433 8.333333
-6.441829 5.085733 -0.579830 43.333332
8.279562 5.101725 -0.517678 8.000000
-9.379364 5.241947 -0.571949 0.000000
-6.410713 5.209819 -0.583588 38.000000
-6.313606 5.247292 -0.579971 33.000000
8.287530 5.239197 -0.521912 5.333333
-8.704908 5.380460 -0.544734 7.000000
8.268392 5.404503 -0.525810 8.000000
-6.369518 5.413336 -0.590541 48.500000
-6.399072 5.516789 -0.596883 42.250000
8.054680 5.543900 -0.520503 13.714286
8.264905 5.532872 -0.529425 15.000000
8.008026 5.665054 -0.522153 8.400000
12.840311 5.784138 -0.504585 7.000000
12.964265 5.791052 -0.508739 11.000000
13.077423 5.792385 -0.512463 3.000000
13.271042 5.753866 -0.518263 0.500000
13.395404 5.732977 -0.522059 1.000000
8.000919 5.823717 -0.526767 3.000000
7.980451 6.101547 -0.534740 22.000000
8.098807 6.032237 -0.537547 15.200000
14.456119 6.026384 -0.561159 2.000000
14.585814 6.026736 -0.565456 0.000000
14.711955 6.024815 -0.569610 0.000000
-9.336450 6.121245 -0.594274 6.000000
8.159647 6.157565 -0.544149 11.250000
7.963993 6.269367 -0.539524 4.000000
7.954478 6.425443 -0.544308 2.000000
7.941318 6.594057 -0.549454 13.000000
12.363631 6.548960 -0.501291 27.000000
12.486552 6.547249 -0.505158 28.000000
-7.239291 6.638239 -0.522834 3.000000
7.720201 6.668603 -0.543033 18.000000
7.868304 6.710623 -0.550474 6.000000
7.931911 6.722139 -0.553451 6.000000
12.329470 6.713902 -0.503010 33.750000
7.586519 6.850137 -0.544096 15.000000
7.865014 6.836953 -0.554727 3.000000
12.314727 6.907909 -0.505910 29.000000
7.652397 6.997401 -0.551963 21.000000
7.858978 7.007016 -0.560468 10.000000
7.906630 6.916857 -0.559192 3.000000
7.566266 7.072891 -0.551325 24.000000
7.920290 7.032126 -0.563799 6.666667
12.302772 7.088710 -0.508739 44.666668
7.533072 7.198980 -0.554656 42.000000
7.815555 7.191706 -0.565358 15.400000
12.295233 7.205007 -0.510601 34.500000
7.634128 7.322963 -0.563104 43.000000
12.284520 7.320151 -0.512367 38.333332
7.656046 7.479013 -0.569717 33.000000
12.265209 7.483774 -0.514802 21.666666
7.495228 7.579404 -0.567413 40.000000
7.563445 7.552892 -0.568972 46.000000
12.219015 7.526011 -0.514181 5.000000
7.410469 7.636342 -0.566421 35.000000
7.784241 7.676304 -0.581942 37.000000
12.275030 7.640533 -0.518048 15.000000
-7.746496 7.708731 -0.581730 3.000000
7.384761 7.730434 -0.569079 37.000000
7.768593 7.709162 -0.582580 39.000000
12.260345 7.752265 -0.519731 18.750000
