# This PCD file was generated using the MATLAB® pcwrite function
# from Computer Vision Toolbox®.
# .PCD v.7 - Point Cloud Data file format
VERSION .7
FIELDS x y z intensity
SIZE 4 4 4 4
TYPE F F F F
COUNT 1 1 1 1
WIDTH 1212
HEIGHT 1
VIEWPOINT 0 0 0 1 0 0 0
POINTS 1212
DATA ascii
-16.213057 -18.690487 3.435524 2.000000
-12.822799 -18.070131 3.472939 25.000000
-13.587103 -17.522671 3.475416 3.500000
-13.468298 -17.577662 3.470874 12.333333
-13.884919 -17.170942 3.461170 7.000000
-14.370014 -16.408894 3.418742 18.000000
-14.288630 -16.471998 3.417813 19.000000
-14.598320 -16.304413 3.430200 25.000000
-14.499748 -16.297049 3.419051 15.000000
-15.724840 -15.339889 3.443208 20.000000
-15.822557 -15.290340 3.448782 0.000000
-4.053232 -13.249249 3.439895 0.000000
-4.290826 -13.065966 3.414353 1.500000
-1.892486 -12.587772 3.401980 10.000000
-2.767326 -12.472295 3.414374 7.000000
-3.234462 -12.355394 3.413341 22.000000
8.447465 -10.997024 3.442786 2.000000
8.552618 -10.954762 3.450497 34.500000
11.772220 -9.101889 3.417933 37.000000
11.904770 -9.114983 3.443901 38.500000
12.040764 -9.129502 3.470765 36.000000
10.816533 -9.005533 3.494351 37.500000
10.390284 -8.959161 3.406161 36.000000
10.504726 -8.971826 3.429775 35.500000
10.655865 -8.985725 3.460617 36.500000
9.253216 -8.840891 3.420312 39.000000
9.276769 -8.738926 3.406111 39.000000
-12.533449 -2.967377 3.442259 6.500000
-14.789698 -2.557285 3.447483 0.000000
-19.775209 1.928524 3.471278 16.500000
-19.468483 4.028172 3.473343 10.000000
-12.315390 4.281442 3.484603 0.000000
-19.154619 4.626914 3.442709 31.000000
-19.015650 4.741200 3.423893 22.000000
-19.249359 5.262372 3.486423 16.500000
-19.161728 5.335630 3.475064 8.000000
-18.871407 5.672466 3.442709 13.000000
-18.684738 5.744611 3.415173 9.500000
-18.822960 5.884327 3.445463 16.000000
-18.845709 5.956501 3.453035 0.000000
-11.363552 6.293767 3.471693 0.500000
-12.536124 6.445477 3.499652 44.666668
-12.017624 6.730196 3.419654 69.000000
-10.696295 7.098531 3.430898 0.000000
-10.738130 7.199437 3.455168 8.000000
-10.783730 7.328732 3.484603 1.000000
-11.184278 8.099041 3.428329 19.000000
-11.308446 8.297767 3.482303 13.000000
-11.284263 8.225613 3.466882 2.000000
-11.090458 8.272551 3.435076 16.500000
-11.251097 8.310185 3.472665 81.000000
-11.056784 8.356192 3.440859 48.500000
-10.973392 8.443094 3.437485 46.000000
10.723253 8.786261 3.441823 2.000000
10.487185 8.815400 3.401342 9.000000
-10.509269 9.353551 3.492905 33.000000
-10.436456 9.347667 3.478448 64.000000
-10.149487 9.323129 3.421582 3.000000
-10.373631 9.409569 3.477163 62.666668
-9.862372 9.587394 3.414835 28.000000
-11.446956 9.683708 3.443901 38.000000
-11.599677 9.750544 3.480615 27.000000
-11.251846 9.702057 3.412560 7.000000
-11.588647 9.866197 3.495837 17.000000
-9.649170 9.801939 3.414835 14.000000
8.020170 9.914696 3.408177 2.000000
7.853893 10.291066 3.459816 18.000000
7.580173 10.398825 3.439160 4.000000
7.616417 10.345909 3.433480 2.500000
7.523713 10.458795 3.443291 38.000000
7.582938 10.611287 3.485636 14.000000
7.350965 10.707726 3.471177 13.000000
6.878181 11.067442 3.482537 1.000000
10.429464 12.328505 3.408267 0.000000
2.455965 12.765641 3.474275 1.000000
10.322309 12.842953 3.477655 4.000000
3.989817 13.495341 3.493869 62.000000
4.031082 13.479021 3.492905 2.000000
-6.571798 13.576277 3.464497 15.000000
-6.206149 13.802860 3.476137 14.000000
-6.156957 13.927070 3.497628 5.333333
-5.890490 13.910864 3.469869 4.000000
10.466846 14.358892 3.425283 6.000000
-7.111467 14.458782 3.400833 2.000000
10.481743 14.522736 3.452539 11.000000
10.497758 14.690181 3.480554 7.000000
10.506121 14.799953 3.498725 13.000000
-9.111019 15.241501 3.423011 6.000000
10.652279 16.390541 3.415173 33.000000
10.662702 16.519934 3.435137 35.000000
10.683048 16.666140 3.458542 33.000000
10.692000 16.796013 3.478506 32.000000
10.704451 16.932770 3.499847 37.000000
-10.306257 19.164856 3.410689 28.000000
-10.224202 19.228931 3.413477 15.000000
-10.162933 19.332813 3.423387 18.500000
-10.117127 19.770603 3.480991 2.000000
13.121137 -39.697899 3.590274 12.000000
13.752236 -39.513248 3.592669 14.000000
10.966635 -39.304562 3.504033 11.000000
13.274726 -39.331467 3.564607 3.000000
14.037914 -39.141796 3.570767 5.000000
13.696539 -38.958523 3.546127 9.000000
15.327740 -38.852077 3.586509 15.000000
14.715134 -38.717514 3.556736 16.000000
15.406625 -38.344521 3.548522 12.000000
15.469822 -37.983578 3.521829 10.500000
15.609177 -37.814499 3.512931 4.000000
15.855730 -37.737724 3.514985 13.000000
16.009979 -37.772118 3.522856 20.000000
16.092531 -37.637356 3.514985 14.000000
16.242250 -37.659801 3.521829 16.000000
16.390690 -37.678024 3.528331 2.000000
-11.685542 -32.333851 3.555321 3.000000
-11.735230 -32.154949 3.539686 9.000000
-15.142811 -31.061129 3.573425 13.000000
-14.656186 -31.047470 3.550384 7.000000
-14.697230 -30.882711 3.536806 1.000000
3.782880 -29.489138 3.600453 49.000000
13.808371 -25.763296 3.539860 13.000000
13.853391 -25.653400 3.530723 3.000000
16.291840 -24.698490 3.583141 8.000000
16.362764 -24.637262 3.581698 5.000000
-17.422779 -23.761669 3.568233 3.000000
-17.798800 -23.645554 3.584102 4.000000
-17.505636 -23.408785 3.539860 5.000000
-16.880518 -23.483078 3.502350 1.000000
-17.278078 -23.256475 3.508602 9.000000
-8.807222 -20.809074 3.541691 1.000000
-8.732632 -20.814777 3.537975 0.000000
-12.836645 -18.959646 3.588765 48.000000
-12.890675 -18.784126 3.570803 41.000000
-12.626828 -18.524124 3.513819 3.000000
-13.072457 -18.299868 3.524967 43.000000
-12.707029 -18.392399 3.503908 5.000000
-13.639929 -18.113949 3.554079 30.000000
-13.684834 -18.055260 3.550982 9.000000
-11.941656 -16.606340 3.573506 28.000000
-11.861946 -16.605297 3.565245 17.000000
-11.993768 -16.568743 3.573506 24.000000
-15.905027 -15.860671 3.520632 3.000000
-14.249550 -14.709570 3.577981 2.000000
-14.086030 -14.771129 3.565933 1.000000
-14.722184 -14.167468 3.569605 16.000000
-14.714898 -14.042221 3.553542 5.000000
-14.767471 -13.698805 3.519122 11.000000
12.191240 -9.153339 3.501658 30.500000
12.348398 -9.180764 3.534342 9.000000
12.436760 -9.185933 3.551355 1.000000
10.973367 -9.019979 3.526639 34.500000
11.136843 -9.037689 3.560855 36.500000
11.303991 -9.056135 3.596035 38.000000
9.783670 -8.902390 3.535209 39.500000
9.931408 -8.923376 3.568258 28.000000
10.033936 -8.930490 3.589946 4.000000
9.653567 -8.886191 3.506635 38.333332
-14.925918 -3.707619 3.532551 9.000000
-14.937477 -3.610996 3.529864 5.000000
-14.957839 -3.491814 3.528073 9.500000
-15.263344 -2.936494 3.570160 1.000000
-15.198299 -2.775703 3.548669 8.000000
-15.170372 -1.674807 3.505687 14.500000
-14.015061 -1.614165 3.502543 5.000000
-13.295185 -1.644233 3.580307 10.333333
-13.224381 -1.333937 3.552250 38.500000
-13.205532 -1.269221 3.545537 58.000000
-13.308143 -1.194732 3.571012 43.000000
-13.393326 -1.075248 3.590979 3.000000
-18.565247 1.843236 3.596395 18.000000
-18.557339 1.921021 3.596395 29.333334
-18.438427 2.035629 3.575953 36.500000
-19.932068 3.636649 3.539774 8.000000
-19.763626 3.702322 3.512926 18.500000
-17.905756 4.031953 3.538096 4.000000
-17.996386 4.111803 3.558539 16.000000
-17.727018 4.108904 3.507811 8.000000
-18.076916 4.369926 3.585038 29.000000
-18.014145 4.444737 3.576710 33.500000
-17.856922 4.554996 3.552481 8.000000
-19.743355 4.638032 3.543216 35.000000
-18.074493 4.671017 3.598667 8.000000
-17.706560 4.655081 3.529263 22.000000
-19.954832 4.753916 3.583832 112.000000
-17.657925 4.741336 3.524467 0.000000
-19.740866 4.834207 3.550789 2.000000
-19.807356 5.181582 3.576948 19.000000
-19.623386 5.199384 3.546658 4.000000
-19.469952 5.224241 3.521876 15.000000
-19.698584 5.551867 3.575571 43.000000
-19.722729 5.625609 3.583143 1.000000
-19.607109 6.298877 3.597944 20.500000
-12.698854 6.295479 3.518929 27.000000
-19.127361 6.377664 3.522564 36.000000
-12.522815 6.505085 3.503507 17.000000
-12.469606 6.778901 3.523748 63.000000
-12.414296 6.850158 3.520214 47.000000
-12.534030 7.071213 3.572903 77.000000
-12.508380 7.108634 3.571939 54.000000
-12.482615 7.145970 3.570975 1.000000
-10.686402 7.670497 3.515586 25.666666
-11.011456 7.713167 3.593045 11.000000
-10.958744 7.727682 3.583750 0.000000
-10.716799 7.760518 3.536242 22.000000
9.937469 8.788838 3.545537 0.000000
11.094268 8.746016 3.507363 3.000000
-10.782872 9.536529 3.573867 0.000000
-11.957085 9.955160 3.573741 5.000000
-11.640483 9.973581 3.520910 1.000000
-9.879641 10.163005 3.518929 0.000000
-9.842373 10.317463 3.540133 12.000000
-9.503247 10.677464 3.548807 3.000000
-9.410505 10.640382 3.526639 2.000000
7.591229 10.837373 3.536242 19.000000
7.679305 10.817822 3.545537 18.000000
7.696502 10.914532 3.569291 1.000000
-10.495258 11.643824 3.600605 20.333334
-10.393375 11.677578 3.590755 0.000000
4.909643 12.457478 3.578586 5.000000
4.050005 12.531580 3.519717 8.000000
2.854380 12.864648 3.521783 0.000000
6.361784 12.934551 3.578686 6.000000
10.358003 13.224305 3.545391 4.000000
-12.851455 13.471767 3.589077 3.000000
-9.668114 13.664862 3.533000 10.000000
-9.608936 13.763857 3.542913 7.500000
-6.846434 13.701864 3.518224 11.000000
4.491494 13.749868 3.591215 0.000000
-6.560781 13.810690 3.511955 12.666667
-6.391867 13.887929 3.511597 14.400000
3.567788 13.805551 3.540133 5.000000
-6.858281 13.944012 3.569264 20.000000
-6.941883 14.002730 3.589859 12.000000
-6.399196 14.113500 3.559414 17.000000
-6.079594 14.109876 3.528969 5.000000
10.534605 15.039389 3.539610 4.000000
10.556026 15.273299 3.578981 6.000000
10.718245 17.073105 3.521876 40.000000
10.729177 17.210350 3.543216 45.000000
10.743500 17.354530 3.565933 43.000000
-10.970869 -33.986732 3.693156 11.000000
-11.249790 -33.408783 3.645428 5.000000
-11.826319 -33.377972 3.661886 4.000000
-12.367176 -33.236568 3.667235 30.000000
-14.749528 -32.560467 3.696448 20.000000
-14.629230 -32.566719 3.691922 39.000000
-14.940506 -32.438236 3.693156 20.000000
-14.762479 -32.318535 3.674230 15.000000
-14.913302 -32.113274 3.661475 13.000000
-14.901069 -31.824842 3.633908 5.000000
-15.500027 -31.541897 3.634319 18.000000
-15.153369 -31.458305 3.610867 7.500000
-15.526637 -31.346865 3.617450 18.000000
-15.573503 -31.194696 3.605518 25.000000
-17.880390 -30.367001 3.644194 5.000000
-17.955408 -30.276455 3.640080 3.000000
3.694160 -29.532398 3.604300 37.000000
12.942459 -27.256805 3.654072 3.500000
13.040694 -27.132904 3.645657 12.000000
13.176076 -27.195438 3.659603 2.000000
13.223111 -27.075409 3.649023 2.000000
14.169386 -27.046030 3.697593 3.000000
17.059885 -25.168949 3.682205 4.000000
16.798647 -24.616663 3.609109 6.000000
-17.785030 -24.096607 3.626902 10.000000
-18.298586 -23.994261 3.654313 9.000000
-17.212303 -19.716938 3.634119 1.000000
-17.336794 -19.485758 3.621466 7.000000
-13.063696 -19.426184 3.669286 27.000000
-13.105370 -19.226166 3.646988 30.000000
-13.223666 -19.140190 3.646369 32.000000
-14.730378 -17.642345 3.602392 22.000000
-15.385533 -17.402416 3.640794 1.000000
-14.293334 -14.894540 3.606549 29.000000
-14.652820 -14.765752 3.634315 19.666666
-14.705104 -14.572249 3.616875 25.000000
-14.703082 -14.478977 3.605172 3.000000
11.772020 -9.101735 3.694345 37.000000
11.425591 -9.065557 3.621094 39.000000
11.559780 -9.083519 3.650009 38.500000
11.682094 -9.090989 3.675068 39.000000
10.368164 -8.968470 3.663790 18.000000
10.467521 -8.968584 3.683929 32.000000
-14.540820 -3.178386 3.695309 2.000000
-14.515253 -2.533290 3.658201 2.500000
-14.634199 -2.435864 3.683261 8.500000
-15.875650 -2.251010 3.682986 6.000000
-15.711168 -2.160541 3.642691 4.000000
-15.592216 -1.795812 3.605082 30.000000
-14.534411 -1.519922 3.628162 20.666666
-13.554289 -1.023919 3.632807 6.000000
-18.482571 3.797292 3.637281 9.000000
-18.573618 3.937777 3.659995 2.000000
-18.696726 4.148392 3.691794 14.000000
-18.080254 5.438124 3.639552 7.000000
-11.415513 7.370883 3.631602 10.666667
-11.110565 7.678981 3.609569 0.000000
-10.895344 7.942112 3.603373 3.000000
-10.960692 8.042597 3.633323 11.000000
-11.031734 8.148162 3.665339 23.000000
-11.014692 8.351520 3.694257 6.000000
-10.857030 8.448928 3.676700 35.000000
13.625251 8.497477 3.688359 9.000000
13.231364 8.543384 3.617619 4.000000
13.310647 8.535444 3.631946 1.000000
13.545665 8.507066 3.674032 11.000000
10.294383 8.820237 3.622995 5.000000
10.417456 8.812786 3.646749 1.000000
10.509233 8.805752 3.664307 8.500000
10.610076 8.805529 3.684962 0.000000
-11.503288 9.039169 3.632178 2.500000
-11.425591 9.065558 3.621094 3.000000
9.957470 9.204591 3.624028 7.000000
-11.337183 9.469275 3.667358 8.000000
-9.842439 9.689033 3.691159 35.000000
-11.151814 9.769545 3.680851 13.000000
-9.712487 9.743052 3.676700 29.000000
-10.076856 10.970023 3.698200 3.000000
-10.042344 11.001625 3.698200 4.000000
-9.759692 11.175929 3.683743 21.000000
-10.352634 11.817541 3.608664 0.500000
-10.293298 12.090302 3.647168 15.000000
10.286353 12.315440 3.685673 9.000000
-19.763599 12.712449 3.683223 20.500000
-19.668741 12.782796 3.676719 6.000000
10.415387 13.826706 3.653603 3.000000
-7.238327 13.988010 3.617619 15.000000
-9.635613 14.099009 3.604316 23.000000
-7.362012 14.064295 3.646273 6.000000
10.438058 14.039493 3.692427 5.000000
-6.958048 14.259792 3.644482 18.000000
-6.821063 14.204830 3.619409 2.000000
-9.721092 14.401305 3.667233 60.000000
-9.546032 14.482819 3.661037 19.000000
-9.491915 14.499638 3.657733 2.000000
-9.675943 14.530527 3.684580 48.500000
-6.420324 14.584394 3.660152 5.000000
-6.214406 14.548366 3.633737 6.000000
-8.690483 15.070568 3.671776 27.000000
-8.533737 15.015988 3.645343 24.000000
-8.403989 15.343837 3.692427 42.000000
10.601035 15.651778 3.644095 9.000000
-7.620724 15.743189 3.691601 12.000000
-6.688852 15.796261 3.620561 3.000000
10.591273 15.743665 3.657723 35.000000
-7.187134 15.851308 3.673428 5.000000
-6.877987 15.825844 3.642038 3.000000
-6.759964 15.825558 3.632126 3.000000
10.602860 15.868301 3.678923 36.000000
-6.519251 16.095261 3.665168 1.000000
-6.729286 16.174032 3.697383 3.000000
-17.585524 38.427818 3.628945 4.000000
-17.451525 38.453846 3.626207 2.000000
19.417900 -38.827408 3.727848 6.000000
-12.983520 -34.233349 3.786144 2.000000
-12.877611 -33.635029 3.724427 2.000000
14.327977 -27.559006 3.761552 8.000000
13.501029 -27.425632 3.701921 5.000000
16.811504 -26.106396 3.760350 3.000000
17.154245 -26.184502 3.790887 21.000000
17.247355 -26.147055 3.793291 11.000000
17.512972 -26.012989 3.797619 7.000000
16.883484 -25.948689 3.749049 10.000000
-12.594683 -24.163143 3.783478 3.500000
-13.022313 -23.521862 3.733141 3.500000
-14.160153 -22.873629 3.735342 26.000000
-14.177447 -22.741613 3.721039 3.000000
-16.316612 -21.810865 3.782102 34.000000
-16.448011 -21.350433 3.742218 2.500000
-17.105118 -21.289688 3.792005 3.000000
-11.680661 -21.176950 3.790687 14.000000
-11.879730 -21.065924 3.790687 30.000000
-11.714502 -21.081427 3.780158 10.000000
-13.110970 -20.313082 3.789448 1.000000
-13.280088 -20.155615 3.783255 12.000000
-13.156113 -20.104650 3.765912 17.000000
-13.082119 -20.129316 3.762815 27.000000
-14.475386 -19.349648 3.787590 11.000000
-14.365024 -19.328423 3.774583 27.000000
-14.219927 -19.386435 3.768389 6.000000
-15.763223 -17.717136 3.716980 4.000000
-13.930130 -16.683901 3.797237 1.000000
-13.972071 -16.313015 3.752491 25.000000
-13.849247 -16.272810 3.733216 23.000000
-14.176993 -16.035450 3.739411 3.000000
-14.907754 -15.149072 3.713252 2.000000
-14.818763 -15.153575 3.702926 7.000000
8.441749 -10.989582 3.703552 4.000000
8.555107 -10.957894 3.715429 35.500000
11.865209 -9.114369 3.714585 35.000000
11.999197 -9.127633 3.743018 34.000000
12.185148 -9.148792 3.783017 36.000000
10.817501 -9.006340 3.761904 36.000000
10.976870 -9.022850 3.797535 35.000000
10.548609 -8.980746 3.702519 34.000000
10.663207 -8.991924 3.727823 36.500000
-14.567392 -3.352471 3.711212 3.000000
-14.807356 -3.139295 3.757957 10.000000
-14.630432 -3.149851 3.715549 4.000000
-14.704126 -3.045048 3.728079 9.500000
-14.855393 -2.946718 3.760046 2.166667
-16.252071 -2.862753 3.790440 6.000000
-14.734280 -2.834708 3.725187 1.000000
-15.987335 -2.403589 3.713432 2.000000
-14.705127 -2.447605 3.701092 17.000000
-15.940809 -2.345410 3.700895 3.000000
-14.962158 -2.225419 3.755548 26.000000
-14.807630 -2.273819 3.719404 3.000000
-16.059383 -2.105689 3.720297 6.666667
-15.115664 -2.127061 3.789764 6.000000
-15.016686 -2.161262 3.766632 4.000000
-15.124186 -2.007266 3.787836 6.500000
-16.135273 -1.961168 3.733430 8.666667
-15.149217 -1.841303 3.788800 6.000000
-14.904515 -1.859099 3.729043 18.000000
-14.055811 -1.641251 3.782043 8.500000
-13.926091 -1.515402 3.743831 15.000000
-19.541143 1.507043 3.778108 4.000000
-19.544083 1.641191 3.780758 35.166668
-19.617741 1.854430 3.798551 32.500000
-18.940041 4.484215 3.751987 9.000000
-18.884300 4.753920 3.753880 13.000000
-18.795280 5.300820 3.764480 21.000000
-18.778536 5.359838 3.764480 32.000000
-18.814430 5.434068 3.775079 1.000000
-12.598701 5.976925 3.726790 40.000000
-12.417409 6.877343 3.793663 42.500000
-12.118510 6.988167 3.738667 11.000000
-11.148734 8.288843 3.712847 22.000000
-11.122640 8.323824 3.712847 0.000000
-11.044744 8.484123 3.722142 5.000000
13.704907 8.487472 3.702686 0.000000
13.894381 8.484496 3.739400 4.000000
13.970970 8.471122 3.752831 15.000000
14.111043 8.465290 3.779695 0.500000
-10.939956 8.568775 3.713880 15.000000
12.523664 8.597624 3.771451 1.000000
12.249658 8.637981 3.721332 1.000000
12.357082 8.626782 3.741572 0.500000
12.467848 8.617061 3.762776 8.000000
12.617968 8.604167 3.791691 1.000000
-11.022125 8.745432 3.760355 9.000000
-12.084793 8.984783 3.738681 5.000000
-11.963264 8.952920 3.709766 21.000000
-10.462236 9.355886 3.751060 18.500000
-10.351813 9.449286 3.745896 46.333332
-10.312766 9.563112 3.758806 34.000000
-10.278891 9.662627 3.770339 31.666666
-10.185489 9.757312 3.769650 33.666668
-9.991116 9.835362 3.746929 38.000000
-9.822870 9.853907 3.718528 15.000000
-9.726666 10.005643 3.729372 29.000000
-9.357347 10.414261 3.741765 27.000000
-9.551452 10.507957 3.795125 20.666666
-10.685336 10.786521 3.769523 10.000000
-10.649927 10.886748 3.781089 12.000000
-9.785614 11.348755 3.720368 96.000000
-9.662179 11.792275 3.784945 28.000000
-9.582433 11.795524 3.773057 19.666666
10.411369 12.307115 3.702686 7.000000
-19.833504 12.978678 3.715121 57.000000
-11.981995 12.921229 3.719274 19.000000
-12.188518 13.020372 3.764293 22.000000
10.487405 14.387096 3.757685 0.000000
10.492656 14.489711 3.775858 1.000000
-8.929492 15.153215 3.712252 18.000000
-8.866027 15.154171 3.705644 16.000000
-8.525892 15.451003 3.724643 33.000000
-8.625739 15.516500 3.746946 3.000000
-8.516064 15.723975 3.774206 18.000000
-8.002905 15.767762 3.732077 9.000000
-7.923399 15.733404 3.718035 3.000000
-7.503835 15.946404 3.719687 6.500000
-7.398895 15.917734 3.704818 15.000000
10.620283 16.002983 3.702394 35.000000
10.628319 16.124813 3.722837 34.000000
-6.685904 16.213182 3.701514 0.000000
10.648597 16.266565 3.747823 36.000000
10.669978 16.468224 3.782651 18.500000
11.110207 18.395742 3.754556 35.000000
11.258490 18.379337 3.765571 46.000000
10.853252 18.425165 3.735969 6.000000
10.961134 18.409328 3.743197 8.500000
10.878353 18.668449 3.774864 9.500000
-10.510148 18.898521 3.777962 10.000000
-12.417750 -34.700500 3.811242 6.000000
-12.070575 -34.759613 3.805070 3.000000
14.468661 -28.482321 3.868792 2.000000
14.115355 -28.224607 3.821664 36.000000
13.987782 -28.190556 3.811084 10.000000
17.446283 -26.998838 3.892836 7.000000
17.379944 -26.168819 3.804352 9.000000
17.501795 -26.173512 3.813008 11.000000
-13.618772 -24.328022 3.871222 50.000000
-13.669834 -24.240253 3.864071 50.000000
-13.770702 -24.064478 3.849768 49.000000
-13.661764 -24.049059 3.840415 47.000000
-16.626608 -22.032183 3.832530 22.000000
-11.794356 -21.542837 3.849530 2.000000
-17.085115 -21.402153 3.802457 7.000000
-12.580990 -21.435154 3.895674 8.000000
-17.293987 -21.386805 3.818961 29.000000
-12.047349 -21.207172 3.822896 12.000000
-11.863678 -21.192795 3.806792 13.000000
-14.726615 -19.303480 3.805553 28.000000
-15.163968 -19.118456 3.824754 5.000000
-16.601246 -17.965420 3.834045 5.000000
-13.148768 -17.847662 3.872962 44.666668
-13.480251 -17.727505 3.890860 27.000000
-13.209355 -17.773449 3.868831 59.000000
-13.563692 -17.663778 3.890860 1.000000
-13.731997 -17.538263 3.891549 3.000000
-13.730646 -17.255672 3.852654 8.500000
-13.806669 -17.129162 3.843705 25.500000
-13.874638 -16.939430 3.825462 5.000000
-13.771607 -16.921810 3.811694 3.000000
-13.875153 -16.831905 3.811005 10.000000
-14.404782 -16.605898 3.840607 10.000000
-14.743277 -16.570765 3.875027 24.000000
-14.480203 -16.587276 3.846802 27.000000
-11.731285 -16.470989 3.898114 19.000000
-15.939754 -15.598465 3.896368 7.000000
-15.954783 -15.515347 3.888107 22.000000
-13.882683 -14.583353 3.881331 19.000000
-14.035080 -14.347169 3.868964 10.000000
-13.978987 -14.379926 3.865936 5.000000
-14.673141 -13.866016 3.891678 16.000000
-14.793882 -13.376674 3.844736 12.500000
12.321567 -9.160816 3.811932 38.000000
12.418985 -9.172804 3.833136 34.000000
12.519731 -9.186566 3.855304 32.000000
12.611270 -9.192927 3.874580 32.000000
11.142870 -9.042580 3.835232 35.000000
11.308035 -9.059373 3.872412 37.000000
11.430802 -9.069692 3.899781 36.000000
13.443814 -5.347225 3.866732 9.000000
13.512388 -5.251982 3.874477 0.500000
-16.605783 -3.303097 3.888940 21.000000
-16.566343 -3.241176 3.877299 18.000000
-16.530504 -3.180281 3.866554 1.000000
-16.707302 -2.997084 3.898790 5.000000
-16.483789 -2.850210 3.842376 15.000000
-14.317343 -2.521957 3.885322 17.000000
-14.378571 -2.462916 3.898748 14.500000
-15.441485 -2.123456 3.869761 23.000000
-15.309136 -1.811956 3.827353 8.000000
-15.385805 -1.723075 3.843738 23.000000
-15.460610 -1.682292 3.861087 22.000000
-15.544252 -1.592634 3.879399 2.000000
-14.441200 -1.205050 3.872928 2.000000
-12.507508 7.264943 3.865699 52.000000
12.791560 8.576113 3.823498 9.500000
11.290124 8.729148 3.814060 0.000000
11.366526 8.731300 3.830584 0.000000
-11.136523 8.893351 3.808896 13.000000
-11.071735 9.247563 3.855371 20.000000
-10.837317 9.344624 3.824388 14.000000
-10.901409 9.439713 3.853994 4.666667
-10.783599 9.476956 3.836781 9.000000
-10.672719 9.439108 3.807863 25.000000
-10.327981 9.977098 3.837814 40.000000
-10.227311 9.942158 3.811994 13.000000
-10.020174 10.242991 3.829551 20.000000
-10.158035 10.318861 3.869830 25.000000
-9.955411 10.354181 3.838847 15.500000
-10.916504 10.950858 3.838919 16.000000
-10.462933 11.571464 3.873135 56.000000
-10.461412 11.679921 3.892893 20.000000
-18.801983 11.721416 3.870897 22.000000
-10.319248 11.704956 3.874098 33.500000
-10.192698 11.746041 3.861087 11.000000
-18.815121 11.811858 3.881222 34.000000
-10.146478 11.842281 3.871689 11.000000
-9.994452 11.889834 3.856268 0.000000
-9.610139 12.034100 3.823498 15.000000
-9.549732 12.074644 3.822052 10.500000
-9.440201 12.091591 3.808558 3.500000
-9.152418 14.174589 3.875508 23.000000
-6.612732 14.110255 3.868797 6.000000
-8.415036 14.592903 3.869240 11.000000
-8.095755 14.563132 3.827154 30.000000
-8.365416 14.648324 3.874613 18.666666
-8.177657 14.602257 3.844167 7.000000
10.501531 14.695460 3.812204 3.000000
-8.119649 14.714790 3.860286 49.000000
10.514215 14.811357 3.833681 16.000000
10.537619 14.993649 3.867962 2.500000
-7.128425 15.335854 3.884463 6.000000
-6.647790 15.562950 3.887149 1.000000
-6.353275 15.685484 3.887149 1.000000
10.687754 16.667076 3.816722 3.000000
10.700743 16.803272 3.840193 1.000000
10.739712 17.041254 3.882971 24.500000
-17.990337 32.576008 3.848272 2.000000
-18.447182 32.671791 3.879954 10.000000
-18.295824 32.642811 3.869668 26.000000
-18.146763 32.616676 3.859793 14.000000
11.901011 -36.780369 3.997628 8.000000
13.582534 -36.078388 3.986519 6.000000
-13.905653 -35.647762 3.956895 18.000000
-13.701797 -35.453751 3.930562 7.000000
-14.256762 -29.716211 3.991420 14.000000
-14.355235 -29.682001 3.992862 22.000000
-14.132619 -29.696316 3.982763 6.000000
-14.750144 -29.545458 3.999114 38.000000
-14.821474 -29.456404 3.993343 48.000000
-15.112975 -29.343653 3.997190 10.000000
-14.952911 -29.372032 3.991420 25.000000
-13.822272 -29.280920 3.921209 25.000000
-13.601232 -29.287954 3.910629 32.000000
14.507797 -28.782949 3.903416 8.000000
-13.089037 -25.015739 3.920184 30.000000
-13.181726 -24.906485 3.912757 42.000000
-13.307389 -24.859835 3.915232 26.000000
-14.872810 -24.365580 3.963643 2.000000
-14.077462 -24.333607 3.903405 44.000000
-14.874591 -24.197226 3.943839 14.000000
-14.894229 -24.059420 3.928986 4.000000
-13.162338 -21.716497 3.980222 1.000000
-12.950634 -21.673254 3.957304 9.000000
-14.646596 -20.778267 3.984557 2.000000
-15.107554 -20.327513 3.969692 7.000000
-14.963028 -20.001493 3.915185 15.000000
-12.437593 -19.203495 3.997219 9.000000
-16.403328 -19.151615 3.952349 10.000000
-16.255999 -19.100733 3.931290 15.000000
-16.124462 -19.067221 3.913947 32.000000
-12.598423 -19.055872 3.991023 11.500000
-12.494503 -19.093603 3.986548 29.000000
-16.360212 -18.980257 3.927573 3.000000
-13.143700 -18.522352 3.967962 13.000000
-12.986970 -18.505928 3.949834 37.000000
-13.574332 -18.145185 3.959012 21.000000
-13.600456 -18.061529 3.950063 7.000000
-13.759089 -17.687059 3.914954 9.000000
-15.651163 -16.207253 3.936295 6.000000
-15.516388 -16.271053 3.928034 11.000000
-15.980513 -15.736937 3.918396 27.000000
-16.448874 -15.500632 3.948686 2.000000
-16.362926 -15.516986 3.939737 10.000000
-16.606514 -15.453347 3.963143 3.000000
-16.437090 -15.392320 3.934230 34.000000
-14.514695 -14.652143 3.975720 8.000000
-14.642633 -14.596703 3.985563 26.000000
-14.532926 -14.578653 3.968149 29.000000
-14.795214 -14.427926 3.983670 14.500000
-14.672478 -14.443796 3.968906 16.000000
-14.792388 -14.111238 3.940892 1.000000
-14.628979 -14.043401 3.909092 24.000000
12.759930 -9.209438 3.906868 32.000000
12.902656 -9.220373 3.937229 31.000000
13.063244 -9.242366 3.972890 36.000000
11.737489 -9.104462 3.970010 37.000000
11.869117 -9.117372 3.999960 36.000000
11.561551 -9.084911 3.929731 37.000000
13.475956 -8.701313 3.982529 4.000000
-16.924568 -3.477196 3.968635 2.000000
-16.755814 -3.387694 3.926549 19.000000
-16.750181 -2.842101 3.902372 4.000000
-14.441719 -2.825497 3.932830 0.000000
-16.790794 -2.740567 3.907744 6.000000
-14.439139 -2.777926 3.929731 0.000000
-15.687247 -1.358663 3.909278 0.000000
-15.916113 -1.227474 3.963252 0.000000
-18.619780 2.085255 3.954490 8.500000
-18.071640 4.852423 3.949327 2.000000
-18.037422 4.904044 3.945197 0.000000
13.617557 8.492679 3.984457 0.000000
12.021026 8.647532 3.957616 0.000000
-11.258573 9.463816 3.930764 0.000000
-10.640304 10.086688 3.918371 19.000000
-19.100992 12.075142 3.947998 4.000000
-9.854618 12.261055 3.905423 0.000000
10.361655 12.326677 3.997950 1.000000
-9.706137 14.138377 3.939085 12.000000
-9.738547 14.281531 3.970426 12.000000
-9.716946 14.395090 3.989230 56.000000
-9.373685 14.319032 3.931026 0.000000
-9.134374 14.343620 3.905953 2.000000
-9.630629 14.462350 3.991021 27.000000
-8.648811 14.890018 3.955203 6.000000
-8.353745 14.807383 3.905058 12.000000
-8.911250 14.907314 3.989230 12.000000
10.565364 15.286809 3.922068 3.000000
-7.511957 15.394971 3.934608 2.000000
10.574880 15.403818 3.943545 7.000000
-7.533193 15.562365 3.971321 6.000000
10.592015 15.638460 3.986500 26.000000
-6.587033 15.762117 3.923862 0.000000
-6.712878 15.853000 3.954308 0.000000
-6.547741 15.949289 3.960128 1.500000
10.739355 17.219982 3.912121 34.000000
11.111207 -37.972771 4.091438 1.000000
11.602316 -37.667381 4.075803 13.000000
12.285451 -37.169537 4.048236 4.000000
12.359306 -37.002445 4.034247 15.000000
13.392315 -36.975704 4.066751 13.000000
13.531649 -36.996975 4.073746 2.000000
14.012445 -36.868645 4.078683 14.000000
12.395334 -36.725929 4.008326 3.000000
13.178032 -36.744194 4.036716 18.000000
12.991975 -36.586697 4.014909 7.000000
13.944350 -36.345238 4.025606 15.000000
13.530297 -36.284912 4.004622 18.000000
14.055593 -36.293827 4.024784 3.000000
-13.919477 -30.221420 4.029410 8.000000
-14.058569 -30.025478 4.014983 19.000000
-15.292892 -29.465204 4.020273 4.000000
-17.389782 -23.707989 4.082470 2.000000
-17.117346 -23.646690 4.053314 1.000000
-13.248917 -22.015066 4.027296 16.000000
-13.323149 -21.826826 4.008094 7.000000
-16.598352 -19.753126 4.044019 21.000000
-13.083061 -19.454979 4.096004 45.000000
-13.132495 -19.331169 4.082925 46.000000
-13.214559 -19.256086 4.080172 42.000000
-13.250352 -19.178816 4.072599 46.000000
-13.267787 -19.075634 4.059519 53.000000
-15.291545 -17.740446 4.091874 0.000000
-15.310425 -17.099741 4.009954 19.000000
-15.378925 -17.014229 4.006856 7.000000
-13.758913 -16.058470 4.076419 16.000000
-15.112549 -14.970788 4.100648 8.000000
13.544632 -9.298527 4.078911 10.000000
13.214739 -9.256498 4.005661 34.000000
13.354403 -9.271109 4.036182 33.666668
12.007320 -9.133801 4.031977 37.000000
12.192719 -9.154466 4.074837 38.000000
13.436711 -8.917194 4.003733 6.000000
-14.881776 -2.381010 4.027845 3.000000
-14.936464 -2.149716 4.033010 4.000000
-15.095207 -1.834738 4.063993 2.000000
-16.229340 -1.328608 4.042768 5.500000
-16.263107 -0.959048 4.044696 26.750000
-16.333502 -0.847430 4.060599 5.000000
13.968850 8.469836 4.055779 0.000000
14.058581 8.463956 4.074092 0.000000
14.128420 8.445642 4.086622 7.000000
-10.458889 11.032936 4.062960 19.000000
-10.397288 11.106894 4.066058 15.000000
-9.877568 11.382887 4.027845 28.000000
-10.050539 11.508980 4.083616 2.000000
-9.866195 11.515154 4.052632 24.000000
-19.712976 11.779287 4.012019 22.000000
-19.954227 12.180109 4.084302 66.000000
-19.754736 12.143694 4.051259 12.000000
10.459034 12.284978 4.005661 28.000000
-12.211453 12.800900 4.063553 30.000000
-12.132554 12.852376 4.059672 10.666667
-9.953913 12.958139 4.056744 18.000000
10.448159 13.961262 4.005348 1.000000
10.441463 14.044073 4.019676 7.000000
-9.562388 14.912127 4.068925 20.000000
-8.322435 15.540803 4.049225 15.000000
-7.866904 15.560332 4.004900 28.000000
-8.336653 15.745211 4.092207 10.000000
-8.056438 15.750443 4.063553 23.000000
10.608370 15.769079 4.011281 6.000000
-7.599021 15.824926 4.032212 8.000000
10.621836 15.896700 4.035236 6.000000
10.655286 16.165726 4.086451 6.000000
-7.144763 16.299398 4.087730 6.000000
10.137267 -39.169716 4.184014 3.000000
11.280368 -39.005074 4.198826 4.000000
11.351443 -38.793785 4.179899 10.000000
11.778610 -38.454056 4.158916 6.000000
11.912300 -38.458675 4.163442 3.000000
11.611610 -38.338554 4.142457 16.000000
12.243912 -38.249958 4.153155 20.000000
11.268847 -38.067394 4.105427 16.000000
13.657551 -38.081234 4.183602 10.000000
13.798800 -38.097996 4.190186 4.000000
11.867772 -37.893288 4.106250 11.000000
14.728580 -37.854984 4.200472 19.000000
15.021058 -37.727089 4.199237 9.000000
12.830409 -37.624508 4.110776 9.000000
12.929108 -37.527588 4.104604 10.000000
14.084396 -37.411453 4.133817 27.000000
-10.759033 -32.975773 4.200608 10.000000
-11.851103 -32.472443 4.186182 2.000000
3.688996 -29.532961 4.132532 44.000000
3.780249 -29.509436 4.130881 39.000000
12.713678 -27.116156 4.158387 3.000000
14.132596 -26.579546 4.179842 9.000000
-17.619499 -23.863604 4.118778 15.000000
-17.625841 -23.715918 4.102825 5.000000
-18.069052 -23.684710 4.136382 2.000000
-15.919152 -21.560678 4.200726 5.000000
-13.855760 -19.014927 4.110461 23.000000
-13.786712 -19.045597 4.107708 5.000000
-12.253027 -17.848276 4.173333 1.000000
-13.619261 -16.944998 4.190747 3.000000
-13.618085 -16.834948 4.174090 3.000000
-13.743546 -16.613029 4.156297 12.500000
-13.638953 -16.645758 4.148347 18.000000
-13.819247 -16.439983 4.140019 13.000000
-13.780122 -16.498386 4.143805 22.000000
-13.999095 -16.235285 4.132448 11.000000
13.979968 -9.341115 4.174330 2.000000
12.619113 -9.198645 4.173468 36.000000
12.330283 -9.167296 4.106337 41.000000
12.427407 -9.179025 4.129058 37.000000
12.524727 -9.190232 4.151779 36.000000
-18.620090 -6.342427 4.151709 16.000000
-18.621382 -6.277642 4.147579 0.000000
-18.799431 -5.815801 4.153361 7.000000
-18.843805 -5.764730 4.159143 0.000000
-18.983625 -5.612392 4.178143 0.000000
14.768864 -5.290957 4.192746 61.666668
14.782793 -5.139253 4.182763 54.333332
14.797112 -5.014317 4.175533 58.000000
-16.231585 -3.228664 4.108790 6.000000
-15.535691 -1.987411 4.185861 5.000000
-15.258238 -1.805932 4.106337 3.000000
-15.662160 -1.207889 4.198254 38.000000
-19.350918 3.596960 4.154187 21.000000
-19.160839 3.936645 4.128580 37.000000
-19.061167 3.999458 4.110682 21.333334
-18.630409 11.269663 4.197309 22.000000
-10.860435 11.242376 4.177598 2.000000
-10.461996 11.270198 4.109779 15.333333
-18.564072 11.336001 4.193018 24.000000
-18.461451 11.353123 4.177876 21.000000
-18.285957 11.364315 4.150240 22.000000
-18.303740 11.495275 4.166519 7.000000
-10.504395 11.507812 4.164173 11.000000
-10.243216 11.533227 4.122517 9.666667
-10.068873 11.677261 4.120796 2.000000
-9.995941 11.891606 4.151779 17.000000
-19.574253 13.342645 4.138686 0.000000
10.488216 14.579782 4.125339 5.000000
10.514894 14.714160 4.153993 1.000000
10.666612 16.294085 4.110406 5.000000
10.664436 16.402983 4.129405 36.000000
10.680788 16.541618 4.155839 36.000000
10.694261 16.677223 4.181447 37.000000
-9.787496 16.850407 4.112885 27.000000
-9.719685 16.916672 4.117841 26.500000
-9.594207 17.006153 4.121145 17.000000
-9.253852 17.544065 4.186403 3.000000
-10.466408 18.897411 4.164248 35.500000
-10.172436 19.139503 4.178254 4.000000
11.329431 -39.640938 4.263423 9.000000
11.134550 -39.427448 4.236679 4.000000
10.981758 -39.358761 4.225570 7.000000
12.597973 -38.934345 4.231742 5.000000
12.883553 -38.979088 4.245319 10.000000
12.314655 -38.891354 4.218575 3.000000
13.674026 -38.894485 4.263423 15.000000
14.204062 -38.835426 4.276178 23.000000
12.680642 -38.773563 4.218575 6.000000
14.707909 -38.698502 4.281116 4.000000
13.111649 -38.449226 4.200883 18.000000
14.199182 -38.447231 4.238325 4.000000
15.737535 -38.467648 4.297985 6.000000
15.128784 -38.347775 4.263012 12.000000
15.400585 -38.329487 4.271652 7.000000
15.507472 -38.247730 4.267949 15.000000
14.588550 -38.024307 4.211581 6.000000
-10.838368 -33.576256 4.272742 2.000000
-11.670830 -33.270802 4.269857 2.000000
-10.168076 -33.279037 4.214073 7.000000
-10.912083 -32.975601 4.206379 8.333333
-12.657168 -32.750744 4.252064 4.000000
-12.121373 -32.575981 4.209264 2.000000
-14.543668 -32.106018 4.268414 38.000000
-14.775013 -32.078926 4.277071 17.000000
-14.657660 -32.089066 4.272262 19.000000
13.831798 -27.240395 4.242006 8.000000
14.793234 -27.200453 4.299219 20.000000
14.090855 -26.839056 4.208999 1.666667
14.380680 -26.842344 4.228253 19.000000
-13.172105 -24.059345 4.299209 16.000000
-13.045516 -24.006857 4.282485 30.000000
-13.161737 -23.862131 4.271337 7.000000
-13.591996 -23.409739 4.242845 10.000000
-13.453260 -23.339342 4.222404 7.000000
-13.350429 -23.330044 4.213114 24.000000
-13.805969 -23.270403 4.240986 13.000000
-13.612455 -23.109365 4.203823 8.000000
-14.064354 -23.041115 4.231076 15.000000
-14.375965 -22.740532 4.216830 3.000000
-12.483138 -21.192165 4.297019 3.000000
-15.892062 -18.792408 4.299772 21.000000
-13.420585 -17.816187 4.299775 5.000000
-13.612173 -17.605743 4.289932 10.000000
-13.090436 -17.607023 4.229361 4.000000
-13.222575 -17.439051 4.218761 47.000000
-13.632284 -17.348507 4.253211 29.500000
-13.291531 -17.378283 4.217499 33.333332
-13.715150 -17.285614 4.253589 4.000000
-14.630831 -16.700926 4.280089 24.000000
-15.697763 -15.846414 4.299775 12.000000
-13.650309 -14.536137 4.208706 4.000000
14.206935 -9.364191 4.224449 0.000000
14.364731 -9.307199 4.249509 5.000000
12.768882 -9.215903 4.208582 36.000000
12.915901 -9.229838 4.242664 37.000000
13.023613 -9.245139 4.268484 35.000000
13.122069 -9.253175 4.291204 36.000000
14.384910 -9.160742 4.234087 25.000000
13.385442 -8.762525 4.275713 5.000000
14.638466 -6.651133 4.297143 25.000000
14.656689 -6.461403 4.280877 42.333332
14.666568 -6.319496 4.268139 64.333336
14.683907 -6.163536 4.256090 64.666664
14.703183 -6.009288 4.245074 38.666668
14.713185 -5.838778 4.230529 38.500000
14.736022 -5.687660 4.221492 49.250000
14.745166 -5.571747 4.212713 66.500000
14.753387 -5.442846 4.202730 65.333336
14.919574 -4.977548 4.203418 14.000000
-15.617023 -1.798669 4.201353 2.000000
-15.897109 -1.175777 4.260221 5.000000
-19.822399 3.942922 4.265703 0.000000
-18.080090 4.854692 4.299952 2.000000
13.607677 8.486517 4.286041 6.000000
13.493969 8.504162 4.262803 6.500000
-19.403046 10.946445 4.294475 22.000000
-19.341244 10.991817 4.288417 29.000000
-19.163450 10.970573 4.256618 32.000000
-19.281479 11.159129 4.294475 16.500000
-18.954994 11.250181 4.249046 8.000000
-10.378589 12.190483 4.278811 8.000000
-10.122478 12.354050 4.268484 5.000000
10.351518 12.314617 4.299467 20.000000
10.422300 13.835883 4.300591 15.000000
-9.522546 14.348885 4.275532 60.000000
-7.445802 15.381829 4.242762 20.000000
-7.493232 15.604619 4.297700 1.000000
-6.887386 15.847470 4.289989 7.000000
-6.733183 15.900952 4.287098 0.000000
10.711191 16.819679 4.208706 34.000000
10.721055 16.952480 4.233488 42.000000
10.732270 17.088823 4.259095 45.000000
10.744805 17.228722 4.285529 45.000000
-10.377353 19.232609 4.212704 28.000000
-10.938721 19.389364 4.291446 2.000000
13.771481 -39.568542 4.332547 7.000000
15.232766 -38.969498 4.326786 4.000000
15.419912 -38.728859 4.310740 9.000000
15.917507 -38.561455 4.314031 11.000000
-10.810140 -33.852242 4.303520 3.000000
-11.967953 -33.443577 4.301596 19.000000
13.219836 -28.427721 4.353131 4.000000
13.876709 -28.426285 4.392190 18.000000
14.042722 -28.313688 4.388339 7.000000
13.895976 -28.240353 4.370185 14.000000
14.505697 -28.128355 4.394391 4.000000
13.984566 -27.975290 4.342679 9.000000
14.240379 -27.828142 4.340478 42.000000
17.376022 -26.352118 4.382838 5.000000
17.089111 -26.095015 4.331126 5.000000
17.497519 -25.999830 4.351481 6.000000
17.230803 -25.777985 4.305270 10.000000
-13.811898 -24.313343 4.382827 12.000000
-13.545672 -24.376802 4.371059 2.000000
-13.609279 -24.132874 4.342567 1.000000
-13.506371 -24.127234 4.333895 10.000000
-13.929317 -23.990711 4.348141 11.000000
-14.219549 -23.796818 4.345044 6.000000
-17.606829 -21.222595 4.322127 17.000000
-17.438078 -21.290005 4.313455 1.000000
-13.234806 -21.229551 4.370678 23.000000
-13.180490 -21.291128 4.374808 8.000000
-12.879164 -21.249289 4.341076 6.000000
-17.472200 -21.195473 4.305403 3.000000
-13.288861 -21.167847 4.366548 26.000000
-12.731078 -21.154600 4.313540 8.000000
-12.607052 -21.173698 4.305280 21.000000
-13.443120 -20.972000 4.352091 33.000000
-13.231072 -20.929491 4.325932 12.000000
-15.774966 -19.136564 4.332816 1.000000
-15.731858 -18.962576 4.304591 10.000000
-15.860827 -18.875425 4.307345 6.000000
-13.293927 -18.480034 4.388360 7.000000
-15.833052 -16.389879 4.392902 1.000000
-15.667242 -16.320536 4.361103 1.000000
-15.865943 -15.717114 4.305075 11.000000
-15.932037 -15.683724 4.309618 4.000000
-14.915508 -14.499633 4.390436 30.000000
-14.737646 -14.507948 4.364829 34.000000
-14.445526 -14.490978 4.318570 19.000000
-14.648861 -14.330207 4.325179 26.000000
-14.779636 -14.099073 4.311136 11.000000
-14.815336 -14.044494 4.308658 24.000000
13.242864 -9.276198 4.321155 43.000000
13.381724 -9.279676 4.352139 35.500000
13.539969 -9.295326 4.389319 37.000000
14.526487 -7.701114 4.394138 52.333332
14.546693 -7.498466 4.373827 61.000000
14.558997 -7.389432 4.363499 48.000000
14.589905 -7.233019 4.352139 9.000000
14.658496 -6.813577 4.320122 1.000000
14.644734 -6.751317 4.309794 6.000000
15.679214 3.686189 4.304631 0.000000
15.717915 3.904351 4.328385 1.000000
15.716690 4.035354 4.336647 14.000000
15.716842 4.167287 4.345598 34.000000
15.730762 4.319426 4.359781 57.200001
15.740430 4.465982 4.372794 17.000000
-19.955656 4.625475 4.323526 30.000000
15.764179 4.606816 4.389319 0.333333
15.648368 8.285316 4.396010 36.500000
15.533851 8.318707 4.374806 3.000000
13.820538 8.469191 4.332000 4.000000
13.964377 8.467125 4.364532 1.000000
14.070365 8.471049 4.389319 0.000000
-19.937756 10.757834 4.367160 26.000000
-19.328632 11.389975 4.324760 12.000000
-19.400740 12.014908 4.398959 2.000000
-19.292913 12.032147 4.383060 2.000000
10.456244 12.281700 4.310827 6.000000
10.291214 12.400230 4.306696 5.000000
10.420103 12.317439 4.311860 1.000000
-10.337790 12.416765 4.318057 2.500000
-10.372679 12.578586 4.357303 19.000000
-10.058020 12.924747 4.376925 0.000000
10.444026 14.047521 4.345891 12.000000
10.462118 14.164576 4.371914 3.000000
-9.714233 14.391068 4.310712 49.500000
-9.638756 14.425416 4.307338 60.000000
-9.583248 14.572418 4.330149 37.666668
-9.354453 14.740258 4.334325 9.000000
-6.871365 15.947464 4.311193 3.000000
-7.284547 16.066153 4.379625 14.000000
-9.054315 16.780590 4.379646 14.000000
10.758630 17.372196 4.312788 2.000000
-12.712878 -34.833740 4.490587 9.000000
-12.579085 -34.806282 4.481931 10.000000
-12.418841 -34.703552 4.463657 3.000000
-12.268642 -34.626362 4.448750 7.000000
-12.806861 -34.418217 4.447307 9.000000
-12.656101 -34.342777 4.432399 26.000000
-12.863722 -34.078804 4.411240 4.000000
-13.001464 -33.958519 4.403545 27.000000
13.787153 -28.931349 4.449953 14.000000
14.554207 -28.963139 4.500748 7.666667
13.869398 -28.870037 4.447202 6.000000
14.617471 -28.787703 4.482960 10.000000
13.835689 -28.569586 4.407593 2.000000
15.319359 -28.379894 4.478009 2.000000
17.756750 -26.746305 4.457654 8.000000
17.792461 -26.259609 4.404293 10.000000
-12.309381 -25.853590 4.488124 47.000000
-12.435437 -25.701035 4.475117 43.000000
-12.370023 -25.772039 4.480691 46.000000
-12.532551 -25.627396 4.471401 35.666668
-12.837599 -25.502537 4.475117 6.000000
-12.675352 -25.579153 4.474497 1.000000
-12.981387 -25.389708 4.469543 1.000000
-14.084776 -24.434925 4.420610 26.000000
-14.226052 -24.325481 4.416894 13.000000
-13.960835 -24.396736 4.405745 2.000000
-13.813058 -21.698868 4.493902 27.000000
-14.784489 -20.696505 4.443649 5.000000
-15.764765 -20.265320 4.485641 15.000000
-13.170779 -19.271492 4.499659 43.333332
-16.625271 -19.165689 4.432634 4.000000
-16.528967 -19.176037 4.422997 37.000000
-13.438323 -19.057096 4.495116 60.000000
-13.450468 -18.822092 4.459530 12.000000
-15.534245 -17.343626 4.488301 12.000000
-15.440515 -17.348330 4.476944 11.000000
-15.071988 -17.368931 4.433031 4.000000
-15.177773 -17.161383 4.416374 27.000000
-15.695439 -16.979233 4.457259 3.000000
-16.196226 -16.452658 4.450445 11.000000
-15.034253 -14.987094 4.480475 27.000000
-14.817115 -14.678125 4.402001 29.000000
-15.070766 -14.558752 4.422652 2.000000
13.645728 -9.304996 4.414105 37.000000
13.754883 -9.316257 4.439925 34.000000
13.851417 -9.318296 4.461614 34.000000
13.983443 -9.343437 4.494662 15.000000
14.481693 -8.130085 4.438548 44.666668
14.487914 -7.994461 4.422368 42.000000
14.502790 -7.943336 4.419270 60.000000
14.510398 -7.829441 4.406532 60.666668
15.870983 5.545519 4.493114 1.500000
16.230980 7.762679 4.466851 2.000000
16.106056 7.953115 4.459623 7.000000
16.103146 8.046287 4.469261 6.000000
15.797291 8.269158 4.426853 23.000000
15.895536 8.257071 4.447093 15.000000
16.000765 8.248003 4.469261 6.000000
16.113003 8.241894 4.493357 2.000000
-19.798252 11.583076 4.421673 13.000000
-19.597183 11.714739 4.401231 9.000000
-10.434948 12.817327 4.417204 8.000000
-10.581761 13.081391 4.496728 30.000000
-9.131028 14.141462 4.498794 45.000000
10.510742 14.659696 4.478417 3.000000
-9.744507 14.988043 4.438418 5.000000
-8.332170 15.917670 4.460587 24.000000
-8.276755 15.933433 4.457695 3.000000
-7.538581 16.085833 4.410468 3.000000
-7.324785 16.290777 4.434563 20.000000
-7.224558 16.203793 4.404685 4.000000
-7.141314 16.291531 4.416250 4.000000
10.680446 16.315218 4.479042 2.000000
-7.275652 16.457201 4.467333 1.000000
10.678013 16.423864 4.499637 6.000000
-17.991510 32.337631 4.481451 53.000000
-17.496931 32.400433 4.459329 30.000000
-17.632790 32.408096 4.467985 18.000000
-17.400690 32.465736 4.460772 42.000000
-13.343923 -35.183617 4.556951 27.000000
-13.949648 -29.901579 4.581432 19.000000
-13.778792 -29.902235 4.571530 38.000000
-14.208497 -29.761894 4.579232 20.666666
-14.850027 -29.500328 4.585834 51.000000
14.637737 -29.513391 4.574281 5.000000
-14.948002 -29.464127 4.587484 43.000000
-14.728949 -29.490122 4.577032 46.000000
-15.235987 -29.343037 4.590785 14.000000
-14.989993 -29.318249 4.572081 50.000000
-14.488459 -29.238045 4.530821 23.000000
14.936074 -28.962912 4.524770 4.000000
-13.085841 -26.200312 4.590324 3.000000
-13.196563 -26.011852 4.571743 16.000000
-14.954595 -24.673536 4.522191 2.000000
-13.862257 -22.236025 4.577888 2.000000
-13.489832 -22.256828 4.546909 21.000000
-16.327919 -20.453630 4.572381 2.000000
-16.099087 -20.428932 4.544156 4.000000
-16.713055 -20.145273 4.573069 11.000000
-13.075190 -19.568399 4.536758 30.000000
-13.070827 -19.429462 4.514044 42.000000
-13.100965 -19.342775 4.503444 40.000000
-13.502322 -19.276154 4.536758 34.000000
-13.280452 -19.215212 4.502687 46.000000
-12.643185 -17.633801 4.579601 17.500000
-15.719903 -17.385223 4.518209 17.000000
-13.350220 -17.099791 4.578775 54.000000
-13.493822 -17.061613 4.591166 6.500000
-13.633116 -16.962177 4.593093 5.333333
-13.834114 -16.829960 4.598187 2.500000
-13.950122 -16.631044 4.581528 20.666666
-14.151678 -16.543165 4.594883 33.250000
-13.978412 -16.523663 4.568036 29.000000
-14.261897 -16.435385 4.592818 52.000000
-14.353359 -16.384163 4.597361 37.500000
-14.794026 -15.970500 4.594745 16.666666
-15.137999 -15.572182 4.583731 12.000000
14.057802 -9.329378 4.509121 13.000000
14.339496 -9.322855 4.571088 37.000000
14.366997 -9.244722 4.565924 32.000000
-18.785433 -6.464677 4.563214 14.000000
-19.367401 4.042533 4.544409 37.000000
15.874044 5.658756 4.503958 4.000000
15.896190 5.807801 4.523064 2.500000
15.902864 5.980722 4.540793 12.333333
15.917959 6.129478 4.558695 11.000000
15.938030 6.295924 4.579867 10.500000
11.620458 12.491978 4.559728 0.000000
11.589025 12.536935 4.562826 50.000000
11.505600 12.764816 4.592777 48.000000
-11.082519 13.017305 4.569023 8.000000
-19.680393 13.239640 4.572343 15.000000
-10.637061 13.291411 4.549744 18.333334
-19.632513 13.387377 4.580672 15.000000
-10.475063 13.373764 4.540105 10.000000
10.409340 13.639503 4.585547 3.000000
-9.710881 14.145288 4.585547 24.000000
-9.638095 14.134218 4.572121 14.000000
-9.647822 14.244414 4.597940 7.000000
-9.222141 14.381527 4.565924 9.000000
-9.212205 14.465837 4.583482 5.000000
10.526211 14.927385 4.534801 40.000000
10.552340 15.115320 4.576728 16.500000
-9.234635 15.614925 4.503959 13.000000
17.101168 16.572124 4.590515 10.000000
10.696396 16.623196 4.540380 6.500000
16.917295 16.653624 4.576129 1.000000
16.909536 16.750916 4.588243 5.000000
-9.411537 17.247604 4.513068 15.000000
11.144336 18.379763 4.536646 23.000000
11.220382 18.374722 4.544081 7.000000
-10.469133 18.902384 4.560602 6.000000
-18.467659 32.708057 4.548776 50.000000
-18.333754 32.710484 4.541081 60.000000
13.292351 -36.342709 4.686311 10.000000
13.414713 -36.323116 4.689197 15.000000
13.699290 -36.158676 4.682624 15.333333
13.847332 -36.092361 4.681502 22.000000
-13.716465 -35.491703 4.607925 10.000000
-13.907098 -30.431850 4.645797 39.000000
-13.742665 -30.493382 4.644147 11.000000
-14.168281 -30.000330 4.606738 9.000000
-15.185464 -29.471764 4.603437 46.000000
-17.420698 -24.065754 4.656599 1.000000
-13.305923 -23.252270 4.680460 2.000000
-13.429996 -23.130722 4.672887 32.000000
-13.347424 -23.155733 4.669446 35.000000
-13.474745 -23.040800 4.663249 31.000000
-13.818358 -22.638109 4.633648 33.000000
-15.833433 -21.586174 4.677018 5.000000
-15.294031 -21.552641 4.617126 11.000000
-15.975441 -21.215530 4.639844 8.000000
-16.058233 -21.048950 4.625388 1.000000
-13.418871 -20.358519 4.700299 7.000000
-12.808809 -18.164373 4.691117 2.000000
-14.509239 -16.353697 4.614295 18.000000
-14.837001 -16.203161 4.637012 3.000000
-14.681110 -16.236538 4.620077 10.000000
-15.058812 -15.935356 4.627512 15.000000
-15.118427 -15.748747 4.607687 24.500000
-14.518258 -14.382071 4.693950 11.000000
-14.599977 -14.282387 4.691263 27.000000
-14.513364 -14.287162 4.677831 32.000000
-14.706515 -13.941335 4.654550 26.000000
-19.669714 3.998271 4.610374 29.333334
