# This PCD file was generated using the MATLAB® pcwrite function
# from Computer Vision Toolbox®.
# .PCD v.7 - Point Cloud Data file format
VERSION .7
FIELDS x y z intensity
SIZE 4 4 4 4
TYPE F F F F
COUNT 1 1 1 1
WIDTH 1247
HEIGHT 1
VIEWPOINT 0 0 0 1 0 0 0
POINTS 1247
DATA ascii
6.926708 2.742481 1.572379 1.500000
6.961506 2.986579 1.598813 0.500000
6.270562 3.035360 1.600169 32.000000
6.182245 3.211419 1.600169 31.000000
6.396156 3.183450 1.507948 48.000000
6.446602 3.162348 1.515520 30.333334
6.661239 3.207188 1.560402 55.666668
7.532896 3.161853 1.574843 19.333334
-10.442230 3.318558 1.521368 53.000000
-10.380263 3.245019 1.510090 46.000000
5.141013 3.273925 1.513207 40.000000
5.254946 3.311692 1.542122 27.000000
6.159451 3.273788 1.558828 27.000000
6.409304 3.291418 1.520751 46.500000
6.792993 3.261927 1.521610 58.000000
7.166037 3.317284 1.522222 4.000000
7.379461 3.262395 1.555346 24.000000
9.034517 3.302681 1.507727 61.000000
5.268166 3.401626 1.556900 30.000000
6.338004 3.394136 1.517447 42.000000
6.599463 3.375663 1.564532 11.000000
7.106056 3.412280 1.519572 8.000000
9.048075 3.453366 1.517978 61.000000
6.644192 3.585012 1.593443 52.000000
9.042537 3.582085 1.524482 64.250000
5.887777 3.620768 1.587633 41.000000
9.055107 3.686113 1.532379 57.500000
14.123442 3.623662 1.507819 35.000000
6.358535 3.760374 1.559162 35.000000
9.176466 3.786014 1.555916 7.000000
11.852636 3.794059 1.507122 14.000000
6.063199 3.834477 1.514143 34.000000
9.141566 3.839006 1.554058 7.000000
11.808174 3.841279 1.503755 17.000000
5.503578 4.038345 1.567933 43.000000
6.127633 4.094353 1.555445 0.000000
6.311334 4.089139 1.587248 48.500000
7.026176 4.051661 1.563486 2.000000
9.140696 4.060194 1.567685 47.500000
6.049873 4.212305 1.555941 31.900000
6.140726 4.140377 1.563155 65.000000
6.330559 4.144180 1.550970 48.333332
9.162998 4.191283 1.579329 22.799999
5.769698 4.289645 1.517447 63.000000
5.890725 4.274179 1.536116 37.150002
6.688912 4.230189 1.525629 55.000000
6.788679 4.233804 1.542286 41.000000
6.938853 4.297243 1.573328 43.000000
5.975182 4.413338 1.567836 44.000000
6.694942 4.322870 1.536229 25.000000
9.173367 4.362592 1.592151 38.250000
5.921301 4.472185 1.566184 24.000000
6.570057 4.510412 1.536229 27.000000
9.176120 4.443816 1.598035 44.000000
5.956115 4.575244 1.585183 18.000000
-10.404325 4.636656 1.581607 5.000000
-10.466794 4.796531 1.598660 26.000000
-10.366318 4.796683 1.586007 31.000000
6.608504 4.722507 1.565757 20.000000
-9.860754 4.867063 1.526869 16.500000
6.326281 4.846879 1.536304 17.500000
6.476054 4.830627 1.557428 20.000000
-7.587482 4.999226 1.587460 5.000000
6.138772 5.013784 1.527900 19.500000
-7.493356 5.107782 1.584362 23.750000
6.123316 5.081966 1.533957 23.666666
6.368308 5.031163 1.564495 39.333332
-10.265295 5.187629 1.597010 6.000000
-9.843410 5.150387 1.542548 20.000000
-10.170207 5.260467 1.589858 23.000000
-9.828349 5.221428 1.545298 61.000000
-7.481853 5.238849 1.595721 20.000000
6.911022 5.259032 1.517243 8.000000
7.080269 5.283231 1.543402 10.500000
7.369388 5.268186 1.582641 2.000000
5.756130 5.560549 1.542791 35.666668
6.013550 5.558784 1.578628 34.500000
6.782544 5.559275 1.532158 29.333334
6.850629 5.615166 1.547533 43.000000
5.708480 5.672659 1.551371 28.833334
5.936849 5.663473 1.581657 40.000000
6.457057 5.712722 1.506228 34.000000
6.639707 5.690928 1.527798 43.333332
6.767988 5.663937 1.541853 32.500000
7.011833 5.710565 1.579888 11.000000
9.287664 5.673709 1.511191 3.666667
5.668081 5.812339 1.565000 20.000000
6.483222 5.772282 1.516554 30.000000
5.600776 5.876280 1.564892 18.285715
6.359011 5.830992 1.507376 50.666668
6.969124 5.897711 1.595032 14.000000
-10.905323 6.012616 1.508083 7.000000
-9.451886 6.016880 1.555751 41.000000
-9.282838 5.950327 1.530995 28.000000
5.543535 5.987545 1.572950 14.250000
6.658743 5.966163 1.561989 61.000000
-10.931509 6.071910 1.514335 8.000000
-9.604700 6.071837 1.577756 18.000000
6.517921 6.027215 1.550974 69.000000
-9.362272 6.126498 1.553550 2.000000
9.339827 6.306943 1.564828 2.500000
-10.704249 6.348142 1.507122 34.000000
-8.946561 6.519165 1.537046 7.000000
7.220906 6.449452 1.517514 59.000000
9.353043 6.466699 1.578856 28.000000
9.413129 6.421200 1.582157 14.000000
-8.932427 6.551924 1.538147 17.000000
-11.219247 6.717288 1.583584 25.000000
9.347009 6.681936 1.595360 42.000000
7.168624 6.798016 1.548483 38.000000
6.820449 6.865860 1.516894 22.000000
7.095751 6.900477 1.551374 4.333333
6.983924 7.037811 1.554058 40.666668
7.143720 7.079178 1.576356 21.000000
6.484739 7.170903 1.515390 54.428570
6.602952 7.145535 1.524946 45.000000
7.036869 7.218532 1.580072 31.500000
6.430475 7.288833 1.523501 23.666666
-8.770226 7.416666 1.594809 89.000000
-8.638264 7.351738 1.575005 36.000000
6.569541 7.383862 1.549103 50.000000
-8.557441 7.517895 1.581607 10.000000
6.374850 7.490425 1.541670 63.000000
-8.341050 7.611091 1.567853 19.000000
6.906554 7.521353 1.600512 14.000000
-8.035747 7.634263 1.539027 11.400000
15.765200 7.668804 1.505444 29.000000
-8.380363 7.744013 1.584357 2.000000
6.664315 7.731589 1.599893 58.000000
15.776932 7.807754 1.511604 46.333332
15.789272 7.917050 1.516738 53.333332
9.491230 8.086347 1.510007 14.666667
15.801217 8.076910 1.523856 50.000000
9.515480 8.210644 1.522029 17.000000
15.836497 8.296724 1.535218 8.000000
9.516706 8.396261 1.536937 28.500000
15.824450 8.353878 1.536587 0.000000
7.621998 8.512773 1.586558 6.000000
9.578076 8.476947 1.548959 10.000000
15.848927 8.494558 1.544116 0.000000
7.081581 8.590644 1.545848 25.000000
7.236634 8.557481 1.556117 33.000000
9.512797 8.526358 1.547036 50.000000
7.192015 8.668979 1.564003 13.000000
9.559681 8.622693 1.559058 18.000000
15.871757 8.700414 1.554268 4.666667
7.067487 8.768237 1.563727 18.000000
-9.089513 8.885584 1.539341 3.000000
7.215106 8.837246 1.584082 12.500000
9.535110 8.820340 1.573004 49.000000
9.612473 8.836025 1.581179 14.000000
15.870256 8.862354 1.560884 10.000000
-9.063081 8.943642 1.541986 5.000000
9.580861 8.975077 1.589835 25.000000
15.892269 9.006112 1.568585 2.500000
15.903291 9.111588 1.573889 3.000000
6.765165 9.162431 1.581423 9.333333
15.912100 9.283417 1.581931 18.500000
-8.958591 9.443688 1.576370 72.000000
15.925482 9.425835 1.589118 20.000000
-7.903393 9.589633 1.504909 18.000000
-7.888191 9.682222 1.512411 17.000000
-8.400306 9.766134 1.560020 13.500000
-8.748020 9.884360 1.598491 1.000000
7.498833 9.897235 1.503755 56.000000
7.386032 9.974319 1.503034 5.000000
-8.131151 10.066321 1.567073 36.000000
7.498339 10.026884 1.516258 12.000000
-8.065422 10.173978 1.572283 15.750000
-7.928403 10.164274 1.561102 22.250000
7.159271 10.194164 1.508564 61.500000
7.426987 10.129132 1.521067 4.000000
-11.106080 10.259165 1.563502 13.000000
-10.463511 10.293236 1.517831 4.000000
-10.363256 10.258880 1.507957 47.000000
7.143662 10.309150 1.518903 57.500000
7.483973 10.274384 1.539341 20.000000
-11.152473 10.367149 1.574611 0.000000
-7.974334 10.373601 1.584545 14.000000
6.821306 10.356850 1.501832 23.000000
-11.083146 10.499099 1.578726 14.666667
-11.028456 10.579608 1.580371 12.000000
6.932206 10.597557 1.533571 53.000000
6.770774 10.640278 1.527319 74.000000
7.055715 10.639838 1.546074 21.000000
-11.101609 10.784534 1.600532 30.000000
-10.719891 10.813851 1.574611 10.000000
-10.635608 10.796454 1.567205 20.000000
-10.534835 10.761580 1.557330 30.000000
-10.200201 10.752531 1.532643 0.000000
9.732570 10.805489 1.503842 13.000000
-10.555508 10.919096 1.570497 6.000000
7.156315 11.015550 1.590797 14.000000
9.725417 10.934767 1.513305 4.000000
7.017328 11.104607 1.590797 65.000000
9.756289 11.109261 1.528940 27.000000
-9.678144 11.287696 1.537581 7.000000
5.349645 11.240998 1.507602 50.000000
9.772988 11.234676 1.539844 28.000000
-9.060270 11.410748 1.506722 28.000000
9.798136 11.407527 1.555067 13.000000
-9.711168 11.434712 1.551364 9.000000
19.697544 11.491806 1.559470 15.000000
5.584373 11.593075 1.558337 42.000000
5.662426 11.614839 1.564829 57.000000
9.804892 11.524784 1.564736 10.000000
18.713755 11.598498 1.505573 0.000000
19.221413 11.540203 1.533135 7.500000
19.552074 11.530847 1.552238 1.000000
-9.214133 11.679684 1.538404 11.000000
5.094273 11.632648 1.537899 48.000000
-9.628536 11.780613 1.573377 44.000000
5.168409 11.903567 1.571561 23.000000
-4.891237 11.955783 1.564348 1.000000
5.141978 11.945278 1.574928 20.000000
5.530247 12.007054 1.600896 2.000000
9.825081 11.923017 1.597652 2.000000
3.033914 12.069600 1.507122 37.000000
4.254371 12.087523 1.551845 28.000000
4.374292 12.103755 1.558577 30.500000
4.464453 12.055986 1.556894 19.000000
5.029570 12.100620 1.586950 45.000000
4.110979 12.145422 1.552806 26.000000
5.093666 12.147015 1.595125 73.000000
4.226805 12.233812 1.567474 35.500000
4.091344 12.407390 1.582141 21.000000
3.101136 12.503035 1.560020 44.000000
3.824486 12.517142 1.585026 35.000000
2.924501 12.547548 1.560260 19.000000
3.040399 12.595506 1.569157 16.000000
3.361198 12.614479 1.580939 42.000000
3.769024 12.618868 1.594885 50.000000
3.950186 12.597335 1.598812 30.666666
4.099150 12.563637 1.600415 8.000000
7.496022 12.549780 1.511660 11.000000
3.426304 12.619598 1.583584 33.000000
7.517445 12.675934 1.524003 4.000000
2.753604 12.811685 1.586950 37.000000
7.156084 12.883389 1.524003 12.000000
7.083886 12.944345 1.525923 6.666667
-13.144238 13.176388 1.598187 5.000000
-12.375123 13.210468 1.554382 3.000000
5.779714 13.543799 1.522769 13.000000
-12.246557 13.663394 1.575600 12.000000
-12.038285 13.688426 1.565333 28.000000
-12.234422 13.823635 1.585182 36.000000
-11.883169 14.126720 1.585182 22.000000
4.646513 14.241272 1.549101 1.000000
-11.801812 14.347292 1.595278 16.000000
4.043918 14.357834 1.542518 2.000000
4.482615 14.347906 1.554450 2.000000
10.027999 14.326788 1.501680 2.000000
11.656173 14.373620 1.589118 3.500000
11.823195 14.347785 1.596476 10.000000
4.384013 14.511395 1.567617 5.000000
4.318663 14.626422 1.577080 0.000000
2.208386 14.723912 1.539638 36.000000
3.900385 14.731128 1.575845 6.000000
1.120028 14.896275 1.544781 0.500000
1.232569 14.833505 1.539227 2.000000
2.011786 14.840380 1.548690 21.000000
2.154044 14.838491 1.550541 7.500000
2.299115 14.850931 1.554039 18.000000
10.063078 14.868692 1.541720 33.000000
10.080794 14.996149 1.551644 32.000000
-10.038779 15.115293 1.558147 12.000000
1.657716 15.284382 1.589835 6.000000
-10.193126 15.452819 1.589631 0.000000
10.143752 15.454271 1.587407 24.500000
-9.673469 15.717853 1.584840 1.000000
-9.363585 15.707514 1.570296 6.500000
-9.810983 15.829655 1.599214 2.000000
-8.773444 16.246471 1.585525 13.000000
-12.747369 18.554483 1.539412 2.000000
-12.599223 18.525202 1.532044 27.500000
-13.381600 18.836712 1.580073 2.000000
-13.217176 18.855059 1.574616 12.000000
-11.665901 19.224817 1.537774 1.000000
-10.529911 19.353397 1.506664 18.000000
-11.048694 19.425522 1.528223 20.000000
10.487720 19.453400 1.511303 32.000000
-10.788280 19.534882 1.526040 11.000000
-12.112763 19.681320 1.580346 14.000000
-10.962135 19.703154 1.541868 11.000000
10.505628 19.634035 1.522765 36.000000
10.522504 19.814972 1.534227 35.000000
10.530903 19.982088 1.544597 42.000000
10.534657 20.142378 1.554421 38.000000
-11.462427 20.301096 1.594264 12.000000
11.750632 20.246464 1.600814 4.000000
10.548538 20.324139 1.565883 32.000000
-11.060684 20.481934 1.591808 4.000000
-10.914906 20.519318 1.589352 3.000000
10.568687 20.520376 1.578436 27.000000
-9.226460 21.392759 1.593173 0.000000
-9.127682 21.534817 1.599449 6.000000
-11.008230 28.410326 1.552530 8.000000
-10.890295 28.370178 1.548459 10.000000
-10.747282 28.396860 1.547135 10.500000
-11.148363 28.505814 1.559654 8.000000
-10.619642 28.464067 1.548051 11.000000
-10.534314 28.508533 1.548662 6.000000
-10.511975 28.725309 1.558636 5.000000
-9.340830 -31.293287 1.664079 7.000000
-11.509614 -31.248549 1.696852 22.000000
-9.416114 -30.493904 1.626217 2.000000
-10.225328 -30.383945 1.633545 8.000000
-10.025466 -30.421036 1.632120 10.000000
-9.924891 -30.437189 1.631306 4.000000
-9.196623 -30.460680 1.621332 1.000000
-11.930658 -30.318783 1.660211 42.000000
-10.836565 -30.298660 1.639652 7.000000
-8.742313 -30.328175 1.608304 1.000000
-10.689317 -30.185694 1.631713 9.000000
-10.042727 -30.154400 1.619500 11.000000
-9.519738 -30.156044 1.611358 4.000000
-11.943279 -30.073236 1.648812 4.000000
-10.221706 -30.060448 1.617872 2.000000
-9.597426 -30.072708 1.608508 5.000000
-11.941101 -29.794542 1.635581 2.000000
-10.298002 -29.823120 1.607694 13.000000
-10.839174 -29.715822 1.611765 1.000000
-11.986637 -29.504730 1.622757 8.000000
-12.098167 -29.381470 1.619093 9.000000
-12.248778 -29.353592 1.620721 3.000000
-16.349035 -28.385962 1.669168 16.000000
-14.510998 -28.186928 1.615429 31.000000
-14.409653 -28.207474 1.614004 2.000000
-15.825838 -28.086344 1.642705 17.000000
-14.264973 -28.142145 1.607694 7.000000
-15.684876 -28.041786 1.637209 32.000000
-15.590885 -28.080446 1.636599 15.000000
-14.559008 -28.063189 1.610951 42.000000
-15.005304 -27.636339 1.602401 16.000000
-18.369192 -26.078619 1.625403 4.000000
-18.163502 -25.959450 1.614411 5.000000
-11.918235 -21.778128 1.697692 6.000000
-15.243031 -19.225025 1.677771 1.000000
-15.021862 -18.623466 1.636199 8.333333
-8.307388 -17.888556 1.693667 255.000000
-8.289185 -17.703562 1.678610 255.000000
-8.269905 -17.518858 1.663552 255.000000
-8.249549 -17.334454 1.648494 255.000000
-8.231563 -17.157534 1.634120 255.000000
-8.237403 -16.964405 1.619405 136.500000
-10.883810 -16.524986 1.699143 2.000000
-17.471584 -16.366783 1.637109 12.000000
-11.447087 -15.924443 1.684085 12.000000
-11.276570 -15.791676 1.666290 14.000000
-11.656896 -15.587766 1.671423 33.000000
-11.846786 -15.534253 1.677583 4.000000
-11.682203 -15.469011 1.664578 27.500000
-13.585476 -14.386326 1.699143 3.000000
-13.468534 -14.397824 1.692983 13.000000
14.271388 -13.183101 1.668343 57.000000
14.408325 -13.184273 1.677070 28.000000
13.394268 -13.093758 1.608454 57.000000
13.537445 -13.109445 1.618207 56.500000
13.683883 -13.126959 1.628303 57.000000
13.827953 -13.140507 1.638056 56.000000
13.972399 -13.153114 1.647809 57.000000
14.123149 -13.169962 1.658247 57.000000
13.293404 -13.077080 1.601267 58.000000
-1.854240 -12.089289 1.698233 5.000000
-1.921526 -12.023905 1.690714 7.000000
-1.963119 -11.807084 1.661925 10.000000
-2.268005 -11.602995 1.641570 1.000000
-1.948920 -11.389588 1.604437 14.500000
7.883608 -10.665762 1.606186 255.000000
7.962302 -10.666647 1.611956 255.000000
8.105783 -10.662898 1.622055 152.428574
-2.204896 -10.572676 1.692802 46.000000
-2.077653 -10.503996 1.678290 13.428572
-2.765128 -10.305205 1.672362 69.000000
-2.318647 -10.305416 1.655638 64.000000
-3.536479 -10.229799 1.696518 0.000000
-3.474148 -10.205240 1.689705 45.000000
-3.263136 -10.212446 1.680414 35.000000
-3.100863 -10.257340 1.679588 17.000000
-3.020985 -10.224884 1.671123 3.000000
-1.919189 -10.215704 1.629211 14.666667
-2.784756 -10.123789 1.645728 4.000000
-2.695956 -10.097828 1.638172 41.799999
-2.252903 -10.162185 1.631482 42.000000
-3.598049 -10.048959 1.672981 0.000000
-3.808253 -9.941579 1.668646 3.000000
-3.772796 -9.942410 1.666788 13.000000
-8.090151 -8.672512 1.646796 15.750000
-8.483047 -7.994018 1.618465 33.000000
-8.400393 -7.966105 1.607462 34.000000
-7.418452 -7.586063 1.663071 21.000000
-7.362407 -7.623996 1.661213 1.000000
-7.415221 -7.511660 1.654400 1.500000
13.690913 -7.408736 1.609790 33.500000
13.834706 -7.346755 1.619870 36.000000
11.151427 -7.194871 1.607147 1.000000
11.282280 -7.204166 1.621093 4.500000
11.420155 -7.216733 1.636001 13.000000
11.578756 -7.215422 1.652191 13.666667
13.887691 -7.263395 1.620693 38.000000
-7.954488 -7.149673 1.676388 8.500000
8.077095 -7.163654 1.692183 45.000000
13.931830 -7.175364 1.620556 36.666668
-8.223289 -7.048059 1.697551 8.666667
-8.048749 -7.016360 1.673601 14.333333
-7.989586 -7.023964 1.667407 5.000000
8.088418 -7.061022 1.682892 54.333332
11.649633 -7.045580 1.648745 25.250000
13.992916 -7.040754 1.619870 38.666668
6.070485 -6.926914 1.609145 30.000000
6.166955 -6.904637 1.617406 21.250000
8.100157 -6.915855 1.669420 56.750000
11.698711 -6.913114 1.645619 30.750000
14.044051 -6.956260 1.620693 38.000000
14.126730 -6.887070 1.625219 22.000000
6.211085 -6.801993 1.609259 15.000000
6.302759 -6.815900 1.621880 0.000000
11.768572 -6.805545 1.646340 31.000000
8.116555 -6.755389 1.655174 51.250000
11.812824 -6.732452 1.646581 28.000000
14.169691 -6.770736 1.623985 44.500000
14.201455 -6.703902 1.623985 52.000000
-8.220537 -6.652094 1.657497 16.666666
-7.951593 -6.587570 1.618475 35.666668
8.140968 -6.604303 1.643096 58.750000
11.870484 -6.617897 1.645859 27.500000
14.238432 -6.612298 1.623436 66.333336
11.932396 -6.505743 1.645859 27.500000
-7.900476 -6.475682 1.601132 27.000000
8.157447 -6.449396 1.629934 61.250000
11.973032 -6.430653 1.645859 28.000000
14.268702 -6.463596 1.619870 84.666664
8.169759 -6.293926 1.616462 64.000000
12.027775 -6.314722 1.645138 29.750000
14.287737 -6.310613 1.615207 92.666664
12.087664 -6.225557 1.646581 33.000000
14.311753 -6.196199 1.612739 85.666664
8.183525 -6.162313 1.605674 65.666664
12.132404 -6.152458 1.647382 28.000000
12.190729 -6.050220 1.648144 20.250000
12.279619 -5.938844 1.651871 2.000000
-8.790877 -5.484622 1.624049 2.000000
-8.744239 -5.417432 1.612281 5.000000
-8.766288 -5.374100 1.611661 8.500000
12.155354 -5.345869 1.608109 32.500000
12.296954 -5.339213 1.623498 29.000000
12.401205 -5.338236 1.635039 37.000000
12.560354 -5.360037 1.653794 19.000000
-8.155488 -5.258831 1.695367 15.500000
8.281507 -5.108845 1.700014 66.000000
-10.579669 -5.041709 1.627267 3.000000
-10.473716 -5.051888 1.614614 1.000000
-9.275984 -5.044837 1.655019 23.000000
-9.151681 -5.033258 1.637057 14.000000
-10.561008 -4.946609 1.619290 32.625000
-7.910762 -4.970111 1.632206 10.000000
-7.799111 -4.951328 1.613963 20.000000
8.296362 -4.957528 1.688518 66.599998
-10.616826 -4.804376 1.618072 15.857142
-9.456095 -4.838909 1.664929 17.666666
8.305810 -4.805104 1.676436 66.250000
-10.752865 -4.695640 1.629192 12.500000
-10.670868 -4.719769 1.620115 39.000000
-7.909021 -4.729718 1.610005 5.500000
-9.453315 -4.614773 1.648825 0.000000
8.325252 -4.660544 1.666902 66.199997
-10.623366 -4.526914 1.603428 3.000000
-9.520775 -4.526650 1.652364 13.428572
-9.453538 -4.578163 1.646348 0.000000
8.339859 -4.498154 1.655474 66.199997
-10.723022 -4.384718 1.608563 39.000000
-10.698204 -4.413854 1.606912 32.000000
-9.741154 -4.427960 1.677162 10.250000
-9.498675 -4.380962 1.639534 22.000000
8.347843 -4.401318 1.648728 65.000000
8.353145 -4.337292 1.644368 66.666664
8.367968 -4.212379 1.636750 67.800003
-11.102264 -4.177494 1.647071 7.000000
-8.610645 -4.004237 1.659054 12.000000
-8.590890 -4.027922 1.657677 10.000000
-6.892093 -4.061378 1.688439 13.000000
8.380607 -4.055022 1.626561 67.400002
-7.015866 -3.900040 1.694221 11.285714
-6.918832 -3.960850 1.682656 9.000000
8.396101 -3.900960 1.617474 67.000000
-10.136885 -3.850641 1.699615 4.000000
-7.064405 -3.811748 1.694221 2.000000
8.412425 -3.749043 1.609076 70.000000
12.827489 -3.700040 1.616765 20.000000
13.052907 -3.720681 1.643695 22.000000
13.286223 -3.742097 1.671587 22.000000
13.523625 -3.763146 1.699960 19.000000
8.422856 -3.643157 1.603293 67.500000
-10.047795 -3.566006 1.671123 47.000000
-9.745285 -3.389852 1.617236 11.000000
-10.321844 -3.284231 1.697757 7.000000
-9.761141 -3.343884 1.617236 1.500000
-10.356117 -3.187957 1.698377 0.500000
18.544088 -2.960324 1.612560 33.000000
-9.971985 -2.814270 1.624049 5.000000
18.581961 -2.846746 1.614271 33.000000
18.619560 -2.703013 1.615640 33.500000
-10.461419 -2.635491 1.690944 86.000000
-9.947663 -2.539328 1.609184 55.000000
18.650705 -2.558124 1.616553 36.333332
18.683594 -2.443156 1.618036 40.000000
18.703037 -2.385962 1.619063 39.000000
18.710440 -2.327192 1.619063 36.000000
8.546813 -2.108831 1.696994 68.500000
8.558532 -1.955472 1.692350 68.800003
8.578702 -1.804714 1.689927 68.500000
-9.587384 -1.628469 1.698981 7.000000
8.589357 -1.652520 1.686142 68.800003
8.599824 -1.500922 1.682861 69.833336
-8.321057 -1.438793 1.627842 8.000000
-8.298431 -1.408043 1.622542 29.000000
-8.368916 -1.379415 1.635035 7.000000
8.611837 -1.350125 1.680387 70.199997
8.625800 -1.200004 1.678823 69.666664
-11.957256 -1.132390 1.667701 14.500000
-8.389438 -1.028442 1.629356 6.000000
-8.273035 -1.031956 1.607147 34.000000
8.639306 -1.050076 1.677662 68.800003
-8.450731 -0.950833 1.639325 15.666666
8.648187 -0.916280 1.676450 69.699997
8.665735 -0.750524 1.676753 69.599998
8.680243 -0.600895 1.677308 70.166664
8.694337 -0.451079 1.678267 70.800003
8.707598 -0.301018 1.679580 69.666664
8.722796 -0.150719 1.681750 71.199997
13.504949 -0.101355 1.635520 9.000000
8.721964 -0.000000 1.681346 65.333336
8.735362 0.150956 1.684173 67.599998
-13.371593 0.268424 1.619651 10.000000
8.751541 0.288809 1.687959 68.000000
-13.353821 0.477990 1.618208 12.000000
8.773707 0.441452 1.693461 65.000000
-13.233681 0.598625 1.604262 1.000000
8.787278 0.594474 1.697801 50.799999
-13.368459 0.688910 1.621093 4.000000
-13.223468 0.792585 1.604262 11.000000
-13.307230 0.853543 1.614842 7.000000
-13.306516 0.979503 1.615803 16.000000
-10.594935 1.100502 1.669575 12.000000
-10.646611 1.156594 1.678556 16.000000
-10.411434 1.197276 1.642631 1.000000
-10.395847 1.228590 1.640773 26.000000
-9.530250 1.769768 1.693474 6.000000
-7.743927 1.865632 1.681211 22.500000
-7.644317 2.001170 1.667788 8.000000
-7.644678 2.035541 1.669715 25.666666
-7.471402 2.056564 1.635572 2.000000
8.931608 2.116319 1.603637 61.500000
-10.101597 2.306152 1.624049 5.000000
6.613421 2.299155 1.608228 0.000000
8.949226 2.265797 1.612845 60.625000
-10.131071 2.380075 1.631172 10.000000
8.957669 2.406966 1.620503 61.200001
15.305693 2.429667 1.602590 54.500000
6.915829 2.588402 1.696132 30.833334
8.968269 2.546268 1.628764 60.250000
15.320119 2.555480 1.606156 62.333332
8.983432 2.688396 1.638264 58.400002
15.329309 2.705763 1.609721 57.666668
-10.464022 2.763662 1.696363 60.500000
-9.907679 2.809266 1.614139 77.000000
6.848309 2.786391 1.698221 10.500000
7.089950 2.730074 1.674155 11.000000
-10.361269 2.850040 1.684337 62.000000
8.994941 2.846536 1.648315 55.200001
15.344851 2.857879 1.614110 59.333332
9.014984 2.993698 1.659570 59.750000
15.353675 3.009522 1.617950 63.333332
-10.313019 3.029419 1.684750 64.000000
6.293364 3.046336 1.605990 26.000000
-10.336864 3.142647 1.693421 51.000000
6.068797 3.176841 1.700671 23.500000
6.151967 3.142894 1.671875 35.333332
6.281449 3.138674 1.612905 38.333332
9.023261 3.138790 1.669105 58.599998
15.370097 3.163441 1.622751 65.333336
5.666202 3.315042 1.629830 36.000000
5.985778 3.241946 1.690069 27.000000
6.286969 3.249129 1.625540 41.000000
7.050634 3.268389 1.640253 6.666667
7.349334 3.276747 1.698351 20.000000
9.037834 3.287771 1.680222 60.250000
15.381084 3.317117 1.627139 66.666664
5.333451 3.372971 1.686531 26.000000
5.413404 3.337661 1.699699 23.000000
5.580548 3.320102 1.612159 27.666666
6.343205 3.403306 1.653449 20.000000
5.553750 3.463632 1.625010 39.000000
5.703668 3.473534 1.658022 33.875000
6.133830 3.453315 1.635503 14.714286
9.053211 3.439082 1.691960 60.599998
15.392775 3.446345 1.631185 64.500000
5.837953 3.564901 1.698261 37.000000
6.132494 3.549169 1.627481 7.000000
9.046942 3.534534 1.696916 65.000000
15.408474 3.577195 1.635780 66.000000
5.622406 3.680601 1.668383 73.000000
5.982819 3.644699 1.609124 40.666668
12.961139 3.718975 1.632955 12.666667
13.012280 3.674747 1.637444 25.000000
13.111732 3.658395 1.648504 35.000000
13.241836 3.649895 1.663412 31.000000
13.406498 3.650004 1.682648 36.000000
6.275669 3.778260 1.682551 23.000000
12.816998 3.750380 1.617246 0.000000
15.417901 3.732874 1.640443 62.000000
5.663542 3.835948 1.698261 2.000000
15.428671 3.863987 1.644763 60.500000
5.427017 4.048022 1.680912 32.500000
6.964880 4.045524 1.700003 18.000000
15.451994 4.076839 1.652580 57.500000
15.588538 4.034372 1.665130 15.000000
5.716966 4.216527 1.631709 35.777779
5.864960 4.177174 1.653896 34.500000
6.007925 4.172367 1.680120 41.285713
6.350589 4.166647 1.650257 28.666666
6.529799 4.158338 1.633920 56.000000
15.464889 4.210456 1.657449 60.000000
5.670325 4.313405 1.636435 24.000000
5.931736 4.410117 1.697773 22.000000
7.197350 4.364023 1.622542 5.000000
9.253803 4.409873 1.606706 22.000000
15.474157 4.343779 1.662044 54.500000
15.489850 4.479746 1.667461 55.666668
7.227699 4.539202 1.645256 35.000000
9.197556 4.561705 1.609184 42.000000
6.038820 4.638801 1.635448 21.600000
9.172239 4.621112 1.609803 19.666666
15.503088 4.642350 1.673523 59.400002
6.113029 4.803724 1.640941 15.500000
9.173941 4.730968 1.617855 57.000000
9.260721 4.812613 1.635818 19.000000
15.516010 4.792677 1.679325 44.250000
-10.481121 4.869622 1.604712 37.000000
-9.345285 4.889752 1.653161 12.000000
-7.925975 4.906407 1.628592 3.000000
15.533024 4.918414 1.684879 5.000000
-10.590037 5.001367 1.626166 29.000000
-7.829567 4.984149 1.621536 15.500000
6.180778 4.925232 1.668063 27.000000
9.262293 4.938830 1.645264 19.875000
-7.957580 5.065635 1.648039 0.000000
-7.788708 5.053219 1.622052 15.000000
9.199128 5.078192 1.646967 58.000000
9.277786 5.096300 1.659148 23.666666
-10.737545 5.216138 1.657524 6.000000
-10.283081 5.257591 1.603611 6.000000
-9.046581 5.290633 1.642631 0.000000
-7.883587 5.265652 1.656300 13.000000
-7.772182 5.226629 1.636337 0.000000
-7.533856 5.240068 1.603293 26.000000
6.669671 5.224053 1.633142 0.000000
9.268112 5.250107 1.669575 3.000000
15.556827 5.264223 1.698354 54.500000
-10.761059 5.374652 1.670176 35.000000
-9.046941 5.329054 1.645728 15.000000
-7.555066 5.349302 1.617291 16.000000
-7.477958 5.368614 1.608284 18.500000
9.245827 5.372562 1.676078 1.000000
5.705457 5.483919 1.670266 26.000000
-10.278882 5.529954 1.620665 28.666666
-10.177270 5.551167 1.609663 2.000000
9.292319 5.596642 1.700235 4.000000
6.143327 5.678833 1.612699 48.000000
6.512981 5.815125 1.683113 32.500000
-2.743515 5.879226 1.678219 9.071428
6.188350 5.866370 1.643742 73.000000
6.352297 5.872020 1.667592 55.500000
-2.824746 5.930190 1.630793 0.000000
-2.688650 5.929849 1.678286 1.000000
-10.568006 6.180394 1.699883 16.000000
-10.518741 6.240608 1.698233 0.000000
14.160802 6.696805 1.619870 11.000000
9.349414 6.802752 1.605445 50.666668
9.412798 6.773751 1.610213 15.000000
9.361535 6.886832 1.613697 49.000000
-12.002055 7.016141 1.683610 9.500000
7.825415 6.923343 1.637676 20.000000
-12.053492 7.046315 1.690823 4.000000
9.368039 7.059386 1.628734 50.000000
9.438762 7.020072 1.633318 26.000000
9.431681 7.200635 1.647621 14.000000
-11.737541 7.263410 1.671587 20.000000
9.396445 7.220574 1.645421 3.000000
7.107111 7.359629 1.603609 6.000000
9.425280 7.361238 1.660549 13.500000
9.430828 7.485507 1.671827 1.000000
-8.700403 7.595197 1.603611 27.000000
5.889797 7.703521 1.694163 24.333334
7.101683 7.636974 1.634579 35.000000
9.482505 7.640649 1.690898 9.000000
-9.355056 7.761206 1.687780 25.000000
-9.277878 7.779490 1.681179 34.000000
-8.966646 7.778113 1.648171 65.000000
6.650275 7.764493 1.602371 59.000000
6.730516 7.734357 1.607016 49.000000
-9.235003 7.909768 1.688331 41.000000
-9.099072 7.843030 1.667976 49.000000
7.380994 7.862728 1.690324 12.000000
6.450178 8.085842 1.621228 38.555557
6.605212 8.116128 1.640154 87.000000
6.414519 8.192512 1.630863 64.000000
6.247077 8.296176 1.627766 28.000000
6.323442 8.252915 1.629624 20.166666
6.838617 8.269508 1.681963 25.500000
6.208066 8.380719 1.634734 18.000000
-7.717581 8.695583 1.614339 8.500000
-7.619084 8.721623 1.608012 9.000000
7.227557 9.053803 1.608563 50.000000
7.265865 9.190334 1.626717 15.000000
9.592543 9.157326 1.606025 20.000000
-7.461089 9.249918 1.650097 29.000000
-7.379091 9.237009 1.641570 46.000000
7.188637 9.301010 1.632218 29.000000
9.601170 9.310673 1.619651 39.000000
-9.495969 9.519197 1.628307 31.000000
-7.731266 9.432343 1.693419 26.750000
-7.453975 9.492723 1.675861 24.666666
9.629596 9.486131 1.636963 5.000000
-9.590532 9.553777 1.639367 3.000000
-7.421435 9.564193 1.680904 40.500000
-7.344177 9.577922 1.675861 24.333334
-7.222447 9.542819 1.661741 24.333334
-9.317608 9.699356 1.628788 14.000000
7.032483 9.651016 1.658074 18.000000
9.679445 9.655823 1.655718 12.000000
15.957255 9.717443 1.604347 1.000000
-9.589130 9.734280 1.654756 86.000000
7.083441 9.785390 1.677328 17.000000
9.642173 9.740499 1.659805 2.500000
-9.723006 9.870051 1.677839 42.000000
-9.429676 9.877940 1.653794 36.000000
9.655575 9.908300 1.675434 29.000000
-8.748395 9.947576 1.604262 6.000000
6.916145 10.010417 1.689431 15.000000
-9.279438 10.094852 1.660527 4.000000
6.749205 10.104716 1.687230 28.000000
9.655245 10.022891 1.685373 43.333332
15.982320 10.115320 1.624196 0.000000
-9.424363 10.188079 1.680724 2.000000
-8.755882 10.277215 1.635039 21.000000
-8.544859 10.288678 1.619651 35.000000
5.303843 10.487069 1.631778 24.400000
16.016600 10.528971 1.645927 23.000000
15.931787 10.653326 1.645756 2.000000
16.024933 10.642910 1.651916 11.000000
15.972164 10.789679 1.655167 29.000000
4.789046 10.930364 1.656973 38.666668
15.822266 10.980383 1.653798 32.500000
15.973143 10.937059 1.662354 1.000000
-8.241819 11.077413 1.672068 36.000000
15.744443 11.085921 1.653513 52.000000
-8.461066 11.151090 1.695151 12.000000
-8.373887 11.144745 1.688178 25.500000
15.673372 11.183833 1.653399 47.666664
-8.227037 11.246109 1.687457 27.714285
-8.082048 11.251586 1.677679 31.333334
7.349878 11.391673 1.641772 38.000000
15.602663 11.381828 1.658418 34.000000
15.725473 11.395897 1.667658 1.000000
-7.936361 11.571317 1.699239 21.750000
6.403441 11.700973 1.615323 19.000000
5.418997 12.114228 1.607147 11.500000
6.901550 12.109524 1.687938 1.500000
9.843029 12.021551 1.606704 11.000000
-9.870862 12.193855 1.622339 17.000000
5.959838 12.128016 1.636482 33.000000
6.289554 12.141710 1.655958 23.000000
9.845110 12.140442 1.616373 7.500000
4.998472 12.242273 1.601377 39.000000
4.819993 12.356271 1.606186 13.000000
5.215346 12.328441 1.621093 58.000000
6.305013 12.337001 1.677839 14.000000
9.877633 12.417957 1.640854 5.000000
4.714686 12.490238 1.616765 31.000000
5.086504 12.495067 1.633757 28.666666
9.875574 12.576796 1.653609 40.000000
4.032209 12.626972 1.605224 19.000000
3.799177 12.719755 1.607628 40.000000
3.989502 12.769557 1.620132 28.000000
4.106014 12.720055 1.618689 104.000000
5.135751 12.807867 1.671106 21.000000
9.890788 12.746627 1.668421 41.333332
9.908763 12.908687 1.682822 6.000000
3.692379 12.953616 1.631192 3.000000
5.138012 12.930959 1.685052 29.000000
-9.627897 13.025614 1.675004 67.000000
2.720033 13.054208 1.614842 60.000000
3.632207 13.053073 1.640810 1.000000
3.771575 13.075493 1.648023 54.000000
5.022602 13.057073 1.694189 10.000000
5.135186 13.043103 1.697556 41.000000
9.933304 13.025171 1.693931 12.000000
2.761667 13.184730 1.631352 24.666666
2.889007 13.139839 1.629269 25.500000
4.391428 13.178078 1.682167 66.000000
3.650123 13.278841 1.667740 105.000000
2.722014 13.487537 1.666297 27.000000
3.930562 13.467647 1.698998 71.000000
-14.075538 13.587841 1.679978 19.000000
-9.248945 13.599157 1.700720 21.000000
-14.250448 13.670468 1.695721 0.000000
-13.855940 13.630459 1.669027 4.000000
-13.915008 13.774859 1.681347 9.000000
2.160726 13.813881 1.693227 54.000000
2.207869 13.830552 1.696113 8.000000
2.475159 13.825569 1.700922 1.000000
-13.338402 13.972477 1.658761 0.000000
13.712399 14.204565 1.695379 5.000000
13.820919 14.182554 1.700512 25.000000
12.330946 14.310766 1.622143 11.000000
12.476526 14.296977 1.629443 10.000000
13.396236 14.230662 1.678267 4.000000
13.567882 14.232749 1.688534 0.000000
12.008437 14.341537 1.606229 17.500000
12.148581 14.325067 1.612903 6.000000
12.267782 14.328244 1.619747 1.000000
-19.197086 14.450295 1.643113 1.000000
5.595811 14.754343 1.631802 12.000000
-19.048317 14.860864 1.652118 2.000000
-12.374716 14.900126 1.663210 64.000000
4.609004 14.916931 1.614522 18.000000
5.580214 14.853791 1.640854 5.000000
-19.550713 15.007215 1.685412 1.000000
-12.556191 14.974447 1.678096 4.000000
-12.289119 15.084064 1.670738 9.000000
-11.335222 15.036887 1.617009 22.000000
5.439100 15.049966 1.654843 0.000000
-11.536577 15.204397 1.638912 6.000000
-11.342813 15.245302 1.631725 0.000000
-11.239090 15.305805 1.630613 18.750000
-19.375120 15.362042 1.690870 1.000000
-11.996410 15.504751 1.683401 4.000000
2.972783 15.481093 1.630157 1.000000
-11.981642 15.586601 1.688192 4.000000
-10.231892 15.618110 1.603320 12.000000
4.766739 15.601040 1.686936 12.000000
10.167502 15.650599 1.602636 9.000000
-10.217914 15.812636 1.616667 3.000000
-10.097157 15.733973 1.605374 13.000000
10.180943 15.779580 1.612560 20.000000
10.189374 15.902087 1.621800 6.000000
-10.174047 15.963906 1.625565 16.000000
-10.029731 15.957699 1.618492 59.333332
2.090913 15.989876 1.667598 6.000000
10.190714 16.014715 1.630014 8.000000
2.629230 16.144077 1.691462 13.000000
10.191447 16.127508 1.638227 8.000000
1.663900 16.295921 1.693931 2.000000
-9.438485 16.473860 1.630356 15.000000
-9.099567 16.477045 1.616325 5.000000
-9.107149 16.613886 1.626934 7.000000
10.244519 16.554958 1.671765 15.000000
-8.927574 16.656826 1.622827 4.000000
10.255054 16.688925 1.682032 4.000000
-9.440599 16.720238 1.648836 5.000000
10.254468 16.806112 1.690587 32.000000
-9.056854 17.287413 1.675872 17.000000
-8.826275 17.374981 1.673476 24.000000
-9.057764 17.489120 1.691272 22.000000
-8.845187 17.548538 1.687507 7.000000
-8.637162 17.545305 1.679294 21.000000
-8.838146 17.672476 1.696748 18.000000
-7.903148 17.709164 1.665263 2.000000
-7.564847 17.847639 1.664578 3.000000
-7.829693 17.998476 1.685454 0.000000
-7.760320 18.149921 1.695036 1.000000
13.068299 20.115730 1.640384 4.000000
13.200184 20.110600 1.645023 18.500000
13.319057 20.084797 1.648025 21.000000
12.029700 20.212017 1.608455 28.500000
12.191514 20.194115 1.613094 25.500000
12.309399 20.173950 1.616096 24.000000
12.653146 20.163025 1.627831 3.000000
12.733482 20.150166 1.630014 14.000000
11.871152 20.233858 1.604225 14.000000
-11.713588 20.594522 1.620189 4.000000
-9.223527 21.572084 1.604361 7.000000
-8.942593 21.664148 1.602724 2.000000
-9.106927 21.770851 1.613776 3.500000
-9.697001 22.195599 1.656348 1.000000
-12.199587 -31.290314 1.711304 53.000000
-11.656466 -31.343287 1.703976 44.000000
-12.508805 -31.211035 1.713340 12.000000
-12.035010 -31.157070 1.701941 13.000000
-18.217972 -28.247095 1.712729 2.000000
-18.062347 -28.199905 1.706419 40.000000
14.051539 -22.201595 1.796754 11.000000
-17.631233 -19.512901 1.798391 1.000000
-15.926655 -19.576796 1.725801 4.000000
-17.720337 -19.426661 1.798118 3.000000
-17.845201 -19.359049 1.800483 19.333334
-16.143274 -19.341410 1.722799 4.000000
-16.179619 -19.220652 1.718068 21.333334
-8.492408 -19.065300 1.792228 255.000000
-8.472239 -18.860392 1.775459 79.000000
-8.355492 -18.445248 1.738841 49.000000
-8.355444 -18.292030 1.726863 255.000000
-8.332843 -18.091938 1.710436 255.000000
-10.924885 -16.932632 1.730399 13.666667
-11.222397 -16.581646 1.719334 12.000000
-11.373707 -16.524178 1.722585 9.000000
-10.844932 -16.579109 1.701196 2.000000
-12.066572 -16.241734 1.737472 9.000000
-11.975254 -16.225050 1.731654 27.000000
-11.865313 -16.182241 1.723099 21.000000
13.316990 -16.086098 1.793255 0.000000
-13.030589 -16.016996 1.773063 18.000000
-12.770552 -16.054810 1.761599 12.000000
-12.567770 -15.953595 1.743974 18.000000
13.362741 -15.936455 1.785897 0.000000
-13.305781 -15.874130 1.778653 11.333333
-12.411968 -15.858047 1.729259 33.000000
-12.313670 -15.868940 1.724810 22.666666
-12.167317 -15.851030 1.715912 19.000000
13.398109 -15.776239 1.777341 0.000000
13.422905 -15.605635 1.767588 0.000000
-13.378442 -15.428167 1.753557 1.000000
13.432787 -15.322590 1.749792 0.000000
-13.029034 -15.169039 1.717110 19.000000
13.467934 -15.169346 1.741921 0.000000
13.493685 -15.007386 1.733023 0.000000
13.510738 -14.884598 1.726179 0.000000
-14.963097 -14.556056 1.792570 5.000000
-14.951444 -14.453576 1.785726 7.000000
-14.001328 -14.412971 1.725494 2.000000
-13.925530 -14.425346 1.721730 30.000000
-14.876065 -14.290577 1.771352 5.000000
-13.747352 -14.360735 1.707128 27.666666
-2.644611 -12.294129 1.746094 25.000000
-2.679476 -12.177052 1.731240 11.000000
-3.360551 -12.068669 1.739492 1.000000
-1.790470 -11.203312 1.778278 20.000000
-2.641233 -11.086519 1.786330 13.000000
-3.102373 -11.007539 1.792524 22.000000
-2.705583 -10.900116 1.760316 34.000000
-2.485579 -10.887534 1.750406 18.000000
-1.888734 -10.934601 1.739257 14.000000
-1.711856 -10.931685 1.734301 27.000000
-3.597739 -10.827961 1.788395 31.333334
-2.772065 -10.875242 1.759077 59.000000
-2.660046 -10.862502 1.752883 26.000000
-1.838523 -10.846972 1.724391 21.000000
-2.696432 -10.719107 1.732443 43.000000
-2.353347 -10.775350 1.728727 44.000000
-2.270036 -10.716470 1.716958 15.000000
6.926443 -10.686355 1.768236 40.500000
-3.467998 -10.679935 1.760006 6.500000
-3.315635 -10.606151 1.741734 17.000000
7.414330 -10.580897 1.793954 255.000000
-3.305055 -10.572137 1.736160 5.000000
-2.719264 -10.529772 1.704571 18.000000
6.958652 -10.517340 1.751045 255.000000
7.082371 -10.523662 1.761314 255.000000
7.244785 -10.548982 1.776901 255.000000
7.353891 -10.565116 1.787353 255.000000
7.463521 -10.580215 1.797805 255.000000
-3.058641 -10.473302 1.710145 71.000000
-3.472352 -10.305983 1.704571 30.000000
-1.913096 -10.124773 1.800177 6.000000
-1.816892 -10.138475 1.799488 10.000000
-1.768986 -10.114932 1.793981 8.666667
-2.141599 -10.045286 1.794440 14.833333
-2.764875 -9.889219 1.793981 12.333333
-1.965422 -9.889868 1.761626 2.000000
-2.508077 -9.839577 1.774017 20.000000
8.604524 -9.246615 1.753795 6.000000
8.617094 -9.144321 1.744627 34.333332
8.691923 -9.079660 1.745268 24.000000
-8.320138 -7.791493 1.786640 18.500000
-8.211851 -7.474854 1.740495 7.500000
-8.243074 -7.315979 1.727488 18.000000
-8.958596 -7.019388 1.783853 16.000000
-8.325683 -7.045717 1.709526 8.000000
-8.961887 -6.931531 1.775801 0.000000
6.174454 -6.850209 1.777755 11.000000
6.212961 -6.806402 1.776493 13.666667
-8.699960 -6.772736 1.728107 2.000000
-9.023147 -6.667037 1.758458 4.000000
-8.926057 -6.638749 1.743592 4.000000
-7.859439 -6.651153 1.798800 19.000000
-7.766511 -6.614493 1.782278 21.000000
-8.699533 -6.512817 1.703332 8.000000
-7.893524 -6.387488 1.774017 27.000000
-7.735817 -6.442954 1.758873 11.000000
-7.882842 -6.337970 1.767133 36.000000
8.177669 -6.157928 1.788474 62.666668
7.998052 -5.944211 1.740974 26.000000
8.056385 -5.909374 1.745564 27.666666
8.151911 -5.901000 1.758184 31.000000
8.213160 -5.847672 1.761454 64.750000
8.224386 -5.720456 1.750268 67.166672
8.243202 -5.562284 1.737360 65.000000
8.256500 -5.403029 1.723902 65.599998
8.269889 -5.246284 1.711028 67.000000
-7.669050 -5.124306 1.778007 17.666666
-7.835002 -4.930858 1.784569 13.200000
-7.601209 -4.924960 1.745955 18.500000
-7.817926 -4.659122 1.754392 6.285714
8.375662 -4.054450 1.793806 68.199997
8.391302 -3.900531 1.783812 67.599998
-10.607588 -3.877626 1.770226 7.000000
-10.583381 -3.793570 1.762174 1.000000
-10.349730 -3.857256 1.731204 25.000000
-10.280236 -3.794619 1.717578 61.000000
-10.171123 -3.827129 1.703332 4.000000
13.791923 -3.791160 1.732180 24.000000
14.029867 -3.809201 1.760553 29.000000
-10.822859 -3.707618 1.793144 3.500000
-7.564784 -3.720696 1.779304 45.000000
-7.465395 -3.700983 1.758653 26.000000
8.412082 -3.750636 1.775484 68.400002
14.120013 -3.738588 1.768888 45.333332
-10.832739 -3.654040 1.791905 6.000000
-10.465333 -3.677217 1.738637 31.000000
-7.539989 -3.664460 1.769391 21.500000
-7.262472 -3.643072 1.714872 14.000000
8.417926 -3.595868 1.764581 67.000000
14.154623 -3.605337 1.768888 45.666668
-9.518573 -3.513476 1.772641 37.000000
14.187031 -3.495170 1.769449 45.500000
-10.464195 -3.383879 1.723772 7.000000
-9.326020 -3.409146 1.734778 18.000000
8.414927 -3.454684 1.753527 67.000000
14.212571 -3.406893 1.769930 42.500000
-9.539904 -3.301649 1.763691 38.000000
-9.356494 -3.353762 1.736499 11.500000
8.429067 -3.306791 1.745450 69.000000
14.243376 -3.296195 1.770491 35.000000
-10.983636 -3.099776 1.788808 36.000000
-10.599977 -3.159904 1.733682 6.000000
-9.509401 -3.108152 1.747858 16.000000
8.453602 -3.148901 1.738990 69.400002
14.280268 -3.163253 1.771293 42.666668
-10.947641 -3.052515 1.781375 44.000000
-9.565140 -3.037917 1.753365 16.666666
-9.436637 -3.051591 1.732713 10.000000
8.481272 -3.008427 1.734750 66.000000
14.314793 -3.006171 1.771373 46.750000
14.347782 -2.895626 1.772575 46.000000
8.491753 -2.862786 1.727481 66.199997
14.359303 -2.827592 1.772334 44.500000
-9.525652 -2.742239 1.731795 6.333333
8.497545 -2.775784 1.723241 67.000000
8.503113 -2.703919 1.720023 66.250000
14.394210 -2.748418 1.774659 32.333332
-11.086226 -2.608416 1.785092 8.000000
-10.892610 -2.653304 1.757219 52.000000
-10.692079 -2.657908 1.726869 38.000000
-9.477785 -2.626633 1.718257 21.500000
8.439409 -2.581788 1.701284 45.000000
-10.928441 -2.571358 1.759696 29.000000
8.512328 -2.516627 1.711127 65.666664
14.455214 -2.494251 1.776422 54.000000
-10.832733 -2.477045 1.741734 30.000000
8.521292 -2.403284 1.706736 67.800003
14.477082 -2.404445 1.777224 53.000000
-12.217503 -2.193870 1.723539 10.000000
8.532176 -2.262288 1.701587 68.199997
14.517409 -2.270762 1.779468 50.333332
-12.154650 -2.116938 1.713086 6.333333
14.552923 -2.112634 1.780870 49.500000
-12.353534 -2.058408 1.738942 5.000000
-12.237637 -2.078629 1.723539 8.000000
14.586134 -1.953975 1.782193 47.000000
14.610469 -1.817237 1.782994 46.666668
-12.656765 -1.722516 1.773600 7.000000
-9.701674 -1.606022 1.718027 13.000000
14.645260 -1.634946 1.784597 44.333336
-9.773499 -1.565460 1.729271 4.000000
14.663651 -1.520511 1.785319 41.500000
14.479013 -1.432438 1.761995 55.000000
14.390146 -1.332404 1.750133 74.000000
-8.186867 -1.204519 1.746537 16.000000
14.582909 -1.257888 1.772575 56.000000
14.709372 -1.198990 1.787242 46.000000
-12.741621 -1.125892 1.776075 6.000000
-8.231759 -1.158365 1.754522 0.000000
-8.337778 -1.053429 1.773797 5.666667
14.724895 -1.060665 1.787843 46.500000
-12.848287 -0.920047 1.788563 19.799999
-12.620910 -0.975559 1.757646 35.000000
-8.301038 -0.956060 1.763609 15.000000
-8.292332 -0.928668 1.761131 1.000000
14.626856 -0.938186 1.774979 47.000000
-12.825906 -0.829413 1.784602 3.000000
14.738125 -0.875624 1.787964 44.000000
-12.756488 -0.764606 1.774425 18.000000
-12.643266 -0.698014 1.758196 2.000000
14.343980 -0.739193 1.739393 59.000000
-12.813607 -0.626689 1.781301 6.000000
-12.617662 -0.617065 1.754070 14.000000
14.348389 -0.649048 1.739393 57.000000
14.789705 -0.599177 1.792532 48.000000
-12.678748 -0.540262 1.762047 6.000000
14.772143 -0.482299 1.789887 49.000000
14.818176 -0.530410 1.795658 46.000000
-12.688462 -0.440849 1.762872 2.250000
14.305213 -0.422071 1.733142 47.000000
-12.689631 -0.341152 1.762597 5.000000
14.324739 -0.332570 1.735226 39.666668
14.842916 -0.216334 1.797702 43.750000
14.791512 -0.111010 1.791330 5.000000
-12.819124 0.219282 1.780201 60.000000
-12.925323 0.261722 1.795055 14.000000
-12.717706 0.397445 1.766723 1.500000
-12.716769 0.577467 1.767548 15.000000
8.797214 0.706262 1.701284 67.000000
8.809383 0.757439 1.704464 65.800003
8.822445 0.903975 1.709613 65.599998
8.838361 1.046131 1.715670 66.199997
-12.242002 1.213280 1.708135 9.000000
8.848088 1.188477 1.720970 66.400002
12.816795 1.152889 1.786803 49.000000
8.859843 1.346309 1.727532 66.000000
8.876863 1.506235 1.735658 66.000000
-11.163152 1.551008 1.766510 11.500000
-10.917130 1.569292 1.728727 2.000000
-9.968591 1.593141 1.763691 3.000000
-8.901596 1.539174 1.741413 48.000000
-10.901784 1.619545 1.727488 17.000000
-8.011164 1.632821 1.725611 11.000000
-7.962450 1.675048 1.717350 11.500000
8.890723 1.652664 1.743230 64.199997
8.899460 1.755688 1.748605 63.500000
8.907819 1.830145 1.753022 64.666664
-8.003114 1.987985 1.740480 4.000000
-7.903241 2.015982 1.721481 0.000000
8.915771 1.948894 1.759281 64.599998
-9.792288 2.106437 1.749923 23.000000
-7.866555 2.032965 1.714872 14.000000
8.929935 2.099507 1.768367 64.199997
-10.053273 2.129553 1.795358 24.000000
-9.835668 2.148118 1.758873 0.000000
-9.561272 2.261866 1.716536 20.500000
8.944613 2.251770 1.778058 63.200001
8.954041 2.393012 1.786651 61.125000
7.087482 2.514008 1.727323 14.333333
8.970200 2.545127 1.797441 61.750000
6.919393 2.668660 1.703445 22.666666
7.065332 2.784533 1.744337 4.000000
-9.889783 2.820911 1.796735 62.000000
6.904916 2.949471 1.724637 12.000000
5.785609 3.180676 1.764506 13.000000
6.405322 3.158761 1.773118 57.333332
6.747656 3.162344 1.711653 48.500000
-10.434088 3.315944 1.716029 62.500000
-10.368530 3.241351 1.702712 50.000000
5.720991 3.310942 1.766572 23.000000
6.228803 3.260493 1.745489 65.000000
-10.518024 3.397226 1.732443 4.000000
6.351801 3.401525 1.788861 0.000000
5.416816 3.461516 1.718031 38.500000
5.729401 3.437033 1.785678 15.500000
6.028334 3.476035 1.727658 11.000000
6.143602 3.465981 1.751272 11.000000
5.484270 3.577890 1.750047 36.500000
6.174562 3.560575 1.769584 39.000000
6.517925 3.543365 1.704042 0.000000
13.981823 3.618548 1.749011 21.000000
14.120087 3.607040 1.764881 29.000000
14.258416 3.594697 1.780750 38.000000
14.365976 3.573852 1.792773 23.000000
5.562543 3.666428 1.780514 40.000000
7.189374 3.648955 1.701656 25.000000
9.149004 3.640778 1.720322 11.000000
13.571289 3.649112 1.701884 36.000000
13.709341 3.640089 1.717753 29.000000
13.839786 3.628218 1.732661 20.000000
5.588224 3.750995 1.798760 40.666668
9.081951 3.763825 1.717568 26.500000
9.148889 3.741119 1.726862 22.000000
5.812228 3.844106 1.730067 35.500000
9.084901 3.848828 1.723764 55.000000
9.176133 3.870540 1.739941 21.000000
5.596955 4.026266 1.711755 22.000000
5.680884 4.095676 1.738742 33.333332
9.157290 4.064010 1.750336 42.099998
5.543046 4.191961 1.725441 42.799999
6.215977 4.172228 1.719563 25.666666
9.138376 4.175827 1.755345 57.125000
6.300107 4.296030 1.751500 37.000000
6.471290 4.236306 1.776573 0.000000
7.051044 4.336134 1.747088 45.000000
9.137460 4.361500 1.768923 62.799999
9.254470 4.339050 1.785720 18.000000
5.497330 4.475530 1.759946 13.000000
5.549443 4.443060 1.764958 28.799999
9.156658 4.434391 1.777460 54.000000
5.886466 4.521743 1.704937 6.000000
6.844842 4.542538 1.733871 45.000000
9.163473 4.598745 1.791228 29.500000
6.042538 4.702294 1.758664 17.000000
-7.833018 4.833961 1.774348 21.500000
-7.861625 5.006480 1.796683 34.000000
-7.763240 4.959015 1.775820 24.666666
6.271345 5.073000 1.702482 0.000000
-7.700650 5.145408 1.785326 21.000000
-7.687667 5.195171 1.788607 18.666666
6.176910 5.208828 1.705373 37.500000
-7.530393 5.310142 1.776241 6.000000
-7.440789 5.326009 1.763937 20.500000
-7.373999 5.339846 1.755041 35.000000
6.404159 5.349014 1.761131 78.000000
7.405810 5.362883 1.762612 15.000000
15.569084 5.391299 1.703806 62.000000
5.980400 5.424597 1.704134 21.000000
6.118965 5.446054 1.728915 15.000000
5.986848 5.604297 1.730842 25.666666
6.160221 5.534944 1.747914 46.500000
6.310454 5.563352 1.775587 35.000000
15.582459 5.533400 1.709978 57.333332
5.879207 5.715283 1.730567 36.000000
9.313084 5.689334 1.710558 16.666666
15.595633 5.704158 1.717246 59.000000
5.905987 5.777515 1.743784 30.000000
6.830926 5.760321 1.722484 5.500000
-9.164108 5.833687 1.702712 1.000000
6.658257 5.844168 1.707796 43.400002
6.736949 5.846027 1.719456 26.000000
7.056957 5.894257 1.772455 38.000000
7.212796 5.834557 1.788355 6.000000
15.610583 5.839691 1.723555 38.333332
5.712243 5.969070 1.743784 24.250000
5.823081 5.952624 1.757551 31.000000
6.016242 5.997041 1.792934 45.000000
6.654739 5.998266 1.727027 4.000000
6.934196 5.960140 1.762612 2.500000
6.441182 6.067740 1.705827 54.000000
-9.590162 6.168624 1.787260 5.500000
-9.336568 6.165703 1.753709 28.666666
9.336855 6.198695 1.756600 2.000000
9.327191 6.234585 1.758458 0.000000
9.355609 6.425125 1.778898 1.000000
9.416639 6.510670 1.794383 18.000000
9.376378 6.592376 1.796550 28.500000
7.276678 6.686563 1.726518 12.000000
12.949546 6.810133 1.771854 4.000000
13.071325 6.795805 1.784116 5.000000
12.469533 6.835359 1.722081 1.000000
12.827898 6.823587 1.759591 4.000000
15.430986 6.886460 1.747419 6.000000
