# This PCD file was generated using the MATLAB® pcwrite function
# from Computer Vision Toolbox®.
# .PCD v.7 - Point Cloud Data file format
VERSION .7
FIELDS x y z intensity
SIZE 4 4 4 4
TYPE F F F F
COUNT 1 1 1 1
WIDTH 1216
HEIGHT 1
VIEWPOINT 0 0 0 1 0 0 0
POINTS 1216
DATA ascii
-7.207567 -4.346129 -0.155434 30.500000
-6.861819 -4.361440 -0.150154 15.000000
6.577333 -4.368470 -0.145821 1.333333
-8.777776 -4.290696 -0.180435 17.000000
-7.587169 -4.303128 -0.161085 32.500000
-7.014771 -4.320582 -0.152148 10.000000
-9.802186 -4.195148 -0.196906 0.000000
-7.166072 -4.169081 -0.153108 36.000000
-6.983258 -4.210910 -0.150597 49.000000
6.614735 -4.205941 -0.144762 5.000000
-7.464591 -4.049551 -0.156838 49.000000
-7.228294 -4.039768 -0.152923 32.000000
-6.983504 -4.053164 -0.149120 33.166668
6.649974 -4.054486 -0.143839 3.500000
-7.752850 -4.018692 -0.161269 28.500000
-7.554966 -3.961401 -0.157539 34.000000
-7.275592 -3.991524 -0.153256 32.000000
-8.609212 -3.878170 -0.174379 7.000000
-8.513367 -3.921181 -0.173099 11.666667
-7.225734 -3.905335 -0.151686 26.500000
6.666428 -3.879948 -0.142448 15.833333
-8.438776 -3.769545 -0.170686 9.000000
-7.597265 -3.772967 -0.156653 96.000000
-7.217164 -3.813229 -0.150744 53.000000
-8.597874 -3.647841 -0.172483 23.000000
-7.510136 -3.641867 -0.154142 78.000000
6.999082 -3.643505 -0.145722 4.000000
-8.571445 -3.573215 -0.171499 6.000000
-7.252776 -3.630337 -0.149784 1.000000
-7.165033 -3.614518 -0.148209 36.666668
7.028662 -3.589007 -0.145747 12.000000
-7.265656 -3.495163 -0.148898 24.000000
-7.446598 -3.410889 -0.151261 62.000000
-7.235878 -3.405224 -0.147690 26.500000
6.845046 -3.414339 -0.141266 38.333332
-8.967629 -3.267485 -0.176262 13.000000
-7.242552 -3.299160 -0.146978 9.666667
6.823195 -3.307630 -0.140035 43.799999
6.938506 -3.272381 -0.141676 42.666668
-7.225516 -3.167372 -0.145697 18.666666
6.975145 -3.196468 -0.141697 38.000000
6.919043 -3.053104 -0.139666 39.000000
-9.677392 -2.967914 -0.186935 0.000000
-7.328936 -2.988015 -0.146165 19.500000
-7.198548 -3.006125 -0.144068 4.200000
6.765419 -3.000680 -0.136682 41.200001
-9.679015 -2.935173 -0.186787 1.000000
-7.262486 -2.841751 -0.144023 20.000000
-7.156537 -2.852282 -0.142275 0.666667
6.782699 -2.853870 -0.135899 48.333332
6.909022 -2.767608 -0.137450 47.000000
-7.528124 -2.702874 -0.147716 27.000000
-7.132303 -2.730852 -0.141044 1.000000
-7.017910 -2.670120 -0.138669 9.000000
6.803082 -2.725314 -0.135345 43.250000
-7.146348 -2.583920 -0.140341 24.571428
6.681405 -2.603628 -0.132428 52.000000
6.789765 -2.596789 -0.134249 54.333332
6.949488 -2.607988 -0.137081 51.000000
7.098489 -2.582901 -0.139503 39.200001
7.155297 -2.557741 -0.140330 38.000000
-7.304205 -2.532169 -0.142768 14.500000
-7.283741 -2.428016 -0.141793 25.100000
6.982614 -2.397493 -0.136342 40.000000
7.031656 -2.414475 -0.137302 37.500000
-7.259016 -2.326422 -0.140774 24.000000
6.937068 -2.264698 -0.134766 40.000000
-7.237970 -2.219779 -0.139813 26.000000
-7.062628 -2.196510 -0.136594 36.416664
7.054531 -2.201375 -0.136478 39.166664
-7.139531 -2.083630 -0.137352 34.000000
6.910408 -2.073287 -0.133240 43.000000
-7.067051 -2.022439 -0.135751 58.000000
6.872786 -2.003234 -0.132206 45.000000
-7.152806 -1.938104 -0.136859 33.000000
-6.748316 -1.839923 -0.129178 64.666664
-6.279379 -1.855771 -0.120924 45.000000
-6.188599 -1.876700 -0.119429 21.000000
6.667448 -1.881185 -0.127941 40.583336
6.897742 -1.870198 -0.131984 38.000000
-6.616175 -1.815028 -0.126704 54.000000
6.802358 -1.798548 -0.129941 40.666668
-6.840146 -1.727012 -0.130286 25.000000
-6.588027 -1.663280 -0.125485 40.599998
6.795249 -1.716923 -0.129436 42.000000
-7.057695 -1.617744 -0.133720 5.000000
-6.413036 -1.555031 -0.121866 53.000000
6.650548 -1.633788 -0.126475 41.200001
-10.016636 -1.513086 -0.187083 7.000000
-7.055027 -1.512487 -0.133252 10.833333
-6.287379 -1.529721 -0.119502 26.250000
6.544055 -1.468767 -0.123860 40.000000
6.616808 -1.498318 -0.125293 40.799999
-10.657952 -1.405041 -0.198531 2.000000
-6.237158 -1.429647 -0.118173 16.000000
6.606266 -1.352475 -0.124535 39.571430
-7.015673 -1.303352 -0.131781 35.666664
-6.354447 -1.273859 -0.119687 42.500000
-7.142587 -1.210829 -0.133791 26.545454
6.663910 -1.233872 -0.125160 38.799999
-7.102750 -1.095755 -0.132723 29.000000
6.477755 -1.125890 -0.121423 44.500000
6.635607 -1.053440 -0.124082 38.833332
6.742393 -1.095652 -0.126150 45.000000
-7.049846 -1.035885 -0.131594 19.714285
-7.148873 -0.910263 -0.133092 33.400002
-7.081293 -0.918573 -0.131874 23.833334
6.485258 -0.866470 -0.120832 37.000000
6.616436 -0.921975 -0.123373 42.400002
6.846998 -0.860150 -0.127442 43.000000
-7.150075 -0.757445 -0.132788 34.125000
-7.068489 -0.774124 -0.131320 24.500000
6.766900 -0.753135 -0.125743 41.000000
6.868423 -0.764349 -0.127627 37.000000
-10.356930 -0.724184 -0.191736 3.500000
-7.135584 -0.645742 -0.132317 37.500000
-8.158918 -0.622014 -0.151114 4.000000
-7.047509 -0.596642 -0.130618 21.666666
6.662577 -0.614550 -0.123565 36.000000
6.784362 -0.582809 -0.125756 34.333332
6.928652 -0.631619 -0.128489 45.000000
-7.028046 -0.513640 -0.130138 13.500000
-6.870796 -0.469610 -0.127184 17.000000
6.787708 -0.461459 -0.125645 37.166668
-6.705288 -0.426617 -0.124082 27.500000
-6.635373 -0.390726 -0.122752 45.000000
6.874200 -0.416831 -0.127184 36.000000
-6.551157 -0.303443 -0.121117 34.428570
6.793441 -0.337073 -0.125614 36.250000
6.921229 -0.278004 -0.127922 40.000000
-6.396767 -0.165276 -0.118173 36.500000
-6.095880 -0.152560 -0.112615 38.250000
6.679022 -0.226222 -0.123417 28.000000
6.931116 -0.180337 -0.128045 39.333332
-6.025999 -0.108340 -0.111304 48.000000
-0.500928 -0.106216 -0.128173 2.714286
-0.471519 -0.106065 -0.133222 14.925532
0.469857 -0.091606 -0.131696 3.590909
6.945282 -0.049671 -0.128267 36.666668
7.213755 -0.119620 -0.133240 48.333332
-6.057851 -0.010903 -0.111877 40.099998
-0.504530 -0.003510 -0.126836 3.545455
-0.468498 -0.012727 -0.131116 24.710983
0.476258 -0.012855 -0.127474 26.069307
6.582637 0.056297 -0.121570 32.000000
6.821464 0.015478 -0.125977 43.000000
-6.085266 0.100899 -0.112397 41.400002
-0.504191 0.142449 -0.130699 5.766667
-0.480189 0.139272 -0.136475 12.862069
0.471761 0.137334 -0.130102 12.000000
6.674406 0.078052 -0.123269 45.000000
6.795053 0.122196 -0.125510 38.000000
-6.012402 0.175214 -0.111083 36.000000
-5.980913 0.249614 -0.110551 38.400002
6.926501 0.178860 -0.127959 37.500000
-6.083298 0.330595 -0.112511 49.666668
-0.501849 0.299032 -0.146231 8.566137
-0.487007 0.276794 -0.143289 7.538043
0.477003 0.283560 -0.138814 8.591415
6.748067 0.344194 -0.124783 35.000000
6.955463 0.267312 -0.128550 39.000000
7.071529 0.271774 -0.130692 39.500000
-6.044805 0.433227 -0.111923 40.250000
-0.503087 0.395253 -0.141753 16.500000
-0.430688 0.419157 -0.142280 30.646360
-0.280223 0.415369 -0.135679 4.815534
-0.137184 0.437414 -0.129209 5.312102
-0.001364 0.452687 -0.100367 23.370758
0.192794 0.434765 -0.130806 6.841346
0.330533 0.433787 -0.139092 6.507220
0.457563 0.420819 -0.138336 36.435810
6.983348 0.433218 -0.129215 42.500000
7.076491 0.416823 -0.130914 49.000000
-6.111454 0.550967 -0.113323 42.000000
-0.507448 0.558172 -0.124229 6.769231
6.714447 0.469532 -0.124303 34.000000
7.166826 0.535103 -0.132723 48.000000
-6.334605 0.609524 -0.117527 31.000000
-0.431619 0.565159 -0.139478 17.878723
-0.268689 0.569502 -0.140050 7.964000
-0.116383 0.568648 -0.138113 24.025806
0.048294 0.565897 -0.133312 35.404446
0.177491 0.582534 -0.140449 20.951298
0.326596 0.591238 -0.138273 12.110092
0.441690 0.575655 -0.128285 21.528528
6.818978 0.616976 -0.126445 35.000000
6.951521 0.599587 -0.128858 42.000000
7.008581 0.574981 -0.129867 48.000000
-6.413117 0.701945 -0.119144 35.857143
-6.273955 0.718154 -0.116622 34.000000
-0.512070 0.703730 -0.121926 15.461538
-0.430851 0.741782 -0.126960 15.383034
-0.264524 0.751394 -0.136655 20.967533
-0.116114 0.738621 -0.114567 55.143394
0.055466 0.731074 -0.101871 58.277058
0.170277 0.760017 -0.135331 37.625000
0.455127 0.683127 -0.119157 5.769231
6.981077 0.686961 -0.129547 46.000000
7.057335 0.728059 -0.131024 38.000000
-6.137629 0.772985 -0.114244 21.400000
0.254555 0.816779 -0.120708 13.000000
0.308630 0.769813 -0.132273 17.847107
6.875603 0.840585 -0.127922 17.333334
7.177295 0.808770 -0.133388 33.200001
-9.289381 0.915741 -0.172385 1.000000
-7.923988 0.932258 -0.147347 8.000000
-7.628243 0.946094 -0.141955 2.000000
-6.107873 0.879284 -0.113963 44.692307
-5.963284 0.940298 -0.111489 35.500000
-0.497600 0.936784 -0.112145 4.333333
-0.441042 0.887186 -0.127266 30.125000
-0.265582 0.872713 -0.128889 34.931034
0.228649 0.889672 -0.129636 14.102564
6.782797 0.894134 -0.126347 21.666666
-9.557014 0.972452 -0.177407 3.000000
-6.419021 1.053408 -0.120130 37.000000
-0.508426 1.035932 -0.123722 58.083332
-0.422105 1.042700 -0.130400 23.430233
-0.157760 0.998877 -0.115292 51.235294
0.024010 1.029346 -0.120447 105.851852
0.173838 1.049627 -0.133163 47.444443
6.996273 0.967080 -0.130433 33.000000
7.087850 1.032954 -0.132280 23.000000
-9.024802 1.090522 -0.167880 2.000000
-8.328302 1.099428 -0.155139 3.500000
-6.255779 1.063759 -0.117188 29.000000
-6.107405 1.132531 -0.114714 38.166668
-0.266130 1.064112 -0.127100 45.852112
0.315458 1.084512 -0.130308 34.016949
6.947855 1.127783 -0.129990 25.000000
7.177303 1.084171 -0.134053 14.000000
7.221741 1.137352 -0.135013 0.000000
-6.992016 1.226591 -0.131098 16.000000
-6.280748 1.244762 -0.118247 39.000000
7.067918 1.215851 -0.132446 25.250000
-7.283401 1.301305 -0.136638 17.000000
-6.269437 1.304158 -0.118262 47.400002
-0.523634 1.281200 -0.121944 1.545455
7.084777 1.276030 -0.132945 14.000000
7.197656 1.354799 -0.135259 37.333332
-6.117186 1.393224 -0.115865 40.125000
-6.444834 1.542535 -0.122383 50.000000
6.675544 1.515466 -0.126421 21.000000
6.737048 1.521967 -0.127553 16.000000
6.890139 1.533816 -0.130360 1.000000
7.071642 1.527651 -0.133609 40.000000
7.214615 1.475605 -0.135997 23.833334
-6.479674 1.593988 -0.123232 40.500000
-6.209528 1.641788 -0.118616 10.000000
-6.109037 1.656224 -0.116893 39.666668
-6.752583 1.706200 -0.128624 45.000000
-6.026361 1.720696 -0.115742 43.750000
7.075928 1.680521 -0.134311 14.000000
-6.806712 1.776821 -0.129916 9.000000
-6.214336 1.832514 -0.119650 29.000000
-6.108238 1.843014 -0.117828 49.666668
7.083880 1.776815 -0.134877 26.833334
-6.059897 1.922326 -0.117410 47.500000
7.091397 1.873634 -0.135456 14.000000
-7.935373 2.044841 -0.151335 11.000000
-6.062216 2.077933 -0.118352 47.500000
6.988963 2.131413 -0.134939 17.500000
7.007967 2.089169 -0.135050 16.500000
-6.055733 2.238299 -0.119232 36.500000
6.986492 2.166689 -0.135087 0.000000
7.013995 2.199397 -0.135751 0.000000
-6.051032 2.380002 -0.120084 35.625000
-6.057258 2.515409 -0.121127 32.625000
-6.102049 2.635474 -0.122752 38.500000
-6.006496 2.661728 -0.121330 36.250000
-6.030225 2.786391 -0.122678 32.500000
7.274278 2.820081 -0.144082 16.400000
-6.343427 2.870835 -0.128587 53.000000
-6.121991 2.863856 -0.124820 30.500000
-6.086386 2.952710 -0.124931 30.750000
-5.980778 2.995094 -0.123528 43.500000
7.294219 3.040772 -0.145944 22.000000
-5.962305 3.115664 -0.124240 38.142857
7.292003 3.066774 -0.146091 0.000000
-5.974741 3.254863 -0.125651 32.750000
7.454562 3.245978 -0.150154 0.000000
7.108191 3.301097 -0.144737 49.000000
7.431856 3.277839 -0.150006 12.500000
-6.115645 3.431936 -0.129510 39.000000
-6.259392 3.473923 -0.132206 154.000000
-6.099103 3.605450 -0.130852 32.000000
6.828846 3.580636 -0.142398 30.000000
6.920958 3.628963 -0.144319 70.000000
7.398813 3.635807 -0.152246 34.666668
7.509883 3.563034 -0.153509 56.571430
-6.096370 3.673142 -0.131443 33.333332
-5.981494 3.685515 -0.129750 38.750000
7.396891 3.724278 -0.152942 27.500000
9.162721 3.725338 -0.182666 36.799999
-6.430487 3.810559 -0.138041 51.000000
7.472025 3.843411 -0.155176 9.500000
9.047793 3.763462 -0.180971 33.500000
-6.873360 3.899852 -0.145944 45.000000
-6.755140 3.889086 -0.143950 28.000000
-6.150253 3.903999 -0.134533 25.250000
7.211492 3.868520 -0.151132 35.500000
9.019703 3.869905 -0.181258 51.000000
-6.228353 4.015528 -0.136859 25.500000
-6.131441 4.035268 -0.135559 38.599998
-5.941898 4.032030 -0.132612 43.000000
7.001308 4.014557 -0.149046 0.000000
7.045166 4.010347 -0.149710 28.000000
7.272189 4.004559 -0.153317 51.166668
9.036301 4.060859 -0.182957 53.428570
9.117746 4.004309 -0.183907 17.000000
-7.008056 4.064073 -0.149612 33.333332
-6.925006 4.074257 -0.148381 23.000000
-6.210904 4.115586 -0.137598 40.000000
-5.993980 4.156480 -0.134707 24.857143
7.381138 4.155592 -0.156432 8.000000
9.040880 4.152622 -0.183734 36.666668
-7.234162 4.195182 -0.154437 41.000000
7.200744 4.195330 -0.153906 55.599998
-7.146532 4.265261 -0.153699 3.000000
-6.023124 4.326542 -0.136958 34.333332
7.116828 4.291451 -0.153477 49.000000
7.353294 4.355717 -0.157835 52.000000
-6.225662 4.457124 -0.141401 54.000000
7.291547 4.365629 -0.156949 17.000000
-6.091880 4.493115 -0.139795 48.500000
-5.951006 4.485888 -0.137631 40.000000
7.273555 4.529785 -0.158246 54.285713
7.343896 4.491468 -0.158980 20.000000
7.240034 4.617724 -0.158588 62.599998
-6.052694 4.672993 -0.141217 26.000000
7.305615 4.691922 -0.160346 40.000000
-6.869117 4.804449 -0.154807 7.000000
-6.123602 4.804821 -0.143746 34.000000
-5.993691 4.810403 -0.141931 32.666668
7.235028 4.782626 -0.160169 55.200001
7.426805 4.835935 -0.163670 43.000000
-5.941220 4.923653 -0.142504 39.714287
-7.234911 4.992893 -0.162340 2.000000
7.254230 5.021112 -0.162931 24.000000
7.344555 4.993216 -0.164014 42.666668
-5.964043 5.086717 -0.144762 40.000000
7.019044 5.090281 -0.160124 53.000000
7.581496 5.073453 -0.168470 20.000000
7.638488 5.146408 -0.170095 71.000000
-6.835282 5.243002 -0.159090 0.000000
-6.052217 5.211244 -0.147495 30.000000
-5.988949 5.255864 -0.147155 37.799999
7.077312 5.166543 -0.161823 41.000000
7.181023 5.173403 -0.163448 40.000000
7.097454 5.354144 -0.164187 67.000000
7.421954 5.276499 -0.168175 30.666666
-8.687551 5.447579 -0.189372 0.000000
-8.579093 5.417191 -0.187378 2.000000
-5.964327 5.402464 -0.148617 45.599998
-5.857068 5.423756 -0.147421 43.500000
7.421994 5.453991 -0.170095 10.000000
-5.884065 5.500435 -0.148750 36.000000
7.478775 5.531982 -0.171794 4.000000
-5.927931 5.576437 -0.150301 41.000000
7.364459 5.628411 -0.171179 37.666668
7.546278 5.655615 -0.174157 8.000000
-5.930175 5.666999 -0.151483 38.750000
-5.928787 5.819273 -0.153422 44.500000
7.567063 5.795931 -0.176029 28.666666
-6.013376 5.948657 -0.156210 34.000000
-5.847950 5.876660 -0.153108 44.000000
-5.831504 5.990385 -0.154393 46.599998
-2.758421 6.015214 -0.122213 9.861111
1.656469 6.034352 -0.115563 0.333333
7.697008 5.998433 -0.180214 14.000000
-5.883326 6.207411 -0.157946 44.250000
-5.927128 6.322796 -0.160051 27.000000
-5.969178 6.516412 -0.163202 40.000000
-5.863173 6.495738 -0.161602 37.000000
-6.128039 6.578422 -0.166033 54.000000
-5.854096 6.568306 -0.162488 42.000000
2.052858 6.578876 -0.127276 8.125000
-5.931690 6.740027 -0.165812 38.000000
-5.968760 6.912386 -0.168662 36.400002
-5.910203 6.998779 -0.169172 38.000000
-5.958090 7.230361 -0.173025 42.666668
-5.905807 7.290465 -0.173271 34.000000
-6.124505 7.416420 -0.177629 73.000000
-6.278141 7.554007 -0.181396 42.000000
-5.976713 7.497634 -0.177075 39.750000
-5.888560 7.531621 -0.176558 45.000000
-5.917909 7.643083 -0.178515 38.000000
-5.836795 7.612164 -0.177149 40.500000
-5.869799 7.730369 -0.179254 33.000000
-5.927372 7.857326 -0.181765 32.000000
-5.914652 7.891908 -0.182134 32.000000
-5.934723 8.023182 -0.184301 42.666668
-5.841738 8.082056 -0.184165 39.000000
-5.832444 8.231387 -0.186307 40.000000
-5.853255 8.400034 -0.189077 36.333332
-5.852750 8.541383 -0.191219 38.500000
-5.860545 8.669115 -0.193250 40.000000
-5.845321 8.824805 -0.195484 39.000000
-5.896522 9.055610 -0.199565 28.000000
2.755558 9.344487 -0.179918 38.000000
2.823460 9.357654 -0.180509 24.000000
3.780822 9.310870 -0.185587 37.000000
3.893394 9.334871 -0.186787 25.000000
2.688095 9.415076 -0.180823 22.500000
3.735945 9.411914 -0.187009 3.000000
3.167666 9.588537 -0.186492 41.714287
3.118376 9.671991 -0.187674 4.000000
3.849332 10.048685 -0.198728 39.500000
12.339090 -38.524139 -0.045185 2.000000
12.170881 -38.413998 -0.045011 5.000000
-16.655457 -38.050404 -0.046396 11.000000
-16.819366 -37.776909 -0.046191 25.000000
-16.673140 -37.767353 -0.046115 17.000000
11.697182 -37.740856 -0.044135 3.000000
11.268641 -37.608025 -0.043854 4.000000
11.454316 -37.372032 -0.043662 9.000000
13.289969 -37.405178 -0.044341 2.000000
12.419020 -37.159637 -0.043764 3.000000
14.560320 -37.230038 -0.044654 5.000000
13.445681 -37.102818 -0.044082 22.000000
13.584171 -37.120495 -0.044153 51.000000
13.675768 -37.010098 -0.044073 29.000000
12.603172 -36.937016 -0.043595 15.000000
13.252051 -36.930271 -0.043827 5.000000
13.877013 -36.841095 -0.043974 13.000000
11.770514 -36.748974 -0.043103 18.000000
11.899460 -36.753674 -0.043152 24.000000
13.984155 -36.774879 -0.043948 19.000000
-12.348823 -36.693779 -0.043246 4.000000
-12.229692 -36.721008 -0.043233 8.000000
12.019835 -36.731316 -0.043170 17.000000
12.140196 -36.708569 -0.043188 9.000000
12.660482 -36.727066 -0.043394 6.000000
13.684310 -36.678383 -0.043729 9.000000
15.161736 -36.712372 -0.044368 2.000000
15.988297 -36.735497 -0.044752 20.000000
12.849850 -36.529819 -0.043255 3.000000
14.157136 -36.537094 -0.043769 10.000000
11.391053 -36.348900 -0.042549 8.000000
13.041293 -36.342941 -0.043130 7.000000
15.569960 -36.397583 -0.044220 25.000000
15.260355 -36.302952 -0.043988 14.000000
10.526294 -36.161003 -0.042069 9.500000
10.933122 -36.075665 -0.042107 11.000000
12.814563 -36.067123 -0.042755 7.000000
10.296930 -36.004505 -0.041830 4.000000
11.156018 -35.994797 -0.042093 14.000000
15.279069 -36.030190 -0.043715 11.000000
12.995947 -35.861797 -0.042607 9.000000
14.177879 -35.919098 -0.043134 13.000000
13.466709 -35.751804 -0.042674 4.000000
15.857697 -35.818672 -0.043756 14.000000
13.068682 -35.711853 -0.042478 2.000000
15.667914 -35.692505 -0.043541 14.000000
12.010979 -35.566647 -0.041933 10.000000
12.400895 -35.610523 -0.042120 11.000000
13.153084 -35.595581 -0.042388 14.000000
13.643775 -35.543251 -0.042527 8.000000
12.188210 -35.537971 -0.041966 8.000000
14.406016 -35.513294 -0.042808 7.000000
15.855993 -35.513000 -0.043443 4.000000
15.977329 -35.484901 -0.043470 11.000000
14.490240 -35.401222 -0.042728 2.000000
17.982733 -35.384659 -0.044336 8.000000
13.791073 -35.263111 -0.042294 21.000000
12.364049 -35.148773 -0.041620 18.000000
13.141803 -35.224289 -0.041995 10.000000
17.763426 -35.226685 -0.044068 16.000000
13.589174 -35.071285 -0.042013 12.000000
13.323050 -35.036339 -0.041870 1.000000
13.933905 -34.978817 -0.042058 9.000000
14.010904 -34.853218 -0.041959 15.000000
17.849470 -34.850922 -0.043738 20.000000
14.379984 -34.819450 -0.042080 18.000000
16.980450 -34.753487 -0.043206 8.000000
17.128429 -34.778915 -0.043304 7.000000
17.427155 -34.831581 -0.043505 15.000000
17.239386 -34.728516 -0.043309 1.000000
17.922180 -34.723587 -0.043648 2.000000
13.666805 -34.624310 -0.041580 3.000000
14.313916 -34.353176 -0.041571 17.000000
14.443471 -34.359661 -0.041633 10.000000
18.320616 -33.911549 -0.043054 15.000000
-12.270638 -31.087189 -0.037332 38.333332
-12.071560 -30.961943 -0.037120 52.000000
-11.805243 -30.995941 -0.037049 32.500000
12.643163 -30.888613 -0.037281 16.000000
-12.242294 -30.546057 -0.036759 25.000000
-12.338199 -30.507444 -0.036759 30.000000
3.997565 -27.672733 -0.031232 3.000000
-14.438146 -27.617634 -0.034811 44.000000
4.079217 -27.624424 -0.031191 73.000000
4.169564 -27.635202 -0.031218 61.000000
-15.044436 -27.502016 -0.035016 6.000000
-14.852986 -27.355803 -0.034770 45.000000
-14.679459 -27.342625 -0.034665 45.000000
-14.507318 -27.434345 -0.034665 43.000000
13.541162 -26.235519 -0.032979 17.000000
15.602099 -25.163607 -0.033072 1.000000
14.610996 -25.124367 -0.032465 5.000000
15.225174 -25.080444 -0.032773 2.000000
15.349793 -25.107569 -0.032871 8.000000
15.434888 -25.069441 -0.032885 5.000000
13.686500 -24.957525 -0.031795 0.000000
14.453993 -25.035046 -0.032291 8.000000
14.287750 -24.927637 -0.032094 3.000000
13.794410 -24.783661 -0.031683 2.000000
13.801776 -24.614599 -0.031522 4.000000
13.867138 -24.370949 -0.031321 8.000000
14.640403 -24.288830 -0.031678 2.000000
14.356724 -24.160263 -0.031392 5.000000
-13.453961 -22.858536 -0.029628 26.000000
-13.483760 -22.664246 -0.029458 38.500000
-13.991230 -22.618395 -0.029708 1.000000
-13.846828 -22.542946 -0.029552 40.000000
-13.607344 -22.548229 -0.029418 43.500000
-13.734281 -22.518040 -0.029462 44.000000
-8.644351 -20.091265 -0.024431 5.000000
-15.134561 -19.595968 -0.027657 12.000000
-15.173955 -19.519901 -0.027617 20.000000
-15.193302 -19.418577 -0.027541 11.000000
-8.620587 -19.039301 -0.023346 3.000000
-8.555815 -19.055342 -0.023332 5.000000
-12.787607 -17.855106 -0.024532 23.500000
-8.410498 -17.752432 -0.021943 2.500000
-12.802532 -17.699009 -0.024400 39.000000
-13.290061 -17.547132 -0.024588 29.000000
-12.885839 -17.580534 -0.024348 44.333332
-13.145884 -17.470537 -0.024422 58.000000
-13.062192 -17.473305 -0.024369 52.000000
-12.995309 -17.498199 -0.024346 42.000000
16.040363 -17.009718 -0.026116 0.000000
16.165308 -17.034683 -0.026232 0.000000
18.063435 -13.239809 -0.025017 30.000000
18.185778 -13.241863 -0.025128 29.000000
18.318035 -13.250306 -0.025253 28.000000
18.447279 -13.255714 -0.025374 29.000000
18.594971 -13.244010 -0.025501 25.000000
19.233700 -13.278351 -0.026107 26.000000
19.380884 -13.290249 -0.026250 27.000000
19.521717 -13.296854 -0.026384 27.000000
19.662785 -13.302700 -0.026518 27.000000
19.810722 -13.312253 -0.026661 26.000000
19.955584 -13.318786 -0.026799 26.000000
17.164862 -13.213934 -0.024197 16.500000
17.314432 -13.199616 -0.024320 32.000000
17.448286 -13.215192 -0.024449 34.000000
17.566427 -13.218031 -0.024556 35.000000
17.691160 -13.225051 -0.024673 35.000000
17.875483 -13.231889 -0.024842 33.000000
18.681217 -13.071016 -0.025468 40.000000
18.860146 -13.108142 -0.025655 34.000000
13.954107 -12.844870 -0.021185 33.500000
14.148495 -12.860528 -0.021357 34.000000
14.295125 -12.871390 -0.021487 34.000000
14.445204 -12.883689 -0.021621 34.500000
14.598658 -12.897641 -0.021759 35.000000
14.751105 -12.908984 -0.021896 37.500000
14.900913 -12.916683 -0.022027 35.000000
12.873992 -12.739879 -0.020231 51.000000
13.519878 -12.803004 -0.020799 33.000000
13.660319 -12.814339 -0.020922 33.000000
13.809890 -12.832943 -0.021058 32.000000
12.899570 -12.645474 -0.020178 91.000000
13.030189 -12.574317 -0.020227 26.000000
12.901664 -12.528806 -0.020088 58.000000
6.487702 -10.917852 -0.014186 4.000000
6.370899 -10.824265 -0.014030 17.666666
6.452034 -10.729404 -0.013985 21.000000
-2.810484 -10.488608 -0.012129 31.666666
-2.744807 -10.507402 -0.012131 3.000000
6.440779 -10.535146 -0.013793 7.000000
6.415125 -10.419485 -0.013668 9.000000
6.399020 -10.212870 -0.013462 27.500000
6.395484 -10.066118 -0.013321 31.000000
6.388206 -9.916448 -0.013176 31.000000
6.381487 -9.770620 -0.013036 31.500000
6.377604 -9.631946 -0.012904 31.500000
6.369570 -9.457715 -0.012737 32.666668
-2.657377 -9.344828 -0.010852 0.285714
-2.545405 -9.404757 -0.010883 17.000000
-2.434354 -9.379215 -0.010824 0.000000
-2.386689 -9.377024 -0.010808 0.000000
6.360847 -9.286371 -0.012573 34.000000
6.358615 -9.159151 -0.012455 30.500000
6.373041 -9.088136 -0.012399 5.000000
8.677023 -8.818981 -0.013820 35.000000
6.374265 -8.564204 -0.011925 0.000000
8.773181 -8.402631 -0.013569 22.200001
-7.766853 -7.815791 -0.012308 13.000000
-7.409224 -7.775016 -0.011997 2.000000
19.189985 -7.761051 -0.023122 1.000000
-7.589332 -7.717570 -0.012091 17.000000
-7.457999 -7.679943 -0.011958 11.666667
16.027065 -7.623929 -0.019825 13.000000
14.027990 -7.465114 -0.017750 39.333332
16.044731 -7.478389 -0.019773 29.000000
14.038280 -7.367162 -0.017709 51.000000
16.067104 -7.396836 -0.019758 42.000000
16.228531 -7.409454 -0.019927 29.000000
16.386551 -7.419480 -0.020093 13.000000
16.552094 -7.431862 -0.020267 1.000000
-7.825139 -7.332888 -0.011979 22.000000
-7.321965 -7.306644 -0.011554 3.000000
14.043431 -7.257685 -0.017658 56.500000
14.408286 -7.246612 -0.018015 22.000000
14.568634 -7.250889 -0.018177 24.000000
-7.764254 -7.207551 -0.011834 21.500000
-7.407075 -7.162928 -0.011510 32.000000
-7.343349 -7.191059 -0.011481 16.500000
-7.234112 -7.173761 -0.011380 17.000000
12.519887 -7.210887 -0.016139 24.000000
14.109558 -7.207801 -0.017698 22.000000
14.267710 -7.232162 -0.017868 12.000000
-7.760176 -7.090881 -0.011742 28.500000
-7.434063 -7.076932 -0.011465 20.000000
-7.276186 -7.125368 -0.011376 23.000000
9.930115 -6.979019 -0.013558 17.333334
-7.899673 -6.862241 -0.011688 18.000000
-7.621035 -6.891071 -0.011477 33.666668
8.073701 -6.922887 -0.011880 52.428570
-8.035565 -6.783476 -0.011746 9.500000
8.087642 -6.769620 -0.011781 62.750000
-8.316987 -6.648873 -0.011894 31.000000
-8.078881 -6.669192 -0.011702 3.000000
-7.502216 -6.684230 -0.011224 42.000000
-7.943512 -6.627682 -0.011556 54.333332
8.103881 -6.611831 -0.011683 62.000000
8.141785 -6.473908 -0.011619 56.000000
8.286068 -6.462100 -0.011738 48.500000
8.378778 -6.450204 -0.011811 15.000000
-8.177824 -6.412232 -0.011608 16.000000
-7.329982 -6.407882 -0.010875 54.000000
-8.812955 -6.304807 -0.012104 0.000000
-7.954956 -6.197227 -0.011264 22.000000
-7.647112 -6.192509 -0.010991 19.000000
-7.537699 -6.143220 -0.010862 43.000000
-7.020822 -6.196148 -0.010460 37.500000
-10.852389 -6.129988 -0.013922 1.000000
-7.683502 -6.063714 -0.010933 14.000000
-7.702353 -5.961647 -0.010880 7.000000
-7.050704 -5.999717 -0.010341 25.500000
-6.917698 -5.983868 -0.010217 27.000000
-7.789895 -5.903087 -0.010918 31.000000
-7.691980 -5.876712 -0.010813 33.000000
-7.171973 -5.920531 -0.010388 15.000000
-7.088726 -5.889357 -0.010294 1.000000
-6.944142 -5.918291 -0.010192 39.000000
-7.235309 -5.746982 -0.010321 56.000000
-8.499124 -5.646803 -0.011398 4.000000
-7.055699 -5.676985 -0.010116 15.000000
-8.500544 -5.590228 -0.011364 3.500000
-6.989142 -5.587351 -0.009995 0.000000
-8.479057 -5.443457 -0.011255 0.000000
-8.091892 -5.449835 -0.010898 12.000000
-7.660292 -5.516651 -0.010545 41.000000
-7.443550 -5.467830 -0.010317 43.000000
-6.716025 -5.473556 -0.009678 1.000000
-7.303349 -5.388275 -0.010138 56.333332
-6.972526 -5.431879 -0.009873 3.000000
-6.885950 -5.434297 -0.009798 12.000000
-8.411073 -5.251742 -0.011076 5.000000
-7.476715 -5.242974 -0.010201 46.500000
-7.316096 -5.280383 -0.010078 49.666668
-9.029891 -5.175655 -0.011626 5.000000
-8.225831 -5.208194 -0.010875 2.000000
-7.293668 -5.148932 -0.009973 46.000000
3.692353 -5.183761 -0.007109 17.850000
4.387037 -5.147215 -0.007555 14.200000
4.532379 -5.168054 -0.007678 24.250000
4.676549 -5.182706 -0.007798 42.799999
4.765203 -5.182121 -0.007864 39.000000
4.838586 -5.195930 -0.007931 37.333332
4.984917 -5.207623 -0.008053 21.125000
5.086367 -5.215819 -0.008138 1.666667
-8.502803 -5.125174 -0.011090 18.000000
-7.423725 -5.102184 -0.010062 38.000000
3.756512 -5.082636 -0.007060 5.923077
3.923376 -5.101799 -0.007189 41.799999
4.076220 -5.115024 -0.007306 22.500000
4.238390 -5.134078 -0.007437 14.000000
10.689774 -5.043906 -0.013203 3.000000
-8.795793 -5.004829 -0.011304 4.000000
-7.300964 -4.984117 -0.009874 81.000000
8.405070 -4.982636 -0.010914 32.250000
-7.973853 -4.909385 -0.010460 17.000000
-7.160412 -4.937505 -0.009716 64.000000
-7.079710 -4.931530 -0.009638 50.000000
-9.790499 -4.745566 -0.012153 7.000000
-9.493311 -4.787100 -0.011876 6.000000
-7.385331 -4.807093 -0.009843 14.000000
-9.451546 -4.691786 -0.011787 1.000000
-7.301881 -4.660027 -0.009676 25.857143
-6.985165 -4.672714 -0.009387 22.500000
-8.047777 -4.612738 -0.010361 7.000000
-6.985458 -4.578122 -0.009329 11.000000
-6.894251 -4.549376 -0.009227 15.000000
-9.689356 -4.473009 -0.011921 24.000000
-7.419845 -4.504244 -0.009696 31.000000
-7.315879 -4.519833 -0.009606 17.500000
-7.191049 -4.469118 -0.009457 21.000000
-10.111796 -4.400932 -0.012318 2.000000
-8.832204 -4.418984 -0.011032 6.000000
-7.211133 -4.362233 -0.009414 45.500000
-7.508237 -4.209982 -0.009615 25.000000
-7.042137 -4.169642 -0.009142 39.000000
-8.269207 -4.104868 -0.010312 11.000000
-7.292057 -4.058822 -0.009322 35.200001
-7.122189 -4.111997 -0.009186 110.000000
-7.046994 -4.098158 -0.009106 24.000000
-6.933993 -4.061645 -0.008976 35.000000
-10.902215 -4.009073 -0.012975 5.500000
-10.432725 -4.029847 -0.012493 2.000000
-8.360104 -3.979581 -0.010342 26.250000
-8.555761 -3.910723 -0.010508 12.400000
-7.890924 -3.886238 -0.009825 50.000000
-7.228572 -3.902884 -0.009176 38.500000
6.644990 -3.869024 -0.008589 18.333334
-11.168344 -3.771587 -0.013167 11.000000
-8.646443 -3.741375 -0.010524 9.333333
-8.507925 -3.814693 -0.010415 40.000000
-8.012109 -3.744617 -0.009879 16.000000
-7.862391 -3.826234 -0.009767 35.500000
-7.327293 -3.811001 -0.009226 31.400000
6.651000 -3.761421 -0.008535 11.750000
-10.936870 -3.731738 -0.012908 22.000000
-10.773828 -3.713933 -0.012729 14.000000
-8.783507 -3.692245 -0.010643 11.000000
-8.419746 -3.727604 -0.010285 13.000000
-7.315054 -3.674281 -0.009144 7.500000
-11.068233 -3.564279 -0.012989 13.500000
-8.385015 -3.586895 -0.010187 21.000000
-8.259851 -3.564094 -0.010049 20.000000
-7.135414 -3.626266 -0.008941 34.000000
6.949697 -3.550220 -0.008717 5.000000
11.927950 -3.560410 -0.013905 38.000000
13.843126 -3.569767 -0.015969 12.000000
14.110115 -3.591379 -0.016264 8.000000
14.423927 -3.623040 -0.016612 11.000000
14.720939 -3.599459 -0.016928 31.333334
6.966341 -3.517426 -0.008717 12.500000
11.958014 -3.508102 -0.013920 19.500000
12.374462 -3.441048 -0.014347 10.000000
12.570354 -3.453012 -0.014561 17.000000
12.820486 -3.478445 -0.014838 7.000000
13.009081 -3.485773 -0.015044 7.000000
13.340923 -3.529806 -0.015415 7.000000
13.545453 -3.538427 -0.015638 13.000000
14.750308 -3.459671 -0.016923 5.666667
-8.968832 -3.378312 -0.010705 5.000000
6.993277 -3.340114 -0.008657 11.500000
11.939444 -3.421332 -0.013873 42.500000
12.128718 -3.413797 -0.014074 18.000000
7.091515 -3.305234 -0.008739 16.750000
8.389793 -3.301445 -0.010071 3.000000
8.515653 -3.320115 -0.010209 19.000000
14.765346 -3.316710 -0.016904 3.000000
-7.414119 -3.171570 -0.009008 0.000000
7.056964 -3.195251 -0.008653 16.000000
7.380825 -3.184866 -0.008979 27.666666
8.444324 -3.200891 -0.010087 49.666668
14.775100 -3.172885 -0.016880 3.333333
-7.381065 -3.116373 -0.008949 11.000000
6.984213 -3.057136 -0.008516 17.000000
8.515930 -3.121462 -0.010131 24.000000
14.818286 -3.084905 -0.016907 0.000000
6.825499 -3.030412 -0.008342 33.333332
8.476160 -3.001646 -0.010044 50.500000
8.559520 -2.993079 -0.010129 24.750000
14.786402 -2.981461 -0.016849 6.000000
-7.499092 -2.851624 -0.008962 13.750000
6.858593 -2.906349 -0.008321 29.250000
7.053870 -2.897200 -0.008518 37.285713
8.438235 -2.928601 -0.009977 71.000000
8.670180 -2.917838 -0.010218 26.000000
-7.194583 -2.826775 -0.008634 8.000000
6.941993 -2.741751 -0.008337 30.400000
7.217206 -2.807309 -0.008650 57.250000
7.348355 -2.811944 -0.008789 2.000000
-7.468694 -2.574594 -0.008824 5.000000
-7.290582 -2.538847 -0.008623 0.000000
7.088854 -2.619254 -0.008442 15.333333
7.285335 -2.605716 -0.008643 11.000000
7.375842 -2.585874 -0.008731 10.000000
-10.928984 -2.494076 -0.012522 28.250000
-11.104275 -2.396773 -0.012689 12.000000
-10.534546 -2.343171 -0.012055 62.000000
-7.340892 -2.431285 -0.008638 11.571428
-7.238447 -2.419142 -0.008525 38.000000
6.985238 -2.387506 -0.008246 16.500000
7.098581 -2.414095 -0.008375 0.500000
-10.526227 -2.306637 -0.012037 63.000000
-7.402385 -2.251851 -0.008643 18.666666
7.058966 -2.252889 -0.008277 16.250000
-11.948128 -2.149810 -0.013561 8.000000
-11.278896 -2.139328 -0.012823 3.000000
-7.359321 -2.205114 -0.008582 36.833332
-7.122446 -2.232038 -0.008337 30.000000
-6.980871 -2.219857 -0.008182 23.666666
6.967118 -2.223443 -0.008169 32.000000
7.105664 -2.157502 -0.008295 25.500000
7.286322 -2.174916 -0.008494 2.000000
7.461532 -2.188948 -0.008686 25.000000
-10.829539 -2.124674 -0.012327 17.000000
-10.685515 -2.131298 -0.012171 11.000000
-7.166501 -2.086229 -0.008337 43.500000
7.357469 -2.058408 -0.008534 6.500000
-10.922270 -2.000671 -0.012403 14.000000
-10.715387 -1.997587 -0.012175 1.000000
-7.099371 -2.030348 -0.008248 35.000000
7.262598 -1.958302 -0.008402 17.000000
7.306946 -1.970236 -0.008454 8.000000
-10.806642 -1.874403 -0.012251 13.000000
-10.670713 -1.885375 -0.012104 7.000000
-7.032531 -1.927842 -0.008145 36.500000
-6.753692 -1.885663 -0.007832 65.000000
-6.566820 -1.855748 -0.007622 73.000000
7.303148 -1.858835 -0.008418 17.000000
7.377797 -1.840846 -0.008494 12.000000
-13.081587 -1.764051 -0.014745 2.000000
-10.331397 -1.758554 -0.011706 23.000000
-6.943110 -1.812866 -0.008016 43.000000
7.110456 -1.809785 -0.008196 6.333333
-10.355354 -1.695827 -0.011721 21.000000
-7.019947 -1.687287 -0.008065 35.583332
6.885232 -1.649179 -0.007908 18.000000
7.235634 -1.697102 -0.008302 26.000000
-7.349604 -1.610536 -0.008404 2.000000
-7.260788 -1.567186 -0.008297 30.000000
-7.109132 -1.604720 -0.008141 8.000000
-7.055569 -1.569352 -0.008074 6.000000
7.071868 -1.582825 -0.008095 27.500000
7.167602 -1.562790 -0.008194 15.000000
14.898319 -1.636894 -0.016742 3.000000
-7.471613 -1.496305 -0.008512 28.750000
-7.220882 -1.511122 -0.008241 36.000000
7.001875 -1.457667 -0.007989 27.000000
14.912647 -1.520062 -0.016744 2.500000
-7.549394 -1.431933 -0.008583 34.000000
-7.460189 -1.342211 -0.008467 8.666667
-7.195305 -1.388202 -0.008185 35.000000
6.986826 -1.431648 -0.007967 36.000000
7.062059 -1.367449 -0.008035 32.555557
14.921690 -1.378999 -0.016739 31.000000
7.204068 -1.319658 -0.008181 33.333332
-7.417203 -1.214615 -0.008395 13.000000
-7.342357 -1.237947 -0.008317 7.500000
-7.148853 -1.193845 -0.008096 15.500000
7.233724 -1.212010 -0.008193 35.000000
14.932586 -1.214570 -0.016735 32.500000
-7.321542 -1.057525 -0.008263 29.600000
-7.193311 -1.120037 -0.008132 32.000000
7.276824 -1.070655 -0.008216 38.166668
7.309237 -1.048069 -0.008248 31.000000
14.943750 -1.097401 -0.016737 13.000000
-10.385167 -0.987186 -0.011653 4.000000
7.369948 -0.938969 -0.008299 35.599998
14.966695 -1.028210 -0.016757 2.500000
-7.309081 -0.880708 -0.008223 39.250000
-7.101642 -0.912260 -0.007998 38.000000
-7.068674 -0.938130 -0.007965 27.666666
7.477638 -0.869198 -0.008409 35.500000
14.969622 -0.910332 -0.016752 26.333334
-7.322782 -0.777321 -0.008226 36.200001
7.397991 -0.789381 -0.008311 28.500000
7.465763 -0.832142 -0.008391 33.000000
14.982862 -0.769478 -0.016758 30.666666
-10.527867 -0.651290 -0.011782 2.000000
7.253123 -0.695975 -0.008139 17.125000
14.997799 -0.652208 -0.016769 9.500000
-12.396962 -0.610649 -0.013864 5.000000
-12.131104 -0.559358 -0.013565 14.000000
-10.245271 -0.585396 -0.011463 45.000000
-7.322896 -0.611418 -0.008208 53.714287
-7.208098 -0.614174 -0.008081 29.600000
-7.079081 -0.594448 -0.007935 48.000000
6.961102 -0.588315 -0.007803 13.000000
7.078768 -0.598059 -0.007935 8.500000
14.597028 -0.565864 -0.016317 1.000000
-11.773133 -0.505789 -0.013163 2.000000
-10.284934 -0.474165 -0.011501 20.000000
-7.782714 -0.487527 -0.008710 24.500000
-7.422767 -0.506035 -0.008311 64.000000
-7.329373 -0.522804 -0.008208 56.000000
6.943657 -0.531847 -0.007779 8.000000
7.257274 -0.521487 -0.008127 27.000000
7.319526 -0.491296 -0.008194 33.000000
7.508650 -0.480299 -0.008404 17.000000
7.789605 -0.473703 -0.008717 2.000000
15.004097 -0.458937 -0.016768 43.599998
-9.677490 -0.354859 -0.010817 0.000000
-6.681361 -0.339629 -0.007473 8.500000
7.673781 -0.388029 -0.008583 22.333334
-11.092774 -0.267227 -0.012394 4.000000
-6.498002 -0.279162 -0.007265 18.000000
-6.175104 -0.245859 -0.006903 21.000000
7.362466 -0.285411 -0.008230 36.000000
7.518883 -0.275743 -0.008404 17.000000
15.026300 -0.299001 -0.016788 16.333334
-6.510108 -0.156830 -0.007274 12.000000
-6.445975 -0.155408 -0.007202 38.500000
-6.099897 -0.223674 -0.006818 28.000000
7.647274 -0.176187 -0.008544 17.000000
14.507196 -0.151925 -0.016206 14.000000
14.993095 -0.156894 -0.016748 10.000000
-7.567892 -0.039627 -0.008454 0.000000
-5.963601 -0.068697 -0.006662 31.000000
7.187803 -0.052690 -0.008029 37.000000
7.795087 -0.118341 -0.008708 21.500000
7.823566 -0.081931 -0.008739 10.000000
-6.347940 0.026592 -0.007091 32.000000
-6.238895 -0.003177 -0.006969 37.750000
-6.099913 -0.031940 -0.006814 18.000000
7.443985 0.003898 -0.008315 32.000000
7.559910 0.004015 -0.008445 15.500000
15.047934 -0.015763 -0.016809 12.666667
7.521614 0.074840 -0.008402 9.000000
7.667171 0.112415 -0.008565 25.000000
8.038721 0.143123 -0.008981 63.000000
15.047785 0.078791 -0.016809 38.000000
-6.300235 0.171677 -0.007040 42.000000
-6.128428 0.243974 -0.006851 45.666668
-5.878835 0.246395 -0.006572 34.000000
-0.079344 0.197467 -0.006604 1.000000
7.828168 0.196786 -0.008747 55.166664
8.012299 0.243398 -0.008954 115.000000
8.706084 0.182367 -0.009727 37.000000
13.982489 0.205009 -0.015620 16.000000
-6.395567 0.328461 -0.007153 43.000000
-6.284312 0.335868 -0.007030 39.333332
-0.162748 0.343655 -0.089660 1.000000
7.541007 0.323860 -0.008431 13.000000
7.714810 0.282889 -0.008623 121.000000
8.723753 0.310861 -0.009751 53.666668
-6.273258 0.423235 -0.007023 33.200001
-0.068913 0.435535 -0.006813 66.245689
7.425878 0.424244 -0.008308 13.500000
7.513684 0.393776 -0.008404 15.000000
7.622754 0.375482 -0.008525 123.000000
8.826958 0.453386 -0.009873 20.666666
-6.559168 0.523129 -0.007350 37.000000
8.820806 0.517873 -0.009870 42.000000
-6.741136 0.601630 -0.007560 36.599998
-6.046690 0.635532 -0.006791 13.000000
-5.992966 0.648929 -0.006733 31.000000
-0.083973 0.593031 -0.017109 79.488548
7.141935 0.633622 -0.008009 3.000000
7.404559 0.563238 -0.008295 5.750000
8.737556 0.575986 -0.009781 65.000000
-6.892284 0.702524 -0.007739 14.000000
-6.707368 0.662390 -0.007529 31.000000
-6.001756 0.678521 -0.006747 13.000000
-0.101334 0.689132 -0.039661 74.594597
0.073629 0.715759 -0.012731 38.893749
-7.672483 0.855183 -0.008623 9.000000
0.091137 0.834429 -0.027610 40.799999
0.106544 0.811932 -0.011532 1.500000
-12.140432 0.929895 -0.013601 3.000000
-7.890431 0.954846 -0.008878 81.000000
-7.492929 0.942611 -0.008436 15.000000
-6.541094 0.937925 -0.007381 15.000000
-0.132582 0.911184 -0.047824 52.419643
0.046435 0.912953 -0.088753 84.722221
-13.320125 0.978167 -0.014919 1.000000
-7.573272 1.037408 -0.008538 37.000000
-7.475205 1.009544 -0.008426 26.400000
-6.579412 1.006791 -0.007435 3.000000
-0.187529 0.980221 -0.001115 5.000000
-9.593629 1.130388 -0.010790 17.000000
-7.382030 1.129623 -0.008342 36.000000
-10.328343 1.184069 -0.011612 1.000000
-8.837580 1.238897 -0.009968 8.000000
-6.729342 1.225356 -0.007640 73.000000
-6.403192 1.228498 -0.007283 46.666668
-6.328225 1.172867 -0.007189 23.000000
-10.793328 1.271745 -0.012140 1.000000
-6.448549 1.304397 -0.007349 24.000000
-13.322788 1.379104 -0.014961 1.500000
-11.288759 1.438114 -0.012712 2.000000
-6.570694 1.389453 -0.007502 17.000000
7.455076 1.414042 -0.008476 1.000000
-10.841979 1.519884 -0.012229 2.000000
-6.754612 1.472757 -0.007722 45.666668
-6.607073 1.516842 -0.007572 42.500000
7.428787 1.481747 -0.008462 13.000000
16.675303 1.558665 -0.018708 1.000000
-11.047005 1.584026 -0.012466 1.000000
-9.018002 1.583627 -0.010227 13.000000
-6.653219 1.604668 -0.007645 47.000000
-6.563583 1.613124 -0.007550 37.000000
16.659790 1.636461 -0.018699 18.000000
-11.354631 1.664556 -0.012819 0.000000
6.936553 1.692232 -0.007975 14.000000
-11.027841 1.776280 -0.012477 17.500000
-10.918742 1.811503 -0.012363 32.000000
-10.814399 1.829118 -0.012251 61.000000
-9.561165 1.772056 -0.010862 0.000000
-6.641945 1.807128 -0.007689 26.150000
6.931755 1.787575 -0.007996 44.666668
16.656345 1.768302 -0.018710 26.250000
-11.072703 1.908610 -0.012551 8.000000
-6.636739 1.927607 -0.007720 23.357143
6.931357 1.888405 -0.008025 1.000000
-11.233744 2.009125 -0.012747 7.000000
-9.775258 1.971037 -0.011139 1.000000
-9.643968 2.023575 -0.011007 7.500000
-6.585664 2.067464 -0.007710 35.166668
-6.354692 2.072125 -0.007466 34.000000
-6.252195 2.086547 -0.007362 29.400000
-6.106981 2.098003 -0.007213 32.000000
6.852232 2.076643 -0.007998 8.000000
6.936361 2.102336 -0.008096 3.000000
-6.082762 2.256810 -0.007247 38.250000
-5.942882 2.231414 -0.007091 35.000000
7.064471 2.189521 -0.008261 13.000000
-8.580727 2.270332 -0.009915 10.000000
-6.432839 2.300898 -0.007631 40.833336
-6.221134 2.433053 -0.007462 32.333332
-6.096630 2.388453 -0.007314 49.000000
-6.022302 2.380719 -0.007234 50.500000
-6.368179 2.529059 -0.007654 16.000000
-6.225550 2.540600 -0.007511 14.000000
-6.061059 2.540418 -0.007341 28.857143
-5.978836 2.550190 -0.007261 22.000000
7.244804 2.548482 -0.008579 9.000000
-9.050884 2.639807 -0.010531 13.000000
7.268987 2.647132 -0.008641 11.000000
-10.977981 2.794169 -0.012653 24.000000
-10.713511 2.762724 -0.012359 43.000000
-10.636523 2.796416 -0.012285 34.000000
-8.627559 2.843272 -0.010147 2.000000
-6.382232 2.809457 -0.007789 50.000000
-6.290952 2.824573 -0.007703 87.000000
7.223381 2.785772 -0.008648 11.750000
-10.451202 2.941620 -0.012128 1.000000
7.217762 2.941110 -0.008706 11.000000
-10.383365 3.028442 -0.012082 4.000000
-7.315212 2.998712 -0.008831 13.000000
-6.243239 2.993941 -0.007734 79.000000
-6.099782 2.996217 -0.007591 33.400002
-5.950472 3.004542 -0.007446 36.000000
-10.473547 3.090478 -0.012198 13.000000
-6.098782 3.127620 -0.007656 37.000000
-7.623477 3.251688 -0.009258 5.000000
-7.473598 3.215546 -0.009088 2.000000
-6.986273 3.189720 -0.008579 48.000000
-6.880213 3.193666 -0.008473 37.000000
-6.747101 3.196495 -0.008340 48.500000
-6.252834 3.256438 -0.007875 37.500000
15.346942 3.194921 -0.017510 39.666668
19.991091 3.177005 -0.022611 98.500000
-6.032197 3.275216 -0.007667 14.000000
7.085433 3.270929 -0.008717 41.000000
7.430026 3.275497 -0.009070 11.500000
15.334141 3.284565 -0.017517 54.000000
19.968761 3.302226 -0.022608 98.500000
-6.402002 3.372536 -0.008083 56.000000
-6.106483 3.441018 -0.007829 30.000000
15.347531 3.413739 -0.017562 49.333332
19.947620 3.427628 -0.022608 97.500000
-6.613960 3.510786 -0.008364 42.000000
-6.223514 3.464065 -0.007956 48.000000
-6.180954 3.534139 -0.007953 37.000000
7.532050 3.505853 -0.009280 33.000000
-6.660774 3.575959 -0.008445 33.000000
-6.257504 3.603909 -0.008066 59.666668
7.400644 3.628271 -0.009207 37.142857
7.561116 3.583167 -0.009346 38.200001
15.352338 3.566991 -0.017606 51.333332
-6.299986 3.734926 -0.008181 35.666668
7.341860 3.710537 -0.009189 45.000000
9.031017 3.753400 -0.010924 47.857143
9.252493 3.711003 -0.011135 11.750000
15.359509 3.670485 -0.017640 0.000000
-6.350218 3.791501 -0.008261 38.000000
4.345594 3.847362 -0.006483 0.000000
7.120928 3.818208 -0.009025 9.000000
7.227463 3.787700 -0.009115 13.000000
7.372018 3.854002 -0.009292 45.666668
14.117431 3.846207 -0.016344 32.000000
-6.784871 3.936215 -0.008762 38.000000
-6.442599 3.901778 -0.008413 44.000000
-6.202206 3.917841 -0.008194 31.000000
7.259639 3.885123 -0.009197 49.250000
9.021524 3.876023 -0.010968 50.750000
11.825072 3.952025 -0.013927 0.000000
-10.206218 4.016219 -0.012251 0.000000
-7.307645 4.027421 -0.009320 12.666667
-6.539409 4.030938 -0.008581 41.250000
-6.377874 4.029077 -0.008427 29.666666
7.225241 3.991853 -0.009221 58.666668
9.047801 4.052516 -0.011074 51.250000
11.797435 4.025403 -0.013924 18.000000
-10.405449 4.132420 -0.012506 1.000000
-6.397375 4.154505 -0.008521 49.000000
-6.254459 4.103598 -0.008356 35.333336
7.309368 4.098472 -0.009361 28.000000
9.048712 4.142824 -0.011116 53.000000
7.141488 4.203304 -0.009256 55.666668
7.262047 4.162308 -0.009350 21.799999
17.545151 4.221926 -0.020158 59.000000
-6.419193 4.328083 -0.008648 47.000000
-6.288960 4.293243 -0.008506 30.666666
17.545452 4.338820 -0.020189 14.000000
7.300412 4.369206 -0.009504 54.000000
7.345050 4.364641 -0.009544 24.000000
-6.583619 4.496277 -0.008906 60.599998
-6.423189 4.509271 -0.008766 43.000000
-6.247033 4.474108 -0.008583 37.500000
-6.122523 4.505321 -0.008491 36.599998
7.276169 4.487803 -0.009549 46.750000
7.328018 4.490686 -0.009600 57.000000
17.587708 4.555042 -0.020294 1.000000
-6.119182 4.574401 -0.008534 47.000000
7.258131 4.595490 -0.009596 54.666668
17.612431 4.650129 -0.020347 0.500000
-8.703799 4.725778 -0.011063 3.000000
-7.420370 4.752827 -0.009843 8.000000
-6.403986 4.693878 -0.008869 93.000000
-7.318129 4.851114 -0.009807 1.000000
-6.361308 4.818057 -0.008914 36.666668
7.279863 4.771071 -0.009722 4.000000
7.357380 4.810821 -0.009819 68.333336
7.489441 4.808136 -0.009941 68.000000
17.601160 4.815116 -0.020383 78.666664
-6.440553 4.958167 -0.009079 36.000000
-5.905109 4.937451 -0.008598 37.666668
7.397485 4.948446 -0.009941 16.000000
7.605310 4.916330 -0.010116 15.000000
17.616156 4.948397 -0.020439 101.000000
-6.200400 5.042521 -0.008927 37.000000
7.529603 5.002656 -0.010098 45.000000
-12.098898 5.115755 -0.014673 1.000000
-7.373263 5.073184 -0.009997 26.000000
-6.573132 5.142848 -0.009323 34.000000
-6.482708 5.138133 -0.009240 35.000000
7.153933 5.151991 -0.009848 60.000000
7.231017 5.070881 -0.009865 39.750000
7.443020 5.081092 -0.010066 50.000000
7.554955 5.122785 -0.010196 27.000000
7.637366 5.143714 -0.010285 66.000000
17.619625 5.098980 -0.020489 138.000000
-6.719635 5.257513 -0.009530 34.000000
-6.387327 5.161290 -0.009173 39.000000
-6.278854 5.205407 -0.009110 92.000000
-6.045563 5.224021 -0.008925 40.500000
7.189528 5.212004 -0.009919 39.000000
7.313322 5.197307 -0.010022 26.000000
7.535805 5.179215 -0.010214 14.000000
17.642273 5.225879 -0.020553 85.000000
-7.222864 5.329045 -0.010026 5.000000
-6.598967 5.281068 -0.009441 59.000000
-6.264748 5.327948 -0.009186 65.000000
7.591035 5.358856 -0.010379 30.000000
17.656422 5.290464 -0.020589 95.000000
-6.072239 5.433022 -0.009101 47.000000
-5.969867 5.383747 -0.008980 39.250000
7.376359 5.394837 -0.010208 36.333332
17.638927 5.375927 -0.020598 83.000000
-10.061028 5.503686 -0.012810 0.000000
-6.706749 5.506989 -0.009693 48.500000
-6.286117 5.553665 -0.009369 50.000000
-5.964286 5.542270 -0.009095 47.500000
7.435984 5.498322 -0.010330 41.000000
17.632523 5.464921 -0.020620 52.000000
-6.429783 5.644727 -0.009557 37.000000
-6.061062 5.614617 -0.009229 54.000000
7.280294 5.598488 -0.010259 35.000000
7.449151 5.611856 -0.010418 34.900002
17.667587 5.567193 -0.020692 118.000000
-6.818859 5.725757 -0.009946 18.000000
-6.718345 5.677444 -0.009825 45.000000
-5.984778 5.679252 -0.009216 49.000000
7.466307 5.704294 -0.010495 32.000000
17.651299 5.684221 -0.020714 126.000000
-6.102097 5.778542 -0.009387 52.000000
-5.983222 5.828612 -0.009330 44.000000
-5.889003 5.846042 -0.009269 46.500000
7.441369 5.853798 -0.010576 6.500000
17.684938 5.836454 -0.020802 120.800003
-5.908042 5.920426 -0.009343 43.000000
-2.756624 6.014097 -0.007390 14.222222
7.493347 5.990469 -0.010716 40.400002
17.701870 6.009005 -0.020881 11.000000
-6.066854 6.117895 -0.009624 46.000000
17.718575 6.139083 -0.020946 105.500000
-5.976835 6.161193 -0.009588 48.166668
-5.832485 6.243540 -0.009544 47.000000
17.698509 6.256956 -0.020969 84.500000
-5.951260 6.291091 -0.009673 36.500000
-5.892607 6.367894 -0.009691 41.000000
17.730907 6.409792 -0.021060 96.500000
-5.967718 6.587368 -0.009929 39.818180
-5.857389 6.636913 -0.009888 44.500000
8.485077 6.610210 -0.012015 24.000000
17.733032 6.584328 -0.021129 95.000000
-5.865554 6.709615 -0.009955 32.000000
17.750530 6.733947 -0.021206 94.000000
7.839277 6.809777 -0.011599 8.000000
8.665724 6.794796 -0.012301 91.000000
-5.978230 6.882015 -0.010183 49.000000
17.774658 6.919374 -0.021306 60.500000
17.752495 7.028731 -0.021327 81.666664
-6.024672 7.068958 -0.010375 35.000000
17.758774 7.138982 -0.021380 1.000000
-6.147194 7.258791 -0.010625 66.000000
-6.338174 7.342849 -0.010835 32.000000
9.316287 7.352282 -0.013257 48.000000
9.485638 7.294261 -0.013366 4.500000
9.383976 7.453662 -0.013386 17.000000
-6.363329 7.514177 -0.010999 44.666668
-6.255099 7.505084 -0.010913 17.000000
-5.968401 7.514073 -0.010719 48.000000
-6.374536 7.754984 -0.011213 32.333332
-6.276465 7.750650 -0.011140 40.333332
-6.107802 7.689349 -0.010969 49.000000
