# This PCD file was generated using the MATLAB® pcwrite function
# from Computer Vision Toolbox®.
# .PCD v.7 - Point Cloud Data file format
VERSION .7
FIELDS x y z intensity
SIZE 4 4 4 4
TYPE F F F F
COUNT 1 1 1 1
WIDTH 1243
HEIGHT 1
VIEWPOINT 0 0 0 1 0 0 0
POINTS 1243
DATA ascii
8.732035 1.005624 2.018942 41.666668
-13.275152 1.084370 2.087665 21.500000
-13.183595 1.014424 2.072490 10.000000
-13.167143 1.179736 2.072077 20.000000
8.781428 1.193568 2.035582 67.250000
-13.143929 1.365273 2.071251 11.500000
8.791206 1.321746 2.041985 67.199997
-13.195158 1.496242 2.081471 21.500000
8.801624 1.422406 2.047894 63.000000
-13.305214 1.508889 2.098814 18.000000
8.818521 1.510568 2.055058 51.750000
-10.408119 1.698797 2.032910 1.000000
8.823079 1.640087 2.061326 61.200001
-10.435379 1.804546 2.041491 40.000000
-10.389497 1.762847 2.031395 0.000000
8.846662 1.788698 2.073146 59.000000
-10.519365 1.818902 2.057895 10.000000
-10.473824 1.895863 2.051838 16.000000
-10.391417 1.931562 2.037453 23.000000
-10.360966 1.976464 2.033288 21.500000
8.885259 1.942289 2.089085 62.400002
-10.298244 2.031665 2.023446 42.500000
-10.339973 2.209117 2.038210 20.000000
-9.452749 2.585962 2.068420 12.000000
-9.549800 2.660961 2.092376 11.000000
6.994541 3.092254 2.043873 11.000000
8.950410 3.127421 2.001097 60.000000
8.956609 3.240510 2.010321 59.666668
-10.359951 3.348173 2.098781 54.000000
8.972496 3.326163 2.019683 53.000000
6.749437 3.452468 2.026144 41.333332
8.956256 3.416468 2.023194 46.500000
6.648742 3.587467 2.019087 51.000000
6.720687 3.517972 2.027349 27.000000
6.875893 3.654438 2.081053 42.000000
8.994663 3.626784 2.046943 62.500000
6.509385 3.780952 2.011857 12.000000
6.672400 3.791991 2.051103 11.000000
6.832817 3.742409 2.082086 41.000000
6.925630 3.708657 2.099644 14.500000
9.005217 3.730146 2.057268 62.500000
6.559794 3.851705 2.033029 14.500000
9.018555 3.861979 2.070662 59.285713
7.140176 3.939917 2.024677 35.333332
9.022154 4.005689 2.083495 54.500000
-10.911111 4.013530 2.031137 20.250000
9.026149 4.184110 2.099810 59.333332
6.507347 4.216235 2.072275 22.000000
7.294487 4.808002 2.006704 20.000000
7.347560 4.876164 2.025508 10.000000
5.766381 4.940640 2.029414 23.000000
6.368646 4.934661 2.000260 49.000000
9.179253 4.937901 2.009287 39.400002
7.464099 5.038449 2.068490 10.000000
9.237388 5.116192 2.035560 21.500000
-8.183319 5.393875 2.068627 11.000000
9.205644 5.353580 2.052848 4.166667
6.032687 5.506670 2.027890 40.000000
6.199561 5.448365 2.049094 40.000000
8.934883 5.475274 2.020039 8.000000
9.108839 5.483968 2.049567 27.000000
-7.850579 5.536098 2.027531 16.500000
6.083973 5.588624 2.051022 41.000000
9.141944 5.543103 2.060924 54.000000
-7.845556 5.681321 2.044465 40.000000
6.066386 5.607710 2.051022 39.000000
-7.837155 5.712860 2.046943 14.000000
5.883954 5.737825 2.040420 2.500000
5.955570 5.753237 2.055841 43.000000
9.224872 5.753151 2.095752 36.000000
5.973014 5.879919 2.080900 2.000000
-11.810536 6.038443 2.079097 9.666667
6.195602 6.137485 2.003122 39.000000
-11.159431 6.293150 2.008073 33.000000
6.346271 6.306520 2.055058 44.500000
6.623384 6.278550 2.096249 27.000000
6.098806 6.353114 2.022822 28.000000
6.175616 6.392804 2.041626 37.000000
6.092196 6.426705 2.034015 35.000000
6.362461 6.422710 2.076549 32.000000
5.818830 6.579305 2.017449 51.000000
6.225056 6.566722 2.078340 60.000000
5.650825 6.637349 2.002226 44.000000
6.706062 6.727162 2.004814 12.000000
-11.442149 6.837139 2.089214 5.000000
9.303755 6.829288 2.016336 3.000000
5.948129 6.942253 2.099831 22.000000
9.347233 6.997740 2.039971 5.666667
9.380582 7.302584 2.076915 22.000000
9.374276 7.488746 2.096191 5.000000
7.389205 7.601140 2.043510 3.000000
6.105925 7.695479 2.073376 32.000000
6.158027 7.686459 2.078746 28.000000
-8.587955 7.885973 2.036988 3.000000
5.904056 7.878794 2.078002 23.000000
5.923406 7.812290 2.069246 29.000000
6.066195 7.845909 2.093201 33.000000
6.120199 7.813802 2.094854 38.000000
7.060651 7.833395 2.032910 0.000000
5.870699 8.027192 2.098984 7.500000
6.866678 8.014321 2.034424 2.000000
6.369253 8.291579 2.015496 33.000000
14.436818 8.271391 2.014946 1.000000
14.229126 8.391635 2.000519 6.000000
14.160683 8.532190 2.002122 18.000000
9.446757 8.698982 2.012822 48.666668
14.163325 8.655514 2.010137 2.000000
7.451644 8.727842 2.004977 9.000000
9.483089 8.824575 2.030371 4.000000
14.066423 8.871777 2.013984 10.500000
-12.070455 8.912117 2.083320 11.000000
13.995169 8.981245 2.013824 15.000000
7.583788 9.082987 2.067278 0.000000
13.941948 9.102503 2.016388 11.500000
7.742482 9.155506 2.094814 16.000000
13.861287 9.174601 2.013022 19.500000
13.841031 9.255272 2.016388 2.000000
-8.813520 9.352680 2.014267 2.000000
-8.764444 9.398667 2.014267 24.666666
9.518176 9.314380 2.087356 3.000000
13.812157 9.425603 2.025044 12.000000
-8.827669 9.566404 2.040282 22.000000
-8.680768 10.000171 2.075587 23.000000
-8.577034 9.943608 2.058244 23.000000
-8.632812 10.233625 2.098505 9.500000
6.150817 10.220532 2.084029 58.333332
6.077581 10.317684 2.092060 0.000000
7.582090 10.336883 2.009312 1.000000
7.158302 10.572769 2.001260 20.000000
7.226934 10.530691 2.001879 13.500000
9.622640 10.747227 2.003001 47.000000
7.269518 10.883714 2.051431 44.000000
9.659924 10.891757 2.021430 23.500000
6.626218 10.932556 2.003737 65.666664
7.380857 10.975595 2.073110 1.000000
6.591870 11.031683 2.014267 136.000000
7.175248 11.040474 2.063819 15.000000
9.682629 11.056582 2.040685 13.500000
-9.668854 11.280845 2.062965 3.000000
6.698326 11.290241 2.057625 19.000000
9.657184 11.275191 2.061315 4.000000
-9.656487 11.338309 2.067916 4.000000
-9.577407 11.389663 2.066266 1.000000
6.701068 11.458321 2.080542 36.000000
-9.458698 11.764248 2.095972 1.000000
5.287970 11.717052 2.014887 33.000000
5.285803 11.860964 2.035326 11.000000
5.885916 11.877706 2.077755 5.000000
4.587150 11.974916 2.009931 70.000000
5.747803 11.975137 2.081987 16.666666
5.868584 11.936941 2.084878 6.500000
-8.861964 12.072937 2.079469 7.000000
-8.732477 12.054580 2.066816 6.000000
-7.901914 12.149305 2.012354 37.000000
4.604186 12.133361 2.034088 70.000000
5.362748 12.187748 2.087046 17.500000
-8.709937 12.224422 2.084145 16.500000
-8.257678 12.270211 2.053613 47.000000
3.975859 12.221981 2.014474 20.666666
4.060123 12.240746 2.021390 38.500000
4.728787 12.229511 2.055147 43.000000
4.827258 12.254709 2.064438 42.000000
5.067340 12.294289 2.084259 6.000000
5.276858 12.305770 2.098660 4.500000
8.308912 12.230762 2.053063 25.000000
4.961545 12.367173 2.088594 39.000000
5.030186 12.313806 2.084878 0.000000
7.501803 12.377196 2.009603 48.000000
-8.473979 12.506605 2.097623 27.000000
3.451532 12.471187 2.028203 28.000000
3.962632 12.491871 2.054115 28.666666
3.852039 12.599454 2.065058 39.000000
7.824425 12.550923 2.053613 1.000000
3.927248 12.632074 2.073419 39.000000
7.008805 12.613051 2.003551 29.000000
-8.083225 12.732123 2.094047 25.000000
2.080651 12.761634 2.026655 36.000000
3.263015 12.717755 2.057934 15.500000
3.787689 12.722001 2.080542 23.666666
7.574848 12.767647 2.061315 23.000000
2.054892 12.857859 2.040901 34.000000
2.347062 12.863990 2.049573 53.000000
2.573854 12.845647 2.053444 31.750000
2.736410 12.868607 2.062115 24.250000
2.847797 12.883887 2.068154 41.200001
3.645666 12.857967 2.094788 50.500000
1.910394 12.999959 2.059483 32.000000
2.457153 13.004251 2.074348 49.000000
3.387406 12.948848 2.097885 34.000000
1.898220 13.205385 2.091072 62.000000
1.972351 13.134578 2.081781 57.000000
2.068901 13.211722 2.096027 77.000000
6.166275 13.244734 2.028582 19.250000
6.971327 13.272724 2.081669 5.000000
9.847560 13.342275 2.008213 42.000000
-10.441759 13.495442 2.066401 22.000000
5.069953 13.488391 2.000801 2.000000
9.852556 13.437191 2.017831 41.000000
-19.031744 13.590246 2.008172 0.000000
9.866405 13.545113 2.029372 34.000000
-10.529993 13.698191 2.092369 2.000000
-10.207070 13.629185 2.062073 0.000000
5.099434 13.697329 2.029408 7.000000
5.941742 13.678127 2.070667 11.000000
9.884330 13.659684 2.041876 10.000000
-9.999893 13.708251 2.054860 6.000000
4.829053 13.758536 2.024640 2.666667
-19.289900 13.866308 2.039998 2.000000
9.909071 13.922946 2.069527 5.500000
9.929196 14.091190 2.087560 12.000000
-9.656142 14.150072 2.074576 15.000000
3.069549 14.269556 2.026657 9.000000
4.273831 14.299809 2.072317 4.000000
9.704400 14.242131 2.087080 25.000000
9.816454 14.261623 2.096697 22.500000
9.924581 14.210820 2.099102 35.666668
1.423117 14.359218 2.003551 3.000000
1.515867 14.373590 2.006852 2.000000
1.723275 14.388128 2.012078 21.000000
3.524504 14.392578 2.057464 1.000000
4.581189 14.337481 2.089921 4.000000
9.684093 14.308723 2.092369 3.000000
-14.022497 14.460028 2.082955 4.500000
2.078456 14.459236 2.028307 88.000000
2.772228 14.423091 2.039310 49.000000
-19.519815 14.597372 2.093043 1.000000
1.632941 14.604012 2.040410 11.000000
2.212214 14.731910 2.068466 30.000000
-13.763075 14.878385 2.095916 0.000000
-13.039612 14.874019 2.045513 6.000000
-12.689989 14.894873 2.023501 2.000000
-12.538169 15.291407 2.044896 19.000000
-12.447349 15.278280 2.037901 17.000000
-11.858483 15.834266 2.045719 1.000000
4.345049 16.003477 2.008213 9.000000
-11.936928 16.043823 2.067937 6.000000
-11.820365 16.203825 2.074109 0.000000
-11.876801 16.389078 2.093035 1.000000
2.573725 16.454250 2.016869 13.000000
-10.100624 16.763836 2.023912 4.000000
-9.724085 16.727791 2.000871 4.000000
3.142140 16.789692 2.068565 0.500000
10.162172 16.773134 2.028027 1.000000
3.324383 16.882063 2.083713 5.500000
10.152500 16.876575 2.036667 17.000000
10.186795 17.300653 2.076166 6.000000
10.211201 17.530708 2.097973 4.500000
-8.012599 17.655489 2.004986 6.000000
-8.990908 17.977934 2.078635 17.000000
-8.240220 18.006495 2.047776 2.000000
-8.452211 18.167210 2.072052 2.000000
-8.580215 18.291855 2.089333 23.000000
-7.885675 18.686047 2.097356 1.500000
-7.751302 18.694813 2.092830 0.000000
10.470191 20.808611 2.000300 39.000000
-10.520924 21.037306 2.019807 8.000000
-10.294206 21.078228 2.014332 14.000000
-10.212292 21.078188 2.011251 23.000000
10.488433 21.008987 2.016385 28.000000
-10.776339 21.131516 2.036918 20.000000
-10.395575 21.117298 2.021176 1.000000
-10.705349 21.239033 2.042394 2.000000
-10.327298 21.487326 2.047185 10.000000
-11.283616 21.537779 2.087910 1.000000
-10.241301 21.568127 2.050265 8.500000
-10.129408 21.594524 2.048212 7.000000
-10.011676 21.877474 2.066007 4.000000
-9.903362 21.821722 2.057794 5.000000
-10.229623 21.987585 2.082434 0.000000
-9.443445 22.182810 2.070285 0.500000
-9.334985 22.217896 2.069430 1.000000
-16.173719 -38.251297 2.116179 10.000000
19.950682 -37.775890 2.176839 4.000000
19.971672 -37.529644 2.166254 22.000000
19.692511 -36.450932 2.111090 1.000000
19.909618 -36.305470 2.109869 2.000000
-11.932443 -29.757896 2.192454 6.000000
-12.105606 -29.649084 2.189998 3.000000
-12.266626 -29.381798 2.177309 3.000000
-10.737288 -28.995544 2.114406 3.000000
-11.188390 -28.860157 2.116680 25.000000
-13.955328 -28.511738 2.170759 6.500000
-13.993394 -27.594429 2.115770 12.000000
-14.497666 -27.508913 2.126413 2.000000
-14.396382 -27.526030 2.124230 16.000000
-13.789005 -27.511959 2.104445 11.000000
-14.564177 -27.322311 2.117271 22.000000
-14.971766 -27.256018 2.126550 9.500000
-14.676750 -27.223520 2.114952 18.000000
-14.748863 -27.152733 2.113041 8.000000
-15.177459 -26.924669 2.113587 8.000000
15.465071 -26.603678 2.104309 3.000000
-12.198111 -21.639334 2.133083 6.000000
13.494317 -21.620596 2.188524 11.000000
-8.532743 -19.318914 2.183965 139.000000
-8.509209 -19.103018 2.162570 120.000000
-8.489289 -18.898352 2.142409 95.000000
-8.463247 -18.683125 2.121014 73.000000
-17.412292 -18.380829 2.174150 21.000000
-17.370956 -18.222191 2.161830 19.000000
-17.122290 -18.246147 2.148654 23.500000
-17.361305 -18.041004 2.150023 1.000000
-11.641254 -17.084650 2.137883 2.000000
-11.589087 -16.893787 2.118545 19.000000
-11.341690 -16.929291 2.107231 34.000000
-11.404657 -16.850945 2.104145 25.000000
-12.039048 -16.747942 2.132946 7.000000
-11.935506 -16.714447 2.123894 23.000000
-12.729683 -16.691963 2.170799 56.000000
-12.114309 -16.686178 2.132329 5.000000
-11.654244 -16.650171 2.101676 10.000000
-13.007534 -16.511833 2.173679 20.000000
-12.675462 -16.513018 2.152695 2.000000
-12.681059 -16.413294 2.144878 21.000000
-12.352805 -16.303741 2.115254 6.000000
-12.284775 -16.320219 2.112374 37.000000
-12.911027 -16.283823 2.148993 22.000000
-13.628363 -16.018934 2.174914 52.000000
-13.215658 -16.037577 2.148993 6.000000
-12.883530 -16.041069 2.127597 20.000000
-13.681208 -15.979062 2.175325 46.000000
-13.199940 -15.916352 2.138295 9.000000
-14.303436 -15.484213 2.179851 2.000000
-14.707653 -15.045206 2.175737 23.000000
-14.686567 -14.696795 2.148581 14.000000
-15.539840 -14.465805 2.195486 6.000000
-15.427537 -14.451989 2.186023 7.000000
-15.602047 -14.251618 2.185200 3.000000
-4.243927 -11.399392 2.125103 1.000000
-1.434368 -11.212517 2.179037 25.000000
-1.837810 -11.149498 2.178280 31.500000
-1.384065 -11.096145 2.155566 11.000000
-2.708042 -10.901886 2.165409 15.000000
-2.015578 -10.971013 2.150266 3.000000
-1.966795 -10.963914 2.147237 6.000000
-1.728454 -10.950942 2.137142 27.666666
-1.648459 -10.964643 2.137395 0.000000
-2.647602 -10.803525 2.144209 12.000000
-3.272306 -10.756881 2.167428 22.000000
-2.102567 -10.746648 2.110895 0.000000
-2.065826 -10.737773 2.107866 48.000000
-3.746708 -10.669064 2.179794 0.000000
-3.751862 -10.421270 2.135123 23.000000
6.942945 -10.266685 2.165326 37.142857
-1.739204 -10.153164 2.174154 45.000000
-1.626803 -10.167829 2.173328 44.000000
7.371192 -10.108278 2.185683 255.000000
-1.870363 -10.062170 2.160111 51.000000
6.963874 -10.072149 2.139331 185.333328
7.098696 -10.062899 2.151492 255.000000
7.230687 -10.081062 2.167440 255.000000
-2.936021 -9.930935 2.185719 52.000000
-1.905661 -9.906076 2.129135 12.000000
-1.775077 -9.930726 2.129217 38.799999
-1.560905 -9.956363 2.127069 34.000000
-1.299139 -9.908338 2.109172 9.666667
-2.794790 -9.830610 2.157082 24.333334
-2.751306 -9.874033 2.163415 64.000000
-3.276978 -9.720502 2.165067 45.000000
-2.695346 -9.792065 2.143590 26.000000
-2.416339 -9.727563 2.115505 56.000000
-3.821577 -9.608082 2.182415 4.000000
-2.596214 -9.668950 2.113027 36.000000
-2.431600 -9.659198 2.102288 65.000000
-3.727676 -9.584260 2.170496 33.714287
-3.617400 -9.527884 2.151025 33.000000
-2.864038 -9.576692 2.109722 26.000000
-1.929199 -9.341013 2.190868 9.666667
-1.780934 -9.362475 2.189077 21.666666
-1.610493 -9.372294 2.184301 6.666667
-1.999608 -9.287789 2.182212 8.000000
-1.746738 -9.235511 2.158930 18.000000
8.659529 -8.642862 2.137495 39.750000
-7.950552 -6.500481 2.167546 19.666666
-7.747894 -6.554436 2.141938 0.000000
-8.008821 -6.478475 2.174154 17.000000
-7.754514 -6.468565 2.131365 22.400000
8.178054 -6.426281 2.195218 59.500000
-7.947741 -6.297977 2.140286 31.600000
5.640441 -6.357457 2.110056 9.000000
8.190127 -6.311908 2.182415 57.750000
8.202943 -6.165806 2.165894 65.333336
8.209702 -6.143878 2.164241 61.000000
8.216640 -6.009368 2.148547 64.750000
8.231737 -5.863067 2.133058 66.750000
8.235151 -5.768457 2.122113 66.000000
8.257934 -5.555429 2.100636 61.000000
-10.132788 -4.619927 2.146733 18.000000
8.339851 -4.653401 2.193629 70.000000
-10.137750 -4.558210 2.142694 31.000000
8.351393 -4.523166 2.181540 69.000000
-10.473423 -4.444640 2.193233 12.250000
8.361773 -4.444162 2.175048 69.000000
8.361242 -4.365618 2.166542 70.000000
8.376575 -4.218569 2.154274 73.400002
8.387769 -4.060313 2.140484 73.199997
8.405271 -3.907007 2.129022 73.800003
-8.814102 -3.699677 2.195644 28.000000
8.418427 -3.769312 2.118635 70.500000
-8.771690 -3.649507 2.182212 11.000000
8.427149 -3.631122 2.107711 71.000000
-8.732147 -3.542156 2.164452 25.833334
-11.062933 -2.711173 2.195694 55.000000
-10.057298 -2.734395 2.199761 18.000000
-10.987404 -2.656103 2.179037 45.000000
-10.936714 -2.589396 2.166544 65.500000
-10.088735 -2.438858 2.190675 61.000000
-9.897108 -2.480448 2.153503 12.000000
-10.897223 -2.364021 2.149509 75.000000
8.533924 -2.363465 2.198487 68.500000
-10.735351 -2.275993 2.115438 73.000000
-9.959394 -2.226154 2.153916 68.500000
8.543551 -2.265332 2.194439 70.599998
8.462132 -2.102005 2.164753 62.000000
8.230095 -2.085591 2.107887 32.500000
8.556803 -2.082763 2.186439 66.500000
8.572724 -1.972887 2.184030 71.333336
-9.220474 -1.864197 2.160721 75.000000
8.583543 -1.819819 2.178439 72.400002
8.593848 -1.667387 2.173428 70.000000
8.606123 -1.515955 2.169572 63.400002
-13.557669 -1.445316 2.137062 4.750000
-13.510319 -1.329467 2.127823 10.000000
8.620764 -1.365428 2.167002 65.166664
-13.468401 -1.197379 2.119358 22.333334
-13.374060 -1.203012 2.104699 26.000000
8.631066 -1.214561 2.163982 63.599998
-9.100959 -1.033685 2.103860 2.000000
8.644174 -1.064437 2.162344 68.833336
8.656037 -0.928126 2.161380 67.250000
8.665046 -0.860305 2.161862 69.000000
8.671924 -0.764791 2.161380 65.666664
8.683494 -0.614827 2.161283 63.200001
-13.400089 -0.570999 2.102221 8.000000
8.700923 -0.465122 2.163307 60.333332
8.709640 -0.314792 2.163789 60.000000
8.724736 -0.164472 2.166520 66.166664
8.738608 -0.013712 2.169572 67.000000
-12.561661 0.037272 2.194632 1.500000
8.751087 0.137490 2.172945 64.500000
8.765680 0.289285 2.177476 65.199997
-13.610939 0.425531 2.134429 3.500000
8.778667 0.427835 2.182102 62.000000
8.791875 0.580908 2.187564 72.833336
8.804667 0.727770 2.193427 70.250000
8.810540 0.763075 2.195596 69.000000
8.813232 0.847073 2.198166 68.000000
-13.474414 0.994226 2.117706 9.000000
8.492331 1.059312 2.124754 27.500000
8.679213 1.082591 2.171500 69.000000
-13.461093 1.291413 2.119564 9.000000
-13.338995 1.322001 2.100982 14.000000
-10.021642 1.474521 2.137973 8.200000
-10.107248 1.617118 2.160387 5.666667
-13.351938 1.791018 2.111512 0.000000
-10.206066 1.731723 2.184893 6.000000
-13.426514 1.886976 2.125139 0.000000
-10.034010 1.914091 2.155981 9.000000
8.920551 2.082489 2.104084 71.250000
-10.118219 2.111963 2.181588 7.000000
-10.004803 2.137545 2.159285 39.500000
-9.979338 2.181321 2.155981 2.000000
-8.522833 2.131309 2.181138 6.500000
-8.434072 2.165496 2.161861 17.500000
8.933500 2.219171 2.114337 72.400002
8.950296 2.373204 2.126873 71.199997
8.963698 2.528088 2.139230 75.000000
8.978903 2.685343 2.152662 73.400002
8.991220 2.828074 2.164974 73.250000
9.006012 2.973311 2.178451 68.599998
-10.618561 3.157373 2.135502 44.000000
-10.502678 3.194931 2.116195 69.500000
9.018589 3.135394 2.193136 66.400002
-10.452791 3.293835 2.112661 41.000000
-10.345207 3.445407 2.101935 58.000000
8.719209 3.436324 2.152662 27.000000
-10.344090 3.577995 2.109948 55.500000
-10.387016 3.684356 2.124523 64.000000
-10.436022 3.757270 2.138152 64.000000
-10.480953 3.829261 2.151023 0.000000
-10.609007 4.091531 2.191908 49.000000
6.992861 4.017839 2.155414 10.000000
9.113072 4.097489 2.108896 9.000000
-10.549992 4.148296 2.185283 56.000000
9.145055 4.216022 2.125417 15.000000
6.670088 4.366446 2.130627 20.000000
9.048334 4.327579 2.116950 59.500000
9.129895 4.490555 2.147445 66.333336
9.176704 4.633584 2.169748 60.666668
9.291780 4.642840 2.192327 20.000000
9.164406 4.760570 2.179661 67.333336
9.272002 4.742682 2.198109 11.000000
9.178037 4.902686 2.196182 67.000000
6.774704 5.136692 2.110779 12.000000
6.210312 5.354926 2.191561 31.000000
5.850204 5.545818 2.154381 34.000000
5.777282 5.616200 2.153348 2.000000
6.567539 5.735288 2.164753 5.000000
6.159645 5.811825 2.102586 42.250000
9.232448 5.859097 2.107866 1.500000
9.313188 5.848949 2.119980 9.000000
6.345621 5.940205 2.158006 46.000000
9.206666 5.931015 2.111147 51.666668
5.966958 6.023462 2.104996 67.000000
6.098166 6.079039 2.137766 43.000000
9.284742 6.057270 2.137016 15.500000
9.249889 6.138744 2.140045 2.000000
6.742973 6.241006 2.110397 31.799999
6.907475 6.305181 2.148185 20.000000
9.281300 6.243831 2.156323 15.000000
-11.907327 6.325910 2.113370 8.000000
6.599793 6.415778 2.114158 41.000000
9.334505 6.451568 2.187366 3.333333
6.446178 6.548238 2.110576 34.000000
7.199643 6.911449 2.106418 9.000000
7.278751 7.255920 2.169198 2.000000
-11.265330 7.678929 2.136907 14.000000
-11.110820 7.624839 2.112131 17.000000
6.391441 7.636060 2.101737 34.666668
6.493027 7.626454 2.114018 28.000000
6.741026 7.646198 2.151438 1.000000
9.335155 7.635320 2.106976 51.666668
6.313946 7.765294 2.112366 33.799999
6.424188 7.790391 2.131200 24.000000
6.703838 7.774698 2.166720 27.000000
6.741056 7.768379 2.170850 7.000000
9.367004 7.789155 2.128374 43.500000
9.400261 7.904545 2.145756 41.000000
6.068452 7.925636 2.106831 44.000000
6.165327 7.922563 2.118809 48.000000
6.616017 7.921093 2.178284 21.000000
9.420500 7.972219 2.156082 19.000000
6.345825 8.049641 2.163415 18.000000
9.420001 8.074026 2.167555 8.000000
-9.205326 8.190126 2.152640 0.000000
5.962049 8.219543 2.143177 15.000000
9.456454 8.208787 2.187748 17.000000
5.975519 8.361924 2.169198 31.000000
-8.540956 9.149447 2.186716 20.500000
-8.471733 9.307038 2.198763 19.500000
-9.879624 9.480844 2.146198 48.000000
-10.217277 9.561157 2.193272 4.000000
-10.078094 9.610662 2.182742 51.000000
-10.004560 9.783517 2.193272 19.000000
-9.844613 9.748864 2.171593 21.000000
-9.973778 9.814898 2.193272 21.000000
-9.841898 9.838411 2.181194 23.500000
-9.757861 9.846825 2.172832 31.000000
-9.608488 9.849579 2.156728 42.500000
-9.448688 9.839221 2.138146 32.000000
-9.337753 9.846824 2.126997 42.000000
7.200539 9.881648 2.136118 9.000000
-9.112142 10.010569 2.121732 25.000000
-9.029136 10.013804 2.113370 12.000000
9.574543 10.008743 2.170974 0.500000
-8.766922 10.228542 2.111512 16.000000
6.359694 10.345613 2.121661 38.500000
5.955640 10.483822 2.106517 12.000000
6.196417 10.444259 2.121662 40.000000
6.493372 10.415822 2.144379 32.000000
6.061676 10.516142 2.120629 23.500000
6.597293 10.508837 2.167785 49.000000
-8.707260 10.657169 2.157037 13.500000
-8.647286 10.789577 2.167257 12.500000
-17.265251 10.834673 2.107848 1.000000
-8.747692 10.810217 2.179645 22.000000
-8.606220 10.877845 2.174071 14.000000
-8.503695 10.852968 2.161063 12.000000
6.277205 10.889988 2.196009 9.000000
-18.058142 11.096417 2.191783 0.000000
-17.795593 11.089709 2.168330 2.000000
-17.673498 11.246259 2.166273 2.000000
-10.783712 11.264812 2.165288 20.500000
4.257242 11.272344 2.105140 45.500000
4.334558 11.230995 2.103212 44.000000
-10.681112 11.370298 2.166113 28.000000
4.245301 11.403085 2.125792 51.000000
5.049035 11.523874 2.198074 40.000000
3.812426 11.678000 2.146215 5.333333
4.077991 11.678019 2.161073 43.750000
6.672561 11.702927 2.111512 25.000000
9.717880 11.638956 2.105325 0.000000
3.988533 11.716239 2.162277 18.000000
4.193324 11.711499 2.173292 41.000000
4.337594 11.763884 2.190502 45.000000
6.806556 11.808331 2.136288 0.000000
6.881320 11.851822 2.148056 116.000000
9.700775 11.996575 2.142183 2.000000
-8.840358 12.284555 2.101474 19.000000
2.200568 12.279423 2.179487 44.000000
1.996866 12.370055 2.189125 33.500000
5.159046 12.406017 2.105937 3.000000
-8.674185 12.461970 2.108258 31.333334
9.782228 12.413154 2.194445 10.000000
-8.870353 12.574528 2.136682 13.000000
-8.657807 12.606618 2.123479 15.000000
-8.535553 12.512653 2.103124 36.000000
4.979603 12.525915 2.112751 60.000000
5.093797 12.582292 2.127616 11.000000
-8.182683 12.755624 2.104224 19.000000
-8.617605 12.892285 2.153185 15.000000
-8.531621 12.894726 2.146859 46.000000
-8.066314 12.838889 2.105325 14.000000
3.739517 12.905063 2.105937 28.666666
-8.508742 12.992816 2.156486 3.000000
3.474783 13.032022 2.113990 109.000000
3.895014 13.032324 2.131952 62.000000
-8.225174 13.183500 2.157586 3.000000
-8.065504 13.202862 2.148234 6.666667
2.491674 13.186813 2.103460 67.000000
-8.271358 13.350729 2.180691 9.000000
2.042961 13.319715 2.112131 43.000000
7.104411 13.372713 2.102574 3.000000
-8.071568 13.449337 2.177941 20.000000
1.419466 13.460114 2.121422 19.000000
1.657827 13.482593 2.129165 37.000000
1.766506 13.490722 2.132571 35.000000
7.213701 13.476077 2.122378 0.000000
-8.054653 13.565583 2.190594 36.000000
1.537451 13.557434 2.138610 24.750000
1.735132 13.582441 2.146198 27.000000
3.274498 13.555856 2.185839 58.000000
1.847886 13.613409 2.153321 33.500000
1.917772 13.645658 2.159825 43.000000
3.333048 13.610752 2.196369 25.000000
1.422207 13.904807 2.190794 34.000000
-10.498432 13.926831 2.112086 1.000000
5.335413 14.803553 2.184909 27.333334
9.973259 14.937321 2.175083 32.000000
2.111871 15.026745 2.106975 0.000000
-19.754011 15.361480 2.148826 1.000000
-19.691544 15.512415 2.152590 12.000000
1.791065 15.574949 2.176841 4.000000
1.225959 15.611683 2.174365 0.000000
1.511561 15.755809 2.197745 2.000000
1.707718 15.719814 2.195545 6.000000
10.223916 17.744085 2.117723 37.000000
10.233315 17.890087 2.131300 40.000000
10.249754 18.050163 2.146524 22.000000
10.267241 18.213985 2.162159 22.000000
10.279915 18.371147 2.176971 20.000000
-9.072829 18.430307 2.124305 8.000000
-8.968099 18.460829 2.122386 17.000000
-8.830273 18.571217 2.126500 16.666666
-8.548465 18.526043 2.109905 8.000000
10.229047 18.580425 2.193347 48.200001
-8.983183 18.690714 2.144467 10.000000
-7.994710 18.698114 2.102910 1.000000
10.107123 18.607260 2.189726 19.000000
-9.615458 18.928528 2.195486 16.000000
-11.438675 21.667864 2.103994 38.000000
-11.047038 28.793526 2.108948 2.000000
-10.943757 28.794516 2.106492 1.000000
-11.172023 28.847992 2.115497 3.000000
-10.798126 28.819576 2.104581 3.000000
-10.687104 28.937557 2.109494 2.000000
-10.646866 29.109657 2.119591 1.000000
-12.594683 -31.125999 2.296155 6.000000
-12.112643 -31.051302 2.279236 3.000000
-11.390144 -31.057968 2.262179 16.000000
-12.668393 -30.751068 2.274323 12.000000
-14.921114 -29.423855 2.256039 6.000000
-15.118714 -29.129612 2.244305 14.000000
-15.023472 -29.169870 2.243759 4.000000
-16.749336 -28.446085 2.257404 4.000000
-16.595434 -28.388315 2.248671 2.000000
-16.192413 -28.307905 2.230114 3.000000
-17.635918 -28.103168 2.268865 10.000000
-18.707321 -27.454777 2.271867 6.000000
-17.777321 -27.364222 2.231478 7.000000
-13.433331 -22.651318 2.261417 15.000000
-13.451293 -22.520046 2.252520 57.000000
-13.499378 -22.440111 2.248755 50.000000
-13.107713 -22.422184 2.230275 6.000000
-13.834820 -22.356819 2.257653 38.000000
-13.574605 -22.352697 2.245675 42.333332
-13.678968 -22.260956 2.243622 51.000000
14.003467 -21.720751 2.219210 8.333333
14.127645 -21.713163 2.224457 6.000000
-8.603564 -19.986860 2.250209 103.000000
-8.582329 -19.766304 2.228402 174.000000
-8.559793 -19.546080 2.206595 155.000000
-17.403645 -19.321924 2.233013 3.000000
-12.845703 -17.519325 2.246505 0.000000
-12.860508 -17.424463 2.239511 11.000000
-13.283555 -17.305214 2.255969 25.000000
-12.990544 -17.257931 2.233751 16.500000
-13.531972 -17.177557 2.261318 2.000000
-13.362740 -17.128189 2.246506 9.500000
-15.707884 -14.530391 2.212767 0.000000
-12.513413 -13.980754 2.272224 18.000000
-2.429953 -11.461543 2.258536 1.000000
-2.543894 -11.380441 2.247936 5.500000
-1.507820 -11.361366 2.209322 14.000000
-1.378106 -11.338278 2.201751 10.000000
-3.520075 -11.253220 2.272922 3.000000
-1.915938 -11.291752 2.207808 3.000000
-4.222755 -11.122332 2.293365 13.000000
-3.526122 -11.028859 2.232037 4.000000
-3.341295 -10.922064 2.201751 39.000000
-1.220711 -10.598890 2.251802 0.000000
-2.792517 -10.532030 2.299713 11.000000
-2.233839 -10.536518 2.273280 6.000000
-2.031151 -10.557534 2.269149 28.000000
-1.298234 -10.542341 2.241890 9.000000
-1.238820 -10.466743 2.224543 1.000000
-2.710848 -10.355227 2.259237 47.000000
-1.688370 -10.344213 2.212152 75.000000
7.817535 -10.306688 2.260031 46.000000
-3.006906 -10.289478 2.262541 42.000000
7.854102 -10.220882 2.251999 15.000000
-3.550590 -10.110601 2.261715 7.000000
7.557587 -10.144660 2.210121 188.500000
7.680778 -10.192736 2.229741 49.000000
7.934330 -10.192093 2.256589 1.000000
-3.726868 -10.005206 2.253454 2.000000
-3.466551 -10.073483 2.248498 32.333332
-2.912663 -10.084549 2.215456 3.000000
-3.683225 -9.983818 2.246020 46.000000
-1.393405 -9.902050 2.296829 38.000000
-1.173395 -9.913481 2.292949 28.333334
-3.689398 -9.810284 2.212152 9.000000
-3.552368 -9.876436 2.215291 16.000000
-1.484997 -9.824505 2.282279 22.000000
-3.920264 -9.766738 2.221239 9.000000
-2.290301 -9.741800 2.298620 70.000000
-1.746352 -9.735053 2.271757 19.000000
-1.621248 -9.738686 2.267727 31.500000
-1.471902 -9.652813 2.242804 13.333333
-2.222713 -9.589440 2.261012 15.000000
-1.764736 -9.493919 2.218030 80.000000
-2.539564 -9.457973 2.249371 21.000000
-1.904372 -9.419175 2.207284 1.000000
-2.625662 -9.310244 2.221910 25.666666
-2.465208 -9.376875 2.226985 45.333332
-7.978224 -7.328647 2.286496 0.000000
-7.918075 -6.849174 2.209674 7.000000
8.143677 -6.715517 2.227847 0.000000
8.161884 -6.623621 2.218554 54.000000
8.172730 -6.505567 2.204718 55.000000
6.151862 -6.428573 2.209089 8.000000
5.605751 -6.338390 2.261446 9.666667
5.748537 -6.357551 2.290708 11.250000
6.197817 -6.364118 2.205509 12.714286
8.263775 -5.578269 2.290114 57.000000
8.274893 -5.417124 2.271757 58.400002
8.290626 -5.261470 2.255415 61.750000
8.298033 -5.121039 2.239745 70.000000
8.311829 -4.968726 2.224298 69.199997
8.322241 -4.816543 2.208628 73.500000
8.331084 -4.734638 2.201016 70.000000
-10.454412 -4.631615 2.204212 13.750000
-10.482404 -4.555705 2.203265 0.000000
-10.765129 -4.067853 2.218408 18.250000
-8.774454 -4.078551 2.222507 7.000000
-8.801320 -3.858013 2.207284 14.000000
-11.124026 -3.789097 2.265351 0.000000
-8.820536 -3.784158 2.204598 20.750000
8.415918 -3.768190 2.289328 62.750000
-10.224810 -3.626820 2.289800 1.000000
8.425343 -3.630343 2.277714 62.000000
-10.092002 -3.472985 2.252628 7.000000
8.435394 -3.478596 2.265377 67.599998
8.452155 -3.331146 2.255545 65.400002
-10.154983 -3.141551 2.243542 9.000000
-10.023641 -3.187374 2.220000 37.750000
8.465861 -3.168706 2.244269 66.333336
-10.222852 -3.057285 2.252078 8.333333
-9.174990 -3.061009 2.221612 24.000000
8.478052 -3.007279 2.233377 58.400002
8.496284 -2.864315 2.226052 49.200001
-11.153467 -2.770537 2.215379 32.000000
-10.179745 -2.716143 2.223717 4.000000
8.504827 -2.763389 2.220173 46.500000
-10.296208 -2.626387 2.242716 0.000000
-10.276134 -2.672888 2.241064 15.500000
8.510824 -2.691642 2.216157 59.666668
8.518153 -2.576683 2.209475 73.199997
-10.561049 -2.482905 2.289800 92.000000
-10.484870 -2.395576 2.269975 93.000000
-10.301928 -2.456168 2.235281 97.000000
-10.200274 -2.409127 2.212152 42.666668
8.527084 -2.448341 2.202583 71.250000
-10.474522 -2.186334 2.258411 84.000000
-9.608996 -2.100370 2.259221 53.000000
-9.537436 -2.006400 2.238625 89.500000
-10.394657 -1.965972 2.232803 8.000000
-10.312281 -1.916853 2.213804 10.000000
-9.470540 -1.976742 2.222209 45.333332
-10.444208 -1.862245 2.239136 26.000000
-10.352903 -1.890777 2.221239 26.000000
-12.741796 -1.226959 2.236396 25.000000
-12.692607 -1.101548 2.225840 19.333334
-9.012796 -1.167397 2.256317 13.000000
-12.568399 -1.011228 2.202893 11.000000
-9.044344 -1.072867 2.261216 25.083334
-9.015473 -0.980987 2.251498 11.000000
-12.956283 -0.837844 2.268292 48.000000
-12.808699 -0.888930 2.243165 13.000000
-8.894478 -0.826683 2.217763 4.000000
-8.880244 -0.853505 2.214872 2.000000
-12.956038 -0.633655 2.266227 3.000000
-12.872257 -0.568854 2.251081 27.000000
-12.888117 -0.468110 2.253147 29.666666
-12.979042 -0.328592 2.268292 35.500000
-12.890543 -0.326277 2.252802 38.000000
-13.021612 -0.165847 2.275176 33.000000
-13.101398 -0.064028 2.288944 24.000000
-13.046371 -0.022769 2.279306 20.000000
-12.663806 0.097253 2.212531 0.000000
-12.620097 0.136566 2.204958 9.000000
-12.831737 0.219497 2.242132 28.000000
-12.816491 0.662715 2.242132 20.000000
-12.747460 0.699304 2.230429 4.000000
8.824301 0.960221 2.203788 68.875000
-12.927837 1.199281 2.268292 7.000000
8.850410 1.202941 2.217523 71.250000
-13.014101 1.207156 2.283437 32.000000
-12.990118 1.369899 2.282060 28.000000
8.857245 1.331674 2.223739 68.599998
8.872000 1.476745 2.232992 65.599998
-13.060997 1.626879 2.299499 15.333333
8.884371 1.622616 2.242245 70.199997
8.901191 1.770612 2.253232 70.199997
8.912506 1.918882 2.263449 69.800003
8.926650 2.069149 2.275015 71.400002
-10.641012 2.134029 2.290627 9.500000
-10.581016 2.173897 2.279888 29.000000
-8.658646 2.107557 2.212462 19.000000
-8.298537 2.144603 2.290708 18.000000
8.942780 2.221466 2.287737 70.199997
-10.282591 2.349401 2.226195 12.500000
8.956136 2.359655 2.299448 72.250000
-9.414306 2.826171 2.257728 70.333336
-8.406525 3.026544 2.218246 4.500000
9.032208 3.283945 2.207508 70.000000
-10.367588 3.332678 2.298474 75.000000
-10.332883 3.429294 2.297854 60.500000
9.050252 3.436174 2.223582 68.800003
-18.201130 3.613827 2.247217 3.000000
8.986900 3.607245 2.224298 62.000000
9.073169 3.701609 2.250803 66.400002
-18.049637 3.760904 2.232790 19.000000
-18.051811 3.879864 2.236037 12.000000
9.093957 3.903918 2.273164 57.571430
9.173522 3.850543 2.285189 22.000000
-17.903103 4.024790 2.222211 3.000000
-17.878757 4.078362 2.220768 1.000000
-10.668972 4.282410 2.216137 23.000000
-10.702789 4.335078 2.225980 7.000000
6.980252 4.792015 2.262823 12.000000
9.179249 4.952855 2.201414 69.000000
9.305140 4.908119 2.220412 19.000000
9.251974 5.048573 2.224543 26.500000
9.335175 5.189477 2.254281 10.000000
9.297981 5.459618 2.275758 28.750000
-7.957329 5.511970 2.223403 22.000000
9.271761 5.681991 2.295170 23.500000
-7.969783 5.714227 2.252505 1.500000
5.969552 5.839697 2.231839 68.000000
6.457114 6.095539 2.204591 22.666666
6.378037 6.438581 2.250052 44.500000
6.580161 6.416798 2.281858 39.000000
6.154010 6.594791 2.239450 23.000000
6.366966 6.582540 2.273665 30.000000
9.374388 6.610536 2.211215 3.000000
5.895738 6.772716 2.229329 31.500000
5.990931 6.731229 2.237233 29.200001
6.206759 6.756585 2.277842 27.333334
9.379627 6.882463 2.242636 4.000000
5.977845 6.932735 2.272702 53.000000
6.782702 6.933527 2.227880 47.000000
9.421145 6.958565 2.257779 18.000000
6.828822 7.024685 2.250266 32.000000
9.399065 7.080132 2.268379 3.000000
6.777795 7.240376 2.278025 0.000000
9.454308 7.215300 2.292607 13.000000
6.201500 7.330695 2.205494 25.000000
6.306373 7.502337 2.251162 21.000000
6.501982 7.540597 2.286980 1.000000
6.060028 7.613190 2.235044 19.500000
5.747534 7.798573 2.225194 23.000000
5.940301 7.834573 2.258325 29.000000
6.040154 7.812087 2.268175 26.333334
6.198352 7.811890 2.290561 23.333334
5.780094 7.929394 2.253848 33.000000
5.908802 7.921658 2.269966 25.500000
6.016521 7.987092 2.296829 60.000000
9.471462 8.353172 2.206335 2.500000
9.534162 8.596658 2.242821 1.000000
6.077324 8.647131 2.230738 6.500000
6.134992 8.642351 2.236933 8.000000
9.557665 8.699806 2.257966 7.000000
7.582393 8.906130 2.254751 0.000000
9.553722 8.890304 2.279994 5.000000
7.245740 9.132022 2.247179 16.000000
-8.538550 9.272579 2.202205 16.333334
-10.536880 9.675591 2.242204 3.000000
-10.269754 9.701463 2.214331 10.000000
-8.149809 10.071365 2.263473 33.000000
-8.015334 10.098346 2.252458 14.000000
6.301862 10.104699 2.295636 32.000000
-9.973656 10.128026 2.227958 25.000000
-8.142820 10.127625 2.270357 28.000000
-8.038611 10.127579 2.258998 29.000000
-7.983318 10.188830 2.261408 23.000000
6.080056 10.171117 2.284279 43.000000
7.793159 10.248489 2.249361 2.500000
9.593559 10.251900 2.200705 0.000000
-8.045111 10.367971 2.292730 10.500000
7.185112 10.399872 2.208400 3.000000
-12.058284 10.459952 2.216449 13.000000
7.056058 10.492609 2.209089 53.000000
9.611444 10.467023 2.227339 4.000000
-12.019111 10.559046 2.221401 13.000000
-9.978900 10.589351 2.280606 27.000000
6.940346 10.606014 2.214458 33.000000
7.195854 10.568459 2.233757 37.333336
6.794282 10.648341 2.206794 51.000000
7.034684 10.628379 2.226758 65.000000
9.662284 10.656015 2.254592 16.000000
6.849397 10.759686 2.228364 40.000000
9.688992 10.798653 2.273999 50.000000
9.703272 10.906033 2.288039 50.000000
9.716077 10.989755 2.299188 48.000000
6.184134 11.047088 2.211843 17.000000
7.156631 11.011827 2.294451 30.000000
6.280746 11.137435 2.233871 36.000000
6.571547 11.156272 2.262096 57.000000
-11.522642 11.410572 2.251657 9.000000
-8.771911 11.489797 2.265741 11.000000
5.451698 11.463596 2.217743 23.928572
5.804589 11.441471 2.241444 27.000000
5.838711 11.419670 2.240756 0.000000
-8.716381 11.541864 2.266980 16.666666
5.060053 11.573778 2.206851 35.500000
5.620658 11.570169 2.247295 30.500000
5.725154 11.523151 2.247984 30.666666
-11.485055 11.699551 2.276413 11.500000
-11.241417 11.632694 2.246156 94.000000
-8.702894 11.663166 2.280916 17.000000
6.039993 11.677252 2.296860 2.500000
-11.612597 11.718472 2.290716 20.000000
-11.501639 11.827395 2.290716 32.000000
-8.700911 11.814669 2.299808 1.000000
5.309256 11.813569 2.262784 36.000000
4.349270 11.910699 2.215285 44.000000
-11.195595 12.031042 2.281914 2.000000
-10.567146 12.096292 2.230203 2.000000
-10.738707 12.137909 2.250282 0.500000
3.747606 12.155704 2.222341 25.500000
2.339610 12.382035 2.201516 12.000000
2.638968 12.361983 2.208400 24.000000
2.071295 12.457697 2.206335 0.000000
2.389654 12.432667 2.211843 23.000000
2.577084 12.455519 2.222168 35.000000
9.784705 12.496856 2.203797 4.000000
1.731148 12.604962 2.222857 43.000000
1.960459 12.605886 2.228823 31.666666
2.267602 12.597552 2.236281 26.750000
2.477569 12.570087 2.238346 43.500000
2.540269 12.575673 2.241444 45.000000
7.041419 12.547593 2.255211 40.666668
9.784321 12.577569 2.212599 37.000000
2.165563 12.655564 2.243165 42.500000
1.673977 12.783539 2.252458 34.333332
1.881950 12.806401 2.261408 50.000000
3.068694 12.791799 2.298237 53.000000
9.802259 12.723989 2.230203 16.000000
1.933876 12.878357 2.275176 41.000000
9.818061 12.911467 2.252208 22.000000
1.293696 13.053365 2.291698 32.000000
1.346514 13.029522 2.288485 23.333334
1.461563 13.071321 2.297893 32.000000
9.870661 13.194385 2.287966 0.000000
5.776814 13.298454 2.272554 20.000000
9.855158 13.260307 2.294017 44.000000
5.889017 13.326900 2.283703 9.333333
-8.058275 13.669319 2.203247 19.000000
-8.022233 13.739444 2.209115 16.666666
4.266289 13.799203 2.263883 5.000000
-12.183765 13.853848 2.234233 18.000000
3.294170 13.827479 2.227958 28.000000
-12.156363 13.999089 2.245294 19.000000
4.501298 13.936287 2.295472 11.000000
-12.244700 14.011663 2.253469 15.000000
-12.091564 14.013162 2.241446 17.000000
-11.719710 14.021595 2.213074 16.000000
2.972668 14.033472 2.248398 3.000000
3.305841 14.072429 2.265741 36.000000
4.235534 14.011088 2.294233 37.000000
-11.475537 14.176172 2.208746 2.000000
1.267468 14.145930 2.226100 12.000000
1.402681 14.153020 2.229197 13.000000
3.283014 14.175140 2.280606 41.000000
-11.822756 14.235522 2.240966 3.000000
2.467864 14.287411 2.272554 12.000000
-11.455658 14.334849 2.222211 3.000000
0.944101 14.327604 2.250566 0.000000
1.147976 14.330570 2.253353 4.000000
1.375948 14.342240 2.258308 13.000000
-12.157364 14.452683 2.287132 2.000000
-11.803443 14.487929 2.263087 1.000000
1.248203 14.441187 2.271935 11.000000
1.343295 14.480277 2.279367 12.000000
5.312582 14.985642 2.207648 19.000000
5.290407 15.073287 2.218100 57.000000
5.529683 15.143318 2.238455 2.000000
-10.278918 15.267851 2.228943 5.000000
10.008113 15.299828 2.214036 8.000000
-10.057323 15.457376 2.233271 8.000000
10.014082 15.414443 2.226058 1.000000
10.045263 15.569288 2.243851 2.000000
-10.088459 15.612299 2.251064 22.000000
-10.120863 15.770911 2.269338 7.000000
1.439631 15.788383 2.201321 1.000000
1.344970 15.850410 2.208748 0.000000
1.623025 15.868185 2.214799 2.000000
10.074661 15.887493 2.278235 3.500000
-9.620178 16.023323 2.263327 8.500000
3.723296 16.076155 2.291266 7.000000
-9.856520 16.128571 2.289055 88.000000
-10.596433 18.562414 2.210298 20.500000
-10.493180 18.584463 2.207007 43.000000
-9.716575 18.979687 2.204949 5.000000
10.233654 18.982140 2.230048 9.000000
10.363558 19.368521 2.271604 33.000000
10.381035 19.548571 2.288885 44.000000
-9.234325 19.848289 2.263786 7.000000
-9.173595 19.880814 2.264198 3.000000
-18.271101 -28.318617 2.304615 1.000000
4.091716 -27.345789 2.374352 52.333332
4.214130 -27.379644 2.378800 1.000000
13.198989 -24.441593 2.385303 4.000000
13.588397 -24.423557 2.400018 19.000000
-12.390791 -24.245026 2.338076 29.000000
-12.580441 -24.177086 2.340357 18.333334
-12.866255 -24.045824 2.341840 6.000000
-12.740698 -24.083244 2.339616 17.500000
13.096663 -24.070942 2.353133 5.000000
13.224528 -23.946312 2.349027 3.000000
14.062227 -23.844368 2.377089 18.000000
-13.401523 -23.600538 2.330547 18.000000
13.421936 -23.598104 2.331231 13.000000
-13.083663 -23.381699 2.300773 5.000000
13.179220 -23.341703 2.301800 2.000000
13.768682 -23.179886 2.315147 28.000000
13.928452 -23.116810 2.317542 8.000000
15.244705 -23.111031 2.377431 4.000000
14.661338 -23.004829 2.342525 6.000000
15.785486 -22.822664 2.382907 1.000000
14.831326 -22.638762 2.324044 12.000000
15.633930 -22.452444 2.349369 2.000000
15.309405 -22.134348 2.311040 1.000000
15.586272 -22.086761 2.321307 5.000000
-14.453645 -18.112251 2.396273 26.000000
-14.386785 -18.145100 2.394627 1.000000
-11.191243 -16.313839 2.395813 6.000000
-11.059438 -16.230780 2.378501 5.000000
-11.339162 -16.145878 2.389321 9.000000
-11.563492 -16.086378 2.399180 6.000000
-11.342722 -15.990292 2.374173 27.000000
-11.604228 -15.826167 2.376578 24.000000
-11.531264 -15.623495 2.351571 9.000000
-11.549504 -15.545753 2.345320 29.000000
-11.576883 -15.480772 2.340991 18.000000
-11.659535 -15.388735 2.338106 29.000000
-11.498890 -15.276176 2.315504 16.000000
-13.418783 -14.254611 2.370807 2.000000
-14.006360 -13.455101 2.352052 5.000000
-14.089960 -13.324190 2.348445 6.500000
-14.159845 -13.264460 2.349648 1.000000
-2.497462 -11.965103 2.356207 6.000000
-3.318874 -11.767841 2.356964 2.000000
-2.800109 -11.744533 2.327436 1.000000
-1.432763 -11.199974 2.383144 3.000000
-1.715549 -11.172037 2.385622 12.000000
-2.629968 -10.954512 2.377774 14.500000
-2.577851 -10.964897 2.377361 27.000000
-1.820458 -10.937261 2.340189 18.000000
-2.795817 -10.818407 2.358362 2.000000
-1.980075 -10.841866 2.326147 0.000000
-2.636360 -10.757653 2.337711 5.000000
-3.961846 -10.636033 2.395535 2.000000
-3.856102 -10.658178 2.392230 38.000000
-2.723121 -10.675445 2.325320 9.000000
-0.997338 -10.376725 2.394433 15.000000
6.941852 -10.268921 2.389413 37.714287
-2.361405 -10.115417 2.385927 24.000000
-1.134172 -10.127323 2.340707 49.000000
7.237797 -10.094704 2.394442 255.000000
-2.545432 -10.044652 2.380106 50.000000
-1.264749 -10.011641 2.317873 15.500000
6.952492 -10.059369 2.357216 188.333328
7.100596 -10.069338 2.375135 255.000000
-1.615205 -9.895948 2.303098 34.000000
-1.336133 -9.947932 2.305485 26.333334
-1.083795 -9.960310 2.301307 1.000000
-3.163948 -9.842737 2.374734 16.500000
-2.973356 -9.885696 2.371152 28.500000
-3.441921 -9.703534 2.364884 4.000000
-2.659687 -9.722279 2.315186 19.000000
-3.377376 -9.682146 2.355332 42.333332
-3.259021 -9.617321 2.332424 13.250000
-1.504854 -9.501509 2.388361 18.500000
-3.736707 -9.423522 2.328469 26.666666
-1.871457 -9.408455 2.381614 6.000000
-3.769891 -9.392106 2.324589 7.000000
-2.438232 -9.313857 2.390288 21.000000
-1.739246 -9.357366 2.362980 8.666667
-2.315279 -9.197130 2.354627 0.000000
-1.817294 -9.288561 2.349808 24.000000
-2.677876 -9.136526 2.363783 11.250000
-2.336486 -9.159718 2.346916 18.000000
-1.718730 -9.192782 2.321857 8.666667
8.648621 -8.662201 2.359614 36.250000
8.722642 -8.640820 2.366807 16.000000
-8.368660 -7.102247 2.316647 6.500000
-7.936419 -6.607692 2.372047 17.000000
-7.659496 -6.527945 2.311604 25.166668
-7.720186 -6.489492 2.316530 17.000000
6.179249 -6.436911 2.384691 0.000000
8.178617 -6.468458 2.395105 51.750000
5.884545 -6.345660 2.312913 9.500000
6.006426 -6.356016 2.337183 3.000000
6.195634 -6.361876 2.373330 13.714286
8.195181 -6.315795 2.376524 57.250000
8.207352 -6.222947 2.365779 53.000000
8.212939 -6.146361 2.356228 59.666668
8.221510 -6.012922 2.339587 64.000000
8.235291 -5.865602 2.322350 66.500000
8.245887 -5.718322 2.304889 70.250000
8.334703 -4.806297 2.388682 69.333336
8.335665 -4.668294 2.371976 69.000000
-10.248318 -4.569276 2.368275 26.000000
8.350527 -4.522696 2.357759 67.250000
8.354152 -4.440111 2.348844 67.000000
8.365456 -4.362263 2.342338 69.000000
8.376842 -4.218684 2.328604 63.599998
-10.440879 -4.152820 2.371579 0.000000
-10.475790 -4.071868 2.372199 9.500000
8.388957 -4.060882 2.313953 58.400002
-10.346293 -3.909586 2.334407 2.500000
8.405238 -3.907013 2.301231 71.199997
-10.347208 -3.597203 2.312104 0.000000
-8.800426 -3.442803 2.346145 25.200001
-8.993606 -3.094991 2.361374 0.000000
-9.031988 -3.060639 2.367638 32.000000
8.493277 -2.863291 2.395432 55.000000
8.504612 -2.728962 2.387101 58.000000
8.510628 -2.706278 2.386757 54.000000
-9.915781 -2.545922 2.351452 36.000000
8.516147 -2.576070 2.377875 71.199997
8.533688 -2.421280 2.370749 69.833336
-10.908341 -2.366446 2.355884 65.000000
-10.888758 -2.308516 2.349276 64.000000
-10.151257 -2.319352 2.391747 44.000000
-11.097318 -2.207395 2.388100 21.000000
-10.973119 -2.242476 2.363869 63.666668
-8.587092 -2.247975 2.372298 7.000000
8.544037 -2.265438 2.362383 72.800003
-10.843015 -2.121417 2.331929 63.000000
-8.547155 -2.123125 2.353708 35.000000
8.553062 -2.124632 2.355360 72.199997
-9.330916 -2.070325 2.372939 38.000000
-8.519659 -2.052451 2.342089 38.250000
8.564352 -2.013490 2.351298 73.666664
8.574151 -1.930704 2.348888 69.000000
8.582806 -1.819665 2.344826 67.800003
-9.396877 -1.746697 2.372939 1.000000
-9.513309 -1.624422 2.396071 4.666667
-9.402558 -1.686605 2.371654 19.000000
8.596868 -1.667969 2.340454 70.333336
8.611630 -1.516930 2.336977 70.400002
8.627098 -1.366429 2.334429 70.833336
8.640533 -1.215891 2.332019 66.000000
-11.286633 -1.120590 2.393882 1.000000
8.650622 -1.065250 2.329437 63.333332
8.661083 -0.914908 2.327630 67.250000
-13.298328 -0.797103 2.327494 20.500000
8.673281 -0.764927 2.327028 69.166664
8.688457 -0.615159 2.327888 69.800003
8.702893 -0.465241 2.329265 69.333336
8.716108 -0.315021 2.330986 70.400002
8.729226 -0.164539 2.333396 69.166664
8.740337 -0.013715 2.335944 70.800003
8.752882 0.137519 2.339593 67.333336
8.766490 0.289307 2.344206 66.400002
8.775861 0.400044 2.347855 62.333332
8.782757 0.469508 2.350609 71.000000
-13.181404 0.577994 2.305121 52.250000
8.792755 0.580962 2.355085 68.666664
-13.594880 0.788635 2.379125 0.000000
8.803522 0.716073 2.360593 64.666664
8.810586 0.763085 2.363519 66.000000
-13.533341 0.827737 2.368799 1.000000
-13.324097 0.888510 2.333002 19.000000
8.804970 0.846271 2.364035 67.000000
8.823589 0.883091 2.369974 64.500000
-13.536642 1.063011 2.372241 7.500000
8.834340 1.031591 2.377117 68.166664
-13.304132 1.149924 2.333002 31.000000
8.847920 1.188471 2.385930 68.199997
-13.253069 1.355547 2.327494 9.000000
8.859495 1.332017 2.394399 68.599998
-13.393147 1.454964 2.353654 12.000000
-13.357183 1.493527 2.348146 1.000000
-13.182101 1.726092 2.322675 0.000000
-9.857697 1.855034 2.303993 17.333334
-8.468396 2.103562 2.332019 0.000000
-8.585631 2.170910 2.366790 18.000000
8.960803 2.436276 2.305472 71.000000
8.969469 2.529726 2.313761 73.800003
8.982927 2.686547 2.327832 72.400002
-8.179974 2.757662 2.307060 1.166667
8.993344 2.828747 2.340651 72.750000
-8.372916 2.981770 2.375396 19.000000
8.998629 2.908212 2.347880 65.000000
9.012284 2.991050 2.357518 66.750000
-19.139128 3.147826 2.348926 2.500000
-10.601582 3.206864 2.337711 33.000000
9.020391 3.136023 2.371012 67.199997
-10.761591 3.218400 2.370753 9.000000
-10.437304 3.300887 2.310452 61.000000
9.037224 3.285767 2.387397 67.250000
-10.316702 3.568502 2.304050 63.000000
-10.342577 3.686922 2.317473 65.000000
-10.418958 3.769554 2.338537 53.000000
-18.973801 3.860259 2.344839 8.000000
-10.436474 3.813010 2.345145 18.000000
9.190505 4.028611 2.304888 44.000000
9.214326 4.177894 2.323872 13.800000
-10.299342 4.272419 2.353406 45.000000
-10.245271 4.300403 2.345145 61.000000
-10.219629 4.355902 2.344733 33.250000
9.158952 4.334443 2.327454 53.400002
-18.928204 4.474445 2.355418 11.000000
9.143274 4.461485 2.336826 68.333336
9.256526 4.409188 2.355034 11.000000
9.273448 4.597329 2.377420 34.000000
-18.762259 4.653619 2.340991 17.000000
-8.299517 4.613761 2.357518 26.000000
9.158702 4.630484 2.357272 67.500000
