# This PCD file was generated using the MATLAB® pcwrite function
# from Computer Vision Toolbox®.
# .PCD v.7 - Point Cloud Data file format
VERSION .7
FIELDS x y z intensity
SIZE 4 4 4 4
TYPE F F F F
COUNT 1 1 1 1
WIDTH 1217
HEIGHT 1
VIEWPOINT 0 0 0 1 0 0 0
POINTS 1217
DATA ascii
13.966269 -19.666981 3.780777 2.000000
14.731306 -19.170485 3.789448 43.000000
15.417554 -18.689692 3.797501 12.000000
15.428258 -18.465088 3.771486 6.000000
15.070675 -18.386562 3.726270 3.000000
15.955975 -17.921186 3.760957 6.000000
15.779147 -17.835077 3.732464 3.000000
17.280178 -17.004913 3.799978 10.000000
16.542006 -16.903942 3.707069 3.000000
17.040030 -16.927391 3.764673 1.500000
16.734119 -16.886686 3.726270 1.000000
17.270100 -16.573008 3.751666 3.000000
17.350679 -16.545942 3.757859 32.000000
17.322260 -16.415241 3.740516 11.000000
17.774542 -16.219009 3.771486 0.000000
17.403851 -16.183981 3.725032 13.000000
-15.597377 -11.294764 3.712237 18.000000
-13.724802 -11.173740 3.735382 35.000000
-15.857029 -10.996264 3.719809 13.500000
-15.987356 -10.938614 3.734194 14.000000
-12.789726 -10.279533 3.768950 20.000000
-14.940308 -9.847579 3.776684 6.000000
-14.863644 -9.864166 3.765119 36.000000
-13.118529 -9.817483 3.763577 14.000000
-15.058756 -9.723320 3.783292 6.000000
-15.122540 -9.663814 3.787836 3.500000
-13.206785 -9.658829 3.758204 23.000000
-13.534440 -9.063946 3.741489 20.000000
-13.627436 -8.982125 3.748892 27.400000
-13.740573 -8.851813 3.754324 17.666666
-13.686600 -8.837330 3.742086 7.000000
-15.506312 -8.748058 3.757685 7.000000
-15.461740 -8.787057 3.753555 36.000000
-13.771994 -8.740051 3.746563 4.500000
-15.430441 -8.514549 3.719687 22.000000
-14.080978 -8.537825 3.782381 66.000000
-13.756737 -8.539479 3.719103 23.333334
-13.657912 -8.577561 3.704477 13.000000
-15.385033 -8.426546 3.702340 18.000000
-13.764713 -8.464799 3.711641 33.000000
-15.529987 -8.348100 3.721339 3.000000
-13.937395 -8.390998 3.736713 9.000000
-15.876356 -8.026655 3.754794 8.500000
-13.690488 -6.733589 3.787836 8.000000
-13.694090 -6.628829 3.777234 15.000000
-14.907690 -6.590624 3.743877 0.000000
-14.769412 -6.585033 3.714327 22.000000
-13.735844 -6.595861 3.783017 1.000000
-14.860566 -6.458468 3.721789 12.666667
-14.817247 -6.329263 3.700895 5.000000
-14.877277 -6.217185 3.703582 18.500000
-14.998995 -6.157638 3.724177 21.000000
-15.038731 -6.036382 3.722162 18.250000
-15.183422 -5.874025 3.739400 1.000000
-19.176708 1.964809 3.716023 6.000000
-19.178926 2.056426 3.718294 9.500000
-15.274205 5.310073 3.714327 8.000000
-16.543409 6.221550 3.730425 7.000000
-13.752995 6.551003 3.782053 37.000000
-13.687101 6.625447 3.775306 70.000000
-10.854675 8.649649 3.709404 17.500000
-10.461120 9.135468 3.711814 75.000000
-9.300563 10.350989 3.719044 34.000000
-10.736429 10.437081 3.717477 57.000000
-9.460836 10.430185 3.763453 24.000000
-9.260018 10.603746 3.762421 3.000000
-10.648422 10.615020 3.732898 42.000000
-8.444102 10.992647 3.704585 1.000000
-8.674271 11.038902 3.752093 5.500000
-8.431951 11.084603 3.722142 16.000000
-8.477306 11.253853 3.765519 3.000000
-11.221493 12.025149 3.777904 9.000000
-9.028096 12.303766 3.788800 24.000000
9.499748 13.264175 3.747459 17.000000
-9.531178 13.337580 3.765368 19.000000
-9.408179 13.341959 3.749847 24.666666
-9.244404 13.345489 3.728953 13.000000
-9.207482 13.412015 3.736713 28.000000
-9.125173 13.472760 3.737609 30.500000
-8.944502 13.663422 3.751040 6.000000
9.058182 13.742671 3.780590 4.000000
-12.970234 14.711853 3.780758 69.000000
-11.776095 15.430380 3.741765 5.000000
-11.714357 15.551125 3.753123 20.000000
-11.693792 15.676954 3.770158 23.000000
-11.592945 15.695589 3.761451 18.000000
-11.419768 15.700750 3.742523 23.333334
9.707869 16.713320 3.725866 8.000000
-9.721118 17.063637 3.785679 14.000000
-9.586052 17.033293 3.767761 8.333333
-9.148647 17.148355 3.746687 4.500000
-8.978589 17.284519 3.754637 4.000000
4.514772 17.357304 3.785357 39.000000
4.619182 17.348040 3.789075 25.666666
2.370903 17.443760 3.715557 42.000000
2.683219 17.473715 3.731251 40.000000
2.766919 17.410442 3.720788 24.333334
4.404675 17.419889 3.792379 30.333334
2.866696 17.563532 3.756033 47.000000
-11.851265 17.609978 3.708433 7.000000
2.310545 17.621626 3.751076 40.000000
-19.758478 18.489655 3.757347 2.000000
-10.277430 18.617535 3.715317 49.000000
-19.544582 18.755686 3.761198 3.000000
4.117308 18.836290 3.716780 12.000000
5.286445 18.819704 3.768265 30.333334
5.367384 18.804972 3.769779 16.000000
4.800964 18.987181 3.775332 24.000000
5.093754 18.970413 3.786437 37.000000
4.712402 19.099041 3.792115 32.500000
1.660301 19.169987 3.709209 9.000000
3.195355 19.197594 3.751608 3.000000
4.569077 19.164143 3.797794 8.000000
1.545478 19.250513 3.722837 5.000000
2.003239 19.551802 3.788708 25.000000
2.682922 19.509827 3.796279 2.000000
1.483078 19.633549 3.795522 5.000000
5.558124 20.457294 3.703614 1.000000
5.776333 20.495024 3.720136 36.000000
5.842854 20.484354 3.721513 1.000000
5.417927 20.710808 3.740100 4.000000
4.140521 20.834810 3.711187 25.000000
2.948124 20.976992 3.700861 5.000000
-19.196217 24.176231 3.738469 3.000000
-19.085577 24.349503 3.746644 3.000000
-18.726980 24.361433 3.721157 11.000000
-19.050470 24.462597 3.754820 10.000000
-18.645550 24.573523 3.735584 14.000000
-11.026527 24.512243 3.732041 22.000000
-10.951073 24.550385 3.732591 6.000000
-18.814255 24.634743 3.753858 15.000000
12.011342 -29.758892 3.886344 13.000000
11.820266 -29.687937 3.869753 8.000000
12.135630 -29.663422 3.881295 8.000000
12.373124 -29.448887 3.868311 10.000000
12.664270 -29.363785 3.872639 7.000000
13.153270 -29.226421 3.881295 9.000000
12.120245 -29.102705 3.817817 15.000000
12.808633 -29.192722 3.860616 20.000000
13.293683 -29.049314 3.868792 8.000000
13.502788 -28.786125 3.850518 10.000000
14.692854 -28.479074 3.880814 9.000000
14.067209 -28.350630 3.832725 8.000000
14.723637 -28.320030 3.865425 12.000000
13.907919 -28.252176 3.813489 8.000000
14.485687 -28.295338 3.849556 11.000000
14.748030 -28.150526 3.848594 10.000000
-10.241482 -25.999508 3.880024 6.000000
-11.376339 -25.527685 3.880575 17.000000
-10.355227 -25.578655 3.831614 6.000000
-11.230428 -25.414717 3.858020 7.000000
-10.129905 -25.481220 3.807408 1.000000
13.468394 -20.566193 3.853246 0.000000
14.041087 -19.904509 3.817941 13.000000
13.926329 -19.874088 3.803694 5.000000
14.317076 -19.633610 3.808650 8.000000
14.892365 -19.634190 3.862537 12.000000
14.735751 -19.301477 3.806172 11.000000
15.620245 -19.241213 3.884525 3.000000
15.297863 -19.026701 3.826612 14.000000
15.947316 -18.844398 3.869350 22.000000
15.737401 -18.478310 3.804314 14.000000
16.801153 -18.054899 3.865634 8.000000
13.461019 -17.747093 3.891549 4.000000
16.853640 -17.772453 3.839000 26.000000
17.403769 -17.452436 3.863156 9.000000
13.939941 -17.226690 3.871585 5.000000
14.102859 -17.205805 3.886730 8.000000
13.603043 -17.138176 3.822708 1.000000
14.287344 -17.045176 3.885697 3.500000
14.384105 -16.997206 3.890172 3.000000
-16.144899 -15.214183 3.875715 2.000000
-13.130276 -12.966307 3.894809 12.500000
-16.734690 -11.334493 3.896221 8.000000
-13.044537 -10.756908 3.883567 29.000000
-12.954629 -10.614574 3.846854 35.000000
-13.015123 -10.595972 3.854913 6.000000
-13.361883 -10.398201 3.888940 20.000000
-13.406850 -10.320968 3.886253 18.333334
-13.381816 -10.212675 3.866554 26.000000
-13.410726 -10.168231 3.865658 31.000000
-13.548089 -9.746052 3.833422 15.000000
-13.719757 -9.482312 3.830736 19.000000
-13.597804 -9.482485 3.807752 16.333334
-15.170916 -7.168021 3.854017 1.000000
-13.756934 -6.712674 3.800366 40.000000
-16.852539 0.861136 3.875956 23.750000
-16.906414 0.983697 3.889835 35.000000
-15.738269 5.862391 3.857599 18.000000
-15.365283 6.167459 3.802977 5.000000
-10.775859 9.291555 3.802699 70.666664
-10.651674 9.480296 3.810961 54.000000
-10.648530 9.567843 3.825937 63.500000
-10.644860 9.655555 3.840912 66.000000
-10.682970 9.751478 3.865699 35.000000
-10.178204 10.146277 3.840912 15.000000
-10.176286 10.208311 3.852273 16.000000
-19.426128 10.398743 3.849556 33.000000
-10.044399 10.365005 3.857437 35.000000
-19.677923 10.454131 3.892926 23.000000
-19.294626 10.484850 3.836476 2.000000
-9.691170 10.417998 3.802699 0.000000
-19.244312 10.535950 3.833034 9.000000
-9.829429 10.700666 3.883256 31.000000
-9.759292 10.691534 3.868797 27.000000
-9.483415 10.998283 3.881191 2.000000
-10.981126 11.225312 3.898676 13.000000
-8.499112 11.431496 3.807037 35.000000
-8.329340 11.578709 3.811994 32.000000
-8.351343 11.686563 3.838846 73.000000
-9.098999 12.319057 3.802293 6.000000
-18.457777 12.496851 3.894302 29.000000
-11.262542 12.416492 3.850435 2.000000
-9.053431 12.419906 3.815787 1.000000
-18.421429 12.599240 3.899121 13.000000
9.075291 13.910912 3.815065 13.000000
9.072059 14.050138 3.841481 41.000000
-13.102723 15.099547 3.853822 20.000000
-11.666351 16.379810 3.876536 15.000000
11.505303 16.315853 3.848522 22.000000
-10.867896 16.831394 3.862150 53.000000
-10.991366 16.905838 3.887136 33.000000
-10.540442 17.019894 3.859122 35.000000
-9.897076 17.100735 3.808772 27.000000
-10.565108 17.180058 3.887893 51.000000
-10.464462 17.177166 3.877293 49.000000
-10.352078 17.194742 3.868964 12.000000
-10.030067 17.143795 3.828836 8.000000
-10.229802 17.235804 3.863664 2.000000
9.928041 17.216684 3.831107 9.000000
10.287930 17.210325 3.865179 1.000000
-10.362500 17.335058 3.893193 7.000000
3.560802 17.755489 3.822116 20.500000
1.612586 17.962442 3.806422 0.000000
2.526149 17.951746 3.826247 23.000000
3.459413 17.981445 3.864795 35.666668
3.786441 17.998802 3.882005 47.500000
3.711375 18.064402 3.892330 40.000000
3.886403 18.051577 3.897287 35.000000
1.099024 18.389313 3.888200 0.500000
2.286977 18.334858 3.899765 1.000000
6.874072 18.814804 3.861393 34.000000
6.729270 18.971296 3.880321 39.000000
6.686554 19.040518 3.890164 16.000000
-19.546822 19.478706 3.831614 15.000000
-19.779644 19.587265 3.865171 6.000000
2.817761 19.578112 3.812936 1.000000
3.947026 19.522306 3.839436 15.000000
1.888996 19.653925 3.806122 7.000000
3.917091 19.692547 3.870479 4.000000
1.965865 19.800323 3.835650 18.000000
1.250580 19.877989 3.839436 2.000000
1.345072 19.883654 3.841707 5.000000
2.157062 19.823870 3.843979 19.000000
3.111008 19.843821 3.871993 8.000000
3.631284 19.883017 3.896221 3.000000
3.754679 19.852087 3.894707 41.000000
2.628199 20.044249 3.896978 2.000000
-13.102847 21.001549 3.879880 7.000000
-13.020159 21.015730 3.874925 20.000000
2.823102 22.098959 3.892237 2.000000
-10.747828 22.193407 3.865015 6.000000
-10.635278 22.138012 3.849530 4.000000
-10.364577 22.287827 3.852627 5.000000
-10.269686 22.266447 3.843336 5.000000
-10.506512 22.317364 3.866253 40.500000
-10.229276 22.363285 3.854485 5.000000
-10.141005 22.355726 3.847672 4.000000
-10.083695 22.416304 3.852627 5.000000
-9.694371 22.488462 3.838381 2.000000
-10.085660 22.610281 3.880499 3.000000
-10.064135 22.753885 3.899701 0.000000
-9.705491 22.909161 3.899701 3.000000
-9.478601 22.974039 3.895365 1.000000
-18.773428 25.232416 3.808680 2.000000
-13.773866 -35.975956 3.983639 3.000000
10.148830 -31.032051 3.953910 6.000000
10.695803 -31.045271 3.976512 8.000000
11.864045 -30.634897 3.978435 11.000000
12.591987 -30.235435 3.966413 10.000000
12.389360 -30.014233 3.932270 53.000000
12.693383 -29.947319 3.939002 7.000000
13.715050 -29.970083 3.991420 17.000000
12.767109 -29.859827 3.932750 2.000000
13.998898 -29.601526 3.965451 20.000000
14.427272 -29.541027 3.981321 13.000000
13.152018 -29.470667 3.908225 16.000000
14.256479 -29.425392 3.959681 10.000000
13.943148 -29.245550 3.923613 5.000000
14.502563 -28.998857 3.926499 18.000000
-13.003096 -25.630507 3.990599 3.000000
-13.163881 -25.548300 3.990599 1.000000
15.206839 -20.312614 3.977125 5.000000
15.258689 -20.248960 3.974028 7.000000
14.951923 -20.103447 3.926954 2.000000
15.226645 -19.686768 3.900939 2.000000
15.909883 -19.410416 3.933767 25.000000
16.631039 -18.917391 3.948013 9.000000
13.105913 -18.703285 3.989990 8.000000
16.535898 -18.690428 3.911469 40.000000
16.968130 -18.465639 3.930670 2.000000
17.795641 -18.071083 3.975266 7.000000
17.560257 -17.720354 3.910230 6.000000
14.186977 -17.645039 3.955570 50.000000
17.866880 -17.693102 3.941200 5.000000
14.769560 -17.341906 3.979664 10.000000
17.848629 -17.344912 3.900939 10.000000
15.159080 -17.134220 3.996875 2.000000
15.242054 -16.587229 3.935606 32.000000
15.546574 -16.497620 3.960389 8.000000
15.712199 -16.568785 3.989302 2.000000
-16.390154 -15.739577 3.970027 1.000000
-16.074934 -15.730749 3.929411 2.000000
-16.118626 -15.674676 3.928034 2.000000
14.167144 -15.134042 3.996163 9.000000
-17.626612 -14.172165 3.951440 25.000000
-12.999201 -13.372039 3.936111 4.000000
-13.028048 -13.234318 3.919590 21.000000
-13.094367 -13.135569 3.914634 17.000000
-13.124482 -13.083313 3.911330 18.000000
-12.959636 -11.571028 3.990573 28.500000
-13.031089 -11.452094 3.984753 41.666668
-13.120483 -11.385376 3.990126 37.000000
-13.242047 -11.273849 3.994603 18.000000
-13.235392 -11.161058 3.976694 53.500000
-13.296468 -11.082143 3.975798 33.000000
-15.635169 -10.165240 3.936111 5.000000
-12.238386 -9.942353 3.914740 23.333334
-14.633020 -8.935536 3.938190 2.000000
-15.104598 -8.211370 3.948935 45.000000
-15.147473 -8.173137 3.953412 1.000000
-14.246962 -7.219749 3.965373 14.600000
-14.503974 -6.658792 3.962288 17.000000
-14.710286 -6.503352 3.993131 15.000000
-14.807909 -6.242949 3.989758 0.000000
-14.742206 -6.133570 3.964216 1.000000
-17.183973 0.594040 3.949383 26.000000
-17.221905 0.676651 3.958785 13.000000
-17.074398 0.751443 3.925653 14.500000
-17.012194 1.043493 3.914908 4.000000
-17.086943 1.155860 3.933712 18.500000
-18.573730 1.491143 3.932807 13.000000
-18.857571 1.573576 3.993934 14.000000
-14.036064 5.128136 3.993764 16.000000
-13.896049 5.325845 3.977239 1.000000
-16.105713 6.582458 3.996394 12.000000
-16.099371 6.638965 3.999976 18.000000
-10.541929 10.377621 3.953485 43.000000
-10.594378 10.495000 3.985502 1.000000
-19.889294 10.727204 3.947998 46.000000
-19.990583 11.108341 3.995498 2.000000
-19.789968 11.160179 3.969338 11.000000
-19.828894 11.346929 3.991367 10.000000
-19.674561 11.589198 3.989302 24.000000
-19.607553 11.632862 3.983106 12.000000
-10.728075 11.642183 3.930482 7.500000
-10.808863 11.878773 3.987348 0.000000
-9.244340 12.765860 3.913133 10.000000
-9.183783 12.766479 3.904459 9.000000
-9.113095 13.215104 3.985420 22.666666
-8.962436 13.322441 3.986384 26.000000
-8.890907 13.351606 3.982529 7.000000
-8.532424 13.491741 3.963252 12.000000
-8.665337 16.681482 3.967501 36.000000
-8.594958 16.673834 3.959240 29.000000
-8.770333 16.754734 3.991456 21.000000
-8.547703 16.797613 3.977964 10.000000
-8.566190 16.877577 3.994760 14.000000
-11.183546 16.928568 3.911112 20.333334
2.282954 16.996792 3.939085 18.000000
-11.171350 17.065105 3.931807 38.000000
11.737296 17.097042 3.997677 36.000000
-11.031217 17.202700 3.939378 1.000000
-10.728964 17.203318 3.908335 3.000000
10.716492 17.183323 3.903793 2.000000
10.954482 17.142197 3.921585 51.000000
-10.510608 17.836346 3.990863 8.000000
4.073555 18.090511 3.913808 25.000000
3.383104 18.200407 3.907199 28.000000
3.335050 18.260996 3.917938 24.000000
3.990732 18.257217 3.944371 72.000000
4.047222 18.240770 3.943545 26.000000
4.512417 18.288525 3.975761 46.500000
2.353009 18.393579 3.913808 32.000000
3.058731 18.376760 3.931981 39.000000
3.224321 18.304718 3.922894 15.000000
4.404532 18.388597 3.990905 27.666666
2.774941 18.457369 3.939415 30.000000
3.138709 18.498253 3.960066 35.000000
4.273746 18.438202 3.994760 19.000000
2.726057 18.527950 3.952632 23.000000
2.926621 18.667696 3.988152 3.000000
3.342624 18.633497 3.995586 7.000000
7.009274 18.999470 3.903793 6.000000
6.884414 19.028362 3.900764 3.000000
-11.707754 19.438835 3.964520 0.000000
-11.188606 19.465427 3.922527 23.500000
6.280840 19.434256 3.937107 0.000000
-11.048942 19.576752 3.927346 9.000000
-10.498441 19.895224 3.930099 5.000000
-10.312277 19.996784 3.930788 7.000000
4.699415 19.988972 3.958306 5.000000
4.968216 20.000767 3.972692 18.000000
-10.666331 20.060455 3.969338 4.000000
-10.240424 20.011547 3.927346 8.000000
2.695862 20.070927 3.903793 8.000000
4.122161 20.063824 3.948463 2.000000
-10.613194 20.266703 3.996875 6.000000
2.360669 20.496658 3.977235 35.000000
1.717956 22.326824 3.912201 3.000000
1.823927 22.328274 3.913922 6.000000
-10.129101 23.096626 3.952968 3.000000
-9.439278 23.084179 3.908991 1.000000
-18.841871 26.522903 3.939964 7.000000
10.098086 26.865522 3.985098 1.000000
10.239384 26.856474 3.990874 2.000000
-13.179036 -37.195808 4.080740 6.000000
-13.923954 -37.063705 4.094318 4.000000
-13.580733 -36.851799 4.061402 11.000000
-15.055511 -36.545521 4.087324 2.000000
-14.878969 -36.441612 4.070454 4.000000
-14.442390 -36.017368 4.012852 4.000000
-14.953401 -35.976326 4.028898 9.000000
18.567665 -34.906002 4.088558 11.000000
19.334631 -34.496212 4.089381 22.000000
11.486387 -31.713505 4.084713 5.000000
10.500868 -31.438478 4.014021 4.000000
10.673836 -31.300468 4.004885 9.000000
11.415462 -31.211092 4.024601 2.000000
11.496949 -31.130375 4.018830 10.000000
11.560008 -31.001085 4.006808 6.000000
12.264685 -31.087980 4.047203 5.000000
12.456815 -31.002935 4.046241 5.000000
12.543709 -30.937885 4.042875 3.000000
13.690884 -30.938955 4.097216 6.000000
11.847398 -30.879637 4.005365 16.000000
13.318801 -30.616533 4.043356 12.000000
13.585725 -30.442505 4.037105 1.000000
14.884413 -29.997597 4.055378 4.000000
14.916414 -29.826382 4.038547 14.000000
15.342834 -29.738928 4.052493 3.000000
15.636998 -29.396540 4.032295 14.000000
15.919512 -29.479397 4.057302 6.000000
15.514905 -29.389330 4.024601 13.000000
15.753660 -29.392767 4.038547 10.000000
-11.990808 -26.680765 4.061565 1.000000
-11.614802 -26.509529 4.018656 8.000000
-13.017062 -26.062603 4.045062 1.000000
-13.054342 -25.933109 4.031309 2.000000
-12.475787 -25.992390 4.003253 2.000000
-13.898422 -25.576406 4.041761 4.000000
-13.434344 -22.323183 4.083660 7.000000
-13.155164 -22.333038 4.062601 4.000000
-13.217195 -22.278004 4.060123 2.000000
16.675215 -20.085390 4.091712 3.000000
17.835604 -19.046207 4.089854 5.000000
18.217087 -18.153612 4.031012 1.000000
15.054753 -17.564680 4.041621 12.000000
15.556533 -17.036575 4.030606 5.000000
15.664348 -16.727577 4.003758 2.000000
16.361769 -16.615017 4.073976 10.000000
16.105797 -16.509995 4.029573 1.000000
16.457495 -16.503515 4.071910 6.000000
16.241926 -16.390005 4.031295 19.000000
-16.810104 -16.041647 4.059519 1.000000
14.026635 -15.561762 4.038563 1.000000
14.086592 -15.480932 4.034777 8.500000
14.133926 -15.257925 4.009287 4.000000
-17.281628 -12.105217 4.067334 16.000000
-15.041441 -11.934529 4.052583 1.000000
-14.976004 -11.985213 4.048453 19.666666
-12.970157 -11.690687 4.010721 1.000000
-13.283532 -11.381348 4.017885 55.000000
-13.191616 -11.374649 4.000871 52.000000
-15.733674 -11.168945 4.072409 30.000000
-12.655760 -10.402990 4.067346 22.500000
-12.761277 -10.223680 4.059635 0.500000
-12.679087 -10.027726 4.013371 0.500000
-13.175458 -9.903159 4.092084 21.666666
-13.228359 -9.432213 4.033611 48.333336
-13.306154 -9.382985 4.042286 1.000000
-15.360649 -8.729606 4.058180 12.000000
-15.479720 -8.605287 4.068030 12.000000
-15.520329 -8.564150 4.071612 0.000000
-13.826271 -8.562697 4.037660 24.799999
-14.055218 -8.431829 4.069273 18.500000
-13.978808 -8.475875 4.058671 0.000000
-13.849403 -8.457026 4.028792 0.000000
-15.649493 -8.317482 4.070716 11.000000
-15.441140 -8.269058 4.023257 44.000000
-15.672225 -7.830970 4.024153 7.000000
-14.873771 -6.913642 4.072165 21.000000
-14.782374 -6.646603 4.023973 32.000000
-18.926819 1.280350 4.003847 12.000000
-19.067152 1.350028 4.034410 1.000000
-19.219055 1.664551 4.071582 21.000000
-19.189970 1.783569 4.067728 35.666668
-19.214994 1.938287 4.076126 1.500000
-19.253029 2.064362 4.086864 32.500000
-15.181995 6.093889 4.061563 104.000000
-13.805267 6.602503 4.089812 39.000000
-13.777486 6.669199 4.090845 66.000000
-10.902547 10.433271 4.033010 13.000000
-10.752331 10.452559 4.007706 23.500000
-10.911718 10.607483 4.067091 24.000000
-10.758801 10.860682 4.085681 14.000000
-10.675832 10.844856 4.067091 32.000000
-10.603615 10.942163 4.072255 14.500000
-9.994073 11.517146 4.075353 3.000000
-10.774815 12.029827 4.009516 18.000000
-8.773149 12.358726 4.050567 0.000000
-10.029590 13.056658 4.087586 7.000000
-9.232387 13.224470 4.004215 20.500000
-9.079155 16.700871 4.012107 13.000000
-9.677814 16.782745 4.088930 5.000000
-9.599760 16.768913 4.078191 18.000000
-9.219838 16.708603 4.027802 14.000000
-9.011412 16.764160 4.017063 20.000000
-9.233108 16.857624 4.056714 16.000000
-8.980132 16.896290 4.038540 23.000000
-8.885013 16.844795 4.019542 14.000000
11.855782 17.077263 4.007520 45.666668
11.963256 17.078957 4.019634 57.000000
12.115802 17.067507 4.034777 11.000000
12.306944 17.051411 4.053705 43.500000
12.463696 17.041901 4.069984 38.000000
12.591692 17.047787 4.085505 2.000000
3.017498 17.516691 4.082716 37.200001
-10.676843 17.989006 4.032506 20.000000
7.281815 17.977938 4.093886 12.000000
4.344190 18.478024 4.006325 1.000000
4.250669 18.604156 4.027802 36.000000
5.058974 18.723274 4.093472 36.500000
2.712998 18.850204 4.019542 86.000000
1.759732 19.261642 4.082321 13.500000
5.385444 20.311304 4.050677 42.000000
5.271681 20.487137 4.077934 44.333332
5.349459 20.434511 4.071877 21.000000
5.706670 20.480391 4.098376 4.000000
1.479379 20.894062 4.037806 2.000000
2.221854 21.033583 4.077177 8.000000
-11.450022 26.792368 4.045612 11.000000
-11.354981 26.802671 4.041761 12.000000
9.996249 27.110590 4.012054 7.000000
-13.879574 -38.030525 4.186482 10.000000
-13.983664 -37.580853 4.146572 6.000000
-13.546358 -37.482719 4.121474 5.000000
-14.298464 -36.997639 4.101724 4.000000
-16.445309 -36.919415 4.179488 16.000000
-15.574445 -36.816082 4.133817 7.000000
19.530933 -34.591213 4.107896 6.000000
11.289721 -32.112556 4.122222 11.000000
11.516734 -32.112011 4.131360 11.000000
11.349360 -31.960926 4.107315 6.000000
12.315777 -31.801342 4.129917 4.000000
12.463332 -31.884542 4.145786 14.000000
12.083269 -31.792721 4.118856 3.000000
12.545904 -31.510460 4.107315 2.000000
14.399770 -31.206854 4.162137 12.000000
13.428561 -31.135893 4.106353 5.000000
14.862589 -30.799572 4.141459 17.500000
14.323532 -30.787018 4.112124 2.000000
14.582288 -30.586136 4.103468 13.000000
16.628571 -30.110180 4.165503 13.000000
16.235987 -29.840843 4.114048 8.000000
-12.331336 -27.209526 4.147935 3.000000
-12.911835 -27.118933 4.170490 5.000000
-13.571997 -22.392391 4.104100 4.000000
4.057027 -21.267864 4.173711 37.500000
4.161389 -21.269730 4.177876 26.000000
17.767179 -19.704771 4.158607 5.000000
18.002655 -19.468348 4.156129 3.000000
13.996664 -19.068090 4.132490 6.000000
14.093960 -19.074732 4.143505 13.000000
14.277292 -19.070967 4.162091 9.000000
14.120894 -18.986095 4.133867 4.000000
14.258882 -18.922173 4.139374 11.000000
14.859443 -18.600780 4.159338 1.000000
14.445417 -18.555952 4.108396 1.000000
15.298011 -18.426540 4.184120 8.000000
15.309509 -18.206409 4.155896 53.000000
15.626621 -17.887907 4.149700 8.000000
15.607293 -17.752905 4.129736 14.000000
15.655642 -17.583864 4.113215 2.000000
16.341841 -17.561312 4.191004 14.000000
15.663478 -17.481770 4.100823 17.000000
16.139450 -17.453449 4.153142 27.000000
16.337282 -17.012568 4.120787 0.000000
17.163996 -16.679600 4.181367 13.000000
17.131275 -16.543484 4.160715 4.000000
-17.329319 -16.433418 4.172418 1.000000
17.397646 -16.280432 4.162780 22.000000
17.808849 -16.148081 4.199954 0.000000
17.304432 -16.091532 4.128360 1.000000
17.566874 -16.080143 4.160715 2.500000
-15.604094 -14.515454 4.108219 2.000000
-12.378884 -13.307287 4.174588 4.000000
-12.449457 -13.257306 4.177275 25.000000
-15.121559 -12.390082 4.126101 2.000000
-16.055655 -11.626623 4.183925 5.000000
-15.880633 -11.198407 4.101320 25.000000
-15.938176 -11.164174 4.107102 29.000000
-12.719695 -10.624003 4.114573 2.000000
-11.947812 -10.043181 4.171402 4.000000
-11.690867 -10.080632 4.125615 4.333333
-11.893292 -9.933760 4.141451 29.000000
-15.234750 -9.701872 4.148621 27.000000
-13.454464 -9.742984 4.124211 20.000000
-15.318205 -9.653873 4.158918 15.500000
-15.491439 -9.459723 4.169216 18.000000
-15.742897 -9.144207 4.181752 8.000000
-15.850710 -8.328832 4.112803 24.500000
-15.973688 -8.265841 4.131159 8.000000
-14.758486 -8.143763 4.184932 37.000000
-15.091803 -7.305413 4.162764 6.000000
-15.128675 -7.264690 4.166620 21.000000
-15.006100 -7.061340 4.117464 24.500000
-15.326679 -6.264065 4.110718 16.000000
-18.214241 1.548699 4.198766 17.500000
-15.722691 6.167949 4.193125 4.000000
-15.659188 6.228384 4.183969 20.000000
-15.523472 6.316044 4.160836 17.500000
-10.716773 11.304974 4.163140 22.000000
-10.238375 13.071578 4.122283 1.000000
9.066483 13.849763 4.109754 0.000000
9.080063 13.966056 4.135777 0.000000
9.074047 14.053217 4.153126 4.000000
-12.987513 14.684875 4.137666 71.000000
-12.931034 14.760626 4.141797 34.500000
-10.609890 16.835178 4.200033 0.000000
-9.565755 16.914322 4.101320 23.333334
-9.546474 17.046453 4.123623 6.000000
-9.458648 17.014786 4.108755 3.000000
-9.936893 17.107613 4.175664 3.000000
9.475105 17.171207 4.139318 2.000000
9.754944 17.227726 4.178555 14.500000
9.933930 17.226898 4.197142 1.000000
4.018710 17.588923 4.144143 40.000000
3.532697 17.615393 4.126682 39.500000
3.970284 17.631886 4.151307 29.000000
4.105031 17.626333 4.156978 33.333332
2.962288 17.797333 4.144143 54.000000
3.361618 17.773857 4.154889 41.000000
3.413757 17.744068 4.150411 39.000000
2.919550 17.887350 4.162948 70.000000
3.496433 17.870991 4.182648 32.000000
3.336399 17.949142 4.193393 11.000000
7.418501 17.989721 4.107102 18.000000
2.567955 18.043566 4.186230 33.000000
2.651847 18.023569 4.184438 44.000000
6.909010 18.371387 4.142622 7.000000
6.866289 18.433344 4.151709 27.000000
6.836792 18.531935 4.169056 29.000000
-10.457462 18.673141 4.125633 6.000000
5.297976 18.785204 4.119493 21.000000
5.418764 18.761515 4.121696 34.333332
3.865567 19.119406 4.117015 30.000000
3.332175 19.271181 4.127754 35.000000
2.137709 19.363155 4.111646 24.000000
1.411656 19.502180 4.126927 6.500000
2.237669 19.428707 4.127754 27.000000
1.324459 19.578930 4.141797 4.000000
2.753022 19.563993 4.169882 4.000000
1.271759 19.719692 4.170708 1.000000
6.241355 20.869671 4.199076 45.000000
2.342730 21.530197 4.174847 4.000000
-13.693978 -38.266827 4.202940 8.000000
12.463222 -33.105232 4.283803 17.000000
12.901527 -32.702221 4.257354 2.000000
15.502478 -31.742599 4.278032 1.000000
15.166838 -31.556629 4.240042 8.000000
14.175347 -20.094835 4.296330 6.000000
14.177583 -19.832277 4.259156 5.000000
14.295056 -19.864397 4.275678 23.000000
14.788751 -19.370899 4.257780 15.000000
14.851936 -19.327467 4.258468 4.000000
15.631200 -18.948681 4.291512 1.000000
15.181747 -18.761288 4.216475 3.000000
15.183383 -18.643227 4.200642 15.000000
16.786949 -17.813873 4.276367 7.000000
16.745220 -17.658123 4.251584 13.000000
16.787010 -17.591173 4.248142 23.000000
17.224371 -17.490971 4.288758 6.000000
13.821030 -17.196035 4.252832 9.000000
14.003538 -16.981609 4.242990 3.000000
17.515242 -16.598118 4.215787 3.000000
17.518532 -16.497086 4.204084 7.000000
-17.990974 -16.428015 4.256403 14.000000
17.988293 -16.208107 4.230244 3.000000
-16.017357 -15.376205 4.280089 1.000000
-12.788863 -13.322134 4.241747 22.000000
-13.007412 -13.171884 4.252045 10.000000
-13.382153 -13.091052 4.299952 17.000000
-13.225814 -12.776480 4.223838 29.000000
-15.871447 -12.471674 4.260334 30.000000
-13.511818 -10.720860 4.282279 34.000000
-13.447488 -10.773490 4.277942 45.000000
-17.027718 -10.324542 4.202924 11.000000
-15.665588 -10.185018 4.291893 25.000000
-12.566876 -9.779513 4.255746 15.000000
-15.774339 -9.496928 4.229211 15.000000
-14.701029 -8.694139 4.240353 12.000000
-14.619539 -8.553241 4.205173 14.000000
-14.685387 -8.419180 4.202667 30.400000
-14.811602 -8.274537 4.212241 1.000000
-14.987556 -8.178177 4.238906 23.000000
-15.273341 -8.056122 4.287098 16.000000
-15.161536 -8.088731 4.266376 8.500000
-15.099086 -7.903681 4.231196 22.000000
-15.139994 -7.816474 4.230232 13.800000
-14.633450 -6.469433 4.276057 13.333333
-14.620611 -6.326905 4.257639 7.500000
-17.180676 1.180310 4.275532 43.000000
-18.383213 1.340276 4.233688 29.666666
-18.350246 1.415199 4.227420 42.000000
-11.436348 11.187575 4.275713 0.000000
-18.791029 11.393703 4.236175 21.000000
-10.944031 11.752398 4.291893 19.500000
-9.240550 12.760626 4.210648 4.000000
-8.473732 13.492593 4.258156 12.000000
-8.439621 13.579949 4.273131 14.000000
9.815750 13.827429 4.209992 3.000000
11.491615 16.296442 4.208706 43.000000
11.542756 16.260260 4.208706 0.000000
-7.736428 16.643890 4.215779 12.000000
10.492209 17.182253 4.249182 2.000000
10.665051 17.160784 4.264464 24.500000
10.805016 17.144753 4.277268 25.500000
10.955721 17.144136 4.294202 1.500000
10.106579 17.212440 4.212836 13.000000
3.697656 17.997629 4.220256 55.000000
2.720048 18.092251 4.202347 1.000000
3.231816 18.015799 4.204138 0.000000
2.310891 18.292461 4.235031 26.000000
2.867484 18.290485 4.252492 0.000000
3.809142 18.249245 4.282043 17.000000
7.193406 18.593817 4.207880 22.000000
-19.919025 18.698589 4.282176 3.000000
7.413167 18.637934 4.233488 1.000000
-19.712915 18.798611 4.269478 3.000000
7.193784 18.769815 4.242574 1.000000
7.343053 18.718204 4.243814 20.000000
-19.608133 18.816673 4.259568 27.000000
-19.142195 19.195717 4.249038 5.000000
-11.106544 19.121315 4.262675 5.000000
-19.098482 19.272606 4.252755 5.000000
-10.501500 19.317238 4.238447 6.000000
-10.643272 19.432278 4.271003 4.000000
4.590510 19.525747 4.233488 50.000000
4.555658 19.654453 4.258269 11.000000
3.538192 19.723696 4.229357 13.000000
4.764602 19.709555 4.279746 4.000000
1.725675 19.924809 4.221097 3.000000
2.011057 19.937342 4.229358 10.500000
1.545338 20.037741 4.241748 10.000000
2.120655 20.075563 4.260747 20.000000
2.374138 20.058990 4.263225 25.000000
1.654885 20.215500 4.280985 8.000000
6.344202 20.855030 4.202104 22.000000
6.236530 21.217239 4.263053 23.000000
2.437023 21.760832 4.221033 4.000000
-10.374460 22.309078 4.298396 33.000000
-11.028840 24.517384 4.213733 3.000000
-10.935657 24.515823 4.207539 21.000000
-10.741939 24.704775 4.222404 4.000000
-10.634729 24.776882 4.226121 5.000000
-14.995902 -39.167789 4.337072 2.000000
12.140093 -33.850117 4.354975 2.000000
12.672973 -33.344311 4.319870 11.000000
12.808282 -28.958088 4.396591 6.000000
11.794058 -28.842873 4.326725 2.000000
12.287686 -28.752428 4.341578 6.000000
12.483893 -28.710991 4.347080 10.000000
13.231688 -28.688572 4.386689 13.000000
13.768340 -28.430517 4.386138 16.000000
12.978337 -28.373306 4.332226 12.000000
12.759672 -28.246355 4.303620 4.500000
14.577551 -28.051004 4.389439 10.000000
14.678465 -28.029642 4.393290 8.000000
13.809856 -27.917585 4.324708 16.333334
14.199521 -27.964592 4.354782 13.000000
13.991192 -27.878874 4.331126 9.500000
14.260470 -27.795551 4.337728 26.666666
14.444544 -20.613626 4.397526 4.000000
15.061291 -20.118196 4.390642 2.000000
14.256660 -20.075901 4.301837 7.000000
15.457177 -19.855614 4.396149 14.000000
15.439277 -19.704607 4.373432 5.000000
15.228384 -19.689018 4.348649 7.000000
15.887561 -19.507866 4.395461 17.000000
16.267706 -19.222994 4.399591 3.000000
16.234539 -18.821175 4.342453 31.000000
16.587261 -18.748484 4.373432 54.000000
16.830555 -17.972940 4.301837 29.000000
17.266859 -17.867868 4.341076 3.000000
17.276205 -17.765516 4.329374 9.000000
17.564964 -17.669437 4.352779 12.000000
17.455435 -17.394613 4.305280 7.000000
17.535194 -17.364643 4.311475 21.000000
17.595711 -17.261101 4.306312 7.500000
14.558791 -16.992031 4.313403 4.000000
-13.125196 -13.932989 4.396660 2.000000
-13.157089 -13.835672 4.385467 22.500000
-13.425458 -13.341386 4.347410 13.500000
-13.368741 -13.160378 4.308906 1.000000
-13.439986 -13.065251 4.305324 21.000000
-12.951050 -11.747412 4.341072 8.000000
-12.933100 -11.657286 4.322759 12.000000
-12.941528 -11.554840 4.307338 13.500000
-17.045284 -11.466916 4.335917 4.000000
-13.333987 -11.424579 4.359385 39.000000
-13.026827 -11.433847 4.303290 39.000000
-13.156704 -11.380564 4.318904 44.500000
-13.493082 -11.222045 4.357136 41.666668
-12.632174 -10.483713 4.387253 22.000000
-12.715439 -10.351991 4.382089 17.000000
-12.726865 -10.294983 4.374860 9.000000
-15.779383 -10.188623 4.314279 16.000000
-13.256795 -9.410670 4.344909 0.000000
-13.245237 -9.340029 4.331483 25.000000
-13.281270 -9.256557 4.326577 35.250000
-13.706842 -9.096462 4.396548 8.000000
-13.594910 -9.145737 4.378991 21.000000
-13.745892 -9.039657 4.396893 17.000000
-13.514325 -9.029988 4.343876 9.000000
-15.552053 -8.391437 4.387336 20.000000
-14.880437 -6.746935 4.366598 1.000000
-14.675995 -6.598729 4.300499 0.000000
-14.873665 -6.233949 4.310139 3.166667
-15.233734 -6.142477 4.389835 20.500000
-15.217650 -6.052763 4.376925 0.000000
-18.765396 1.506531 4.324129 20.000000
-19.825867 10.259197 4.303182 8.500000
-19.876499 10.404438 4.324760 23.000000
-19.777710 10.432011 4.310374 11.000000
-19.869774 10.882886 4.367160 4.000000
-11.771761 11.089272 4.322188 0.000000
-11.722843 11.112904 4.317024 31.000000
-12.503546 14.317945 4.366215 37.000000
-11.724512 17.078428 4.372263 3.000000
11.846128 17.082451 4.387545 21.000000
11.952314 17.063335 4.397045 55.000000
-11.202029 17.229858 4.337569 15.000000
-11.086813 17.229774 4.324353 71.000000
3.636705 17.287289 4.385890 51.000000
3.721807 17.287060 4.390227 1.000000
-11.028636 17.318161 4.333439 36.000000
3.004285 17.374874 4.377697 41.000000
3.563405 17.344187 4.396010 32.000000
1.824210 18.979954 4.379646 10.000000
-19.756441 19.078571 4.304784 4.000000
-11.186524 19.469707 4.328546 8.000000
5.059298 19.833950 4.320222 1.000000
5.458101 19.910582 4.357395 24.333334
5.559342 19.951654 4.371437 35.000000
-9.932855 20.195127 4.338388 10.000000
2.553412 20.470882 4.354090 30.000000
-10.500469 22.304462 4.307000 40.000000
-10.391792 22.531197 4.334881 1.000000
-10.028954 23.065022 4.394083 1.000000
-9.884388 23.028717 4.378250 4.500000
-19.826027 24.658604 4.393290 1.000000
-16.861353 -32.239079 4.405950 2.000000
12.356062 -29.948383 4.498364 10.000000
12.541947 -29.604416 4.464256 11.000000
12.182115 -29.265654 4.401542 2.000000
12.548905 -29.110262 4.401542 15.000000
12.939538 -29.008169 4.410344 5.000000
13.485469 -28.998934 4.440601 9.000000
13.895134 -28.923609 4.455454 17.000000
14.680026 -28.466402 4.447202 8.000000
-11.048306 -26.104145 4.442908 1.000000
-11.115187 -25.809183 4.404506 9.000000
-11.470806 -25.739662 4.416894 2.000000
-13.647413 -25.114491 4.480072 29.000000
-13.461369 -25.147486 4.470781 4.000000
-13.532803 -25.091158 4.468304 16.000000
-14.267947 -24.397118 4.429901 15.000000
15.027758 -20.744783 4.475316 13.000000
14.951237 -20.503262 4.433323 2.000000
15.306063 -20.579601 4.480823 14.000000
15.930233 -20.070152 4.476692 4.000000
15.961235 -19.979986 4.467743 4.000000
16.629377 -19.156908 4.431946 27.000000
17.015207 -18.634027 4.408540 7.000000
17.671885 -18.402334 4.457417 1.000000
14.477199 -18.285353 4.495873 10.000000
14.325752 -17.939135 4.425459 64.000000
17.999697 -17.936979 4.439518 12.000000
15.623421 -17.008209 4.451959 8.000000
16.169188 -16.632952 4.471644 1.000000
16.232302 -16.558498 4.469878 4.333333
16.278242 -16.432386 4.458773 27.000000
16.146772 -16.197575 4.408802 5.000000
14.052268 -15.989730 4.492866 5.000000
14.003905 -15.834100 4.461476 7.000000
14.092669 -15.734138 4.458172 1.000000
14.056391 -15.545611 4.423478 5.000000
-15.286811 -14.860611 4.499750 13.000000
-15.419570 -14.709585 4.497822 1.000000
-15.502216 -14.330102 4.455694 5.000000
-13.138641 -14.393691 4.476355 2.000000
-13.329036 -13.797800 4.406510 14.000000
-17.086687 -12.537648 4.473041 4.000000
-13.151195 -12.388725 4.485646 15.000000
-17.188755 -12.283259 4.458998 2.000000
-15.034659 -12.240132 4.453074 24.000000
-15.074800 -12.116124 4.442328 7.000000
-15.313493 -9.617313 4.489501 17.000000
-15.310909 -9.482069 4.471189 7.000000
-13.799679 -9.346595 4.454384 7.000000
-14.258360 -8.954659 4.499826 18.000000
-14.104635 -8.704344 4.429597 4.000000
-13.981476 -8.719644 4.403778 22.000000
-15.153471 -7.159779 4.479171 5.000000
-15.009727 -7.178587 4.446638 3.500000
-15.226192 -7.077456 4.487433 19.000000
-15.199220 -7.006939 4.472974 0.000000
-15.060420 -7.058018 4.445089 26.000000
-15.164927 -6.933441 4.456450 19.000000
-15.341409 -6.298241 4.432179 19.500000
-19.132992 1.233921 4.403824 8.000000
-19.126438 1.807951 4.412778 26.000000
-19.086695 1.895008 4.405614 0.000000
9.070238 14.047318 4.468843 5.000000
12.807888 17.002815 4.492866 57.000000
12.150693 17.059742 4.420587 30.000000
12.298864 17.040188 4.435456 56.000000
12.450733 17.024185 4.451564 55.500000
12.612217 17.019512 4.470976 54.000000
12.728615 17.008501 4.483779 56.000000
3.335650 17.486238 4.419624 41.000000
2.974363 17.529669 4.414323 40.000000
3.441526 17.590353 4.449985 39.000000
3.527823 17.735563 4.489501 1.000000
5.240155 18.469057 4.409644 18.500000
5.158817 18.514227 4.414569 3.000000
5.598044 18.612217 4.464267 0.000000
4.169052 18.789856 4.420837 26.000000
4.116661 18.833330 4.428001 36.000000
3.035794 18.974300 4.413673 34.000000
4.463722 18.986456 4.479937 10.000000
4.509786 18.915455 4.466505 44.000000
3.481710 19.064030 4.451283 37.000000
2.878858 19.148563 4.447701 59.000000
3.454842 19.259060 4.494264 33.000000
1.311916 19.393513 4.464714 4.000000
2.224465 19.314056 4.465610 22.000000
2.987320 19.318665 4.490086 30.000000
1.224910 19.469490 4.480832 1.500000
2.176794 19.437178 4.492473 31.000000
-11.038239 20.003990 4.404259 3.000000
5.687861 20.167633 4.422652 9.000000
-10.670232 20.229330 4.408802 12.000000
2.539616 20.894518 4.442477 30.000000
-10.556982 23.079718 4.434011 6.000000
-10.337509 23.077391 4.417833 5.500000
-10.158934 23.066170 4.403377 6.000000
-10.606498 23.381901 4.485641 10.000000
-18.399437 26.433929 4.471958 5.000000
-18.280254 26.439455 4.463156 15.000000
-10.735137 26.490496 4.480072 2.000000
-18.217283 26.526154 4.468107 13.000000
-10.854198 26.544430 4.494937 2.000000
11.522882 -30.918005 4.581433 4.000000
11.919069 -30.792934 4.584733 15.000000
11.707368 -30.530584 4.540173 10.000000
12.223866 -30.438519 4.554477 17.000000
12.280744 -30.304493 4.540173 17.000000
12.611489 -30.030888 4.522569 9.000000
14.013806 -29.889114 4.583633 18.000000
14.109332 -29.848522 4.584183 6.000000
15.365885 -29.342325 4.599037 15.000000
15.531347 -29.210215 4.593535 20.000000
14.592205 -29.190836 4.531371 16.000000
15.182486 -28.771801 4.517068 16.000000
-12.866890 -25.761932 4.513519 10.000000
-14.045057 -25.653828 4.584130 2.000000
-12.983639 -25.692183 4.511971 6.000000
-13.430603 -22.159107 4.526946 2.000000
-13.336546 -22.160677 4.518685 2.000000
3.962452 -21.317179 4.576297 1.000000
4.168441 -21.305773 4.582079 6.000000
4.055505 -21.259802 4.568036 46.500000
15.775561 -20.798601 4.560678 8.000000
15.551263 -20.637218 4.514555 1.000000
17.141291 -19.252493 4.503540 6.000000
13.545063 -19.017521 4.500794 1.500000
13.679259 -19.015686 4.515558 2.000000
13.761970 -19.004429 4.523129 2.000000
13.823919 -18.964273 4.523887 1.000000
13.985571 -18.903938 4.532972 4.250000
18.031935 -18.426472 4.504228 6.000000
15.115344 -18.212984 4.562501 10.000000
15.447407 -18.144222 4.593544 20.000000
15.632851 -17.901342 4.581429 28.000000
15.664358 -17.711559 4.557958 7.000000
15.778478 -17.690716 4.569567 9.000000
15.914736 -17.656502 4.582186 7.000000
15.437512 -17.565966 4.507987 46.000000
16.423800 -17.216579 4.586729 5.000000
-17.269182 -16.064377 4.546601 1.000000
17.571507 -15.938461 4.573101 1.000000
-15.033582 -15.367874 4.537473 9.000000
-13.169314 -14.518637 4.502323 4.000000
-13.370537 -14.418690 4.516650 20.000000
-13.306242 -12.693524 4.565643 9.000000
-13.205184 -12.518118 4.517452 6.000000
-15.986940 -11.964108 4.586495 10.000000
-16.025753 -11.681900 4.555155 18.000000
-12.655585 -11.192778 4.515318 7.000000
-13.133133 -10.829967 4.549400 21.000000
-13.726241 -10.339712 4.592777 37.000000
-13.781575 -10.246283 4.589678 57.500000
-13.858204 -10.168694 4.593810 3.000000
-13.604866 -10.114923 4.530810 74.000000
-15.535748 -9.453400 4.515043 31.000000
-14.856787 -8.598299 4.587613 15.000000
-14.913917 -8.537826 4.592777 33.000000
-15.270649 -7.932470 4.598973 0.000000
-15.369124 -7.739949 4.598973 18.000000
-15.313730 -7.621798 4.571605 23.000000
-15.344293 -7.547004 4.570055 1.000000
-15.244120 -7.408721 4.529777 12.500000
-15.642065 -6.536756 4.530809 22.500000
-15.900864 -6.037036 4.545613 24.000000
-18.314613 0.950217 4.553114 6.000000
-17.132290 0.969844 4.586063 30.500000
-18.272610 1.332225 4.548616 14.000000
-18.179010 1.516953 4.529018 54.000000
-15.861648 5.851673 4.518416 31.000000
11.281984 14.372909 4.536407 22.000000
-13.562254 14.671560 4.589182 13.000000
-13.494992 14.691130 4.582018 23.000000
-13.005439 14.705085 4.509129 32.200001
11.518602 16.334713 4.590973 0.000000
12.926977 16.993626 4.506496 53.500000
13.087256 16.981812 4.525082 57.000000
13.207980 16.972507 4.539124 58.000000
13.374935 16.966024 4.559776 57.000000
13.479998 16.952698 4.571341 56.000000
13.622506 16.949038 4.589513 16.000000
9.473866 17.168961 4.504114 2.000000
9.575111 17.224298 4.526500 30.000000
2.959603 17.955242 4.517934 28.000000
3.382720 18.198339 4.595522 39.000000
-11.283613 18.478268 4.569688 26.000000
-11.096465 18.696011 4.588687 12.000000
-11.181256 18.704725 4.599426 2.000000
-10.976798 18.761986 4.587862 12.000000
3.583619 19.279135 4.504114 13.000000
4.187937 19.452143 4.570377 39.000000
2.311249 19.527647 4.516650 36.000000
2.625994 19.550753 4.530978 6.000000
2.704422 19.515112 4.525307 30.000000
2.390460 19.667349 4.550677 8.000000
2.149456 19.753969 4.564109 26.000000
2.602573 19.848812 4.598136 73.000000
-11.208730 20.618168 4.523887 13.000000
2.183631 21.312441 4.521778 5.000000
2.095276 21.447121 4.548211 15.000000
-11.066328 26.585154 4.513519 2.000000
-10.981251 26.616131 4.512900 1.000000
-11.351848 26.795275 4.561213 5.000000
10.231247 26.835079 4.501441 1.000000
9.989560 27.092449 4.525907 13.000000
-13.712867 -36.156406 4.682945 5.000000
-14.048696 -36.014462 4.681502 13.000000
-13.918304 -36.013966 4.675732 17.000000
-14.381579 -35.865715 4.679579 11.000000
-14.260034 -35.888577 4.676693 7.000000
11.116177 -31.957226 4.698059 12.000000
11.388792 -31.772724 4.686506 10.000000
11.504738 -31.781490 4.693108 5.000000
10.858358 -31.534967 4.630944 3.000000
11.830640 -31.441587 4.664501 5.000000
12.360831 -31.347713 4.678804 26.000000
12.201739 -31.231392 4.655699 23.000000
12.258557 -30.804398 4.603437 13.000000
13.007153 -30.702501 4.629844 2.000000
13.240577 -30.714764 4.644147 11.000000
14.555852 -30.544409 4.698059 9.000000
14.799622 -30.316860 4.684306 18.000000
14.830070 -30.138683 4.663951 12.000000
14.965495 -29.703903 4.618291 8.000000
15.286425 -29.415060 4.602888 6.000000
16.258226 -29.451723 4.671103 10.000000
16.339119 -29.379728 4.667802 12.000000
15.669813 -29.248585 4.607288 23.000000
15.769154 -29.213161 4.609489 17.000000
-12.984490 -26.835793 4.672703 6.000000
-12.975183 -26.603073 4.639256 4.000000
-12.802649 -26.673384 4.637398 9.000000
-12.689908 -26.652817 4.626868 4.000000
-13.042067 -26.319193 4.603951 1.000000
16.057184 -20.895908 4.604047 0.000000
17.942533 -19.403330 4.617126 1.000000
14.480025 -19.348808 4.658657 20.000000
14.823086 -18.802998 4.615500 5.000000
15.100527 -18.787977 4.646543 26.000000
15.492249 -18.548252 4.658657 1.000000
15.182994 -18.411894 4.600358 9.000000
15.517591 -18.460405 4.648814 36.000000
16.441877 -17.453802 4.622314 26.000000
16.472311 -17.376408 4.615500 8.000000
16.703571 -17.291010 4.634429 5.000000
14.104506 -16.994989 4.661379 1.000000
17.530333 -16.618227 4.656385 3.000000
17.488110 -16.474195 4.631400 2.000000
17.627003 -16.345680 4.634050 12.500000
14.997936 -16.275875 4.671292 10.500000
15.351551 -15.991678 4.678727 5.000000
-13.214801 -15.228712 4.631268 16.000000
-13.257450 -15.181249 4.629477 10.000000
-13.329961 -14.976998 4.605300 0.000000
-13.413359 -14.881369 4.601718 11.000000
-13.248499 -13.332045 4.666363 28.500000
-13.246604 -13.205052 4.643713 0.000000
-13.430832 -12.933787 4.629256 6.500000
-16.030233 -12.075265 4.609777 3.000000
-12.803585 -11.687181 4.633055 0.000000
-12.791579 -11.602761 4.615498 59.000000
-12.828844 -11.526851 4.609301 46.000000
-13.036682 -11.420689 4.632022 21.000000
-12.897474 -11.479123 4.614465 14.000000
-16.584482 -11.308928 4.610672 26.000000
-13.716446 -11.000744 4.699153 16.333334
-13.250699 -10.997040 4.602072 3.000000
-17.418226 -10.264210 4.643804 7.000000
-15.377739 -8.111188 4.646481 15.000000
-15.252501 -7.983986 4.601039 21.000000
-15.361962 -7.796936 4.604137 23.000000
-18.806080 0.916479 4.674556 0.000000
-17.364763 1.065119 4.649580 19.000000
-17.454117 1.180725 4.675399 35.000000
-17.218647 1.110461 4.611367 33.000000
-17.350008 1.283236 4.649580 21.000000
-18.559048 1.489965 4.622509 1.000000
14.046220 10.238924 4.645448 8.000000
14.184734 10.271810 4.680563 8.000000
14.257714 10.256532 4.693989 0.000000
-19.546803 10.546888 4.687813 23.000000
-19.496384 10.598895 4.683683 0.000000
14.117682 16.902536 4.648163 21.000000
13.828251 16.930901 4.613882 21.500000
14.007656 16.914261 4.635221 54.666668
10.928616 17.101805 4.661714 5.500000
-11.058246 17.185400 4.693950 38.000000
3.180793 17.112013 4.651645 36.000000
10.419621 17.184528 4.616045 0.000000
10.523901 17.173439 4.626343 5.000000
10.663504 17.158291 4.640223 6.500000
10.803318 17.142075 4.654102 19.500000
-10.703014 17.404308 4.693054 19.000000
3.277221 18.268911 4.608052 46.000000
2.867350 18.479126 4.642750 40.000000
-11.081393 18.804958 4.606861 4.000000
-11.391360 18.920984 4.661379 9.000000
-10.785976 19.402466 4.685335 40.000000
4.166424 19.652077 4.614254 32.000000
-10.158656 19.707336 4.679553 1.000000
4.813881 19.732367 4.665295 28.666666
4.903077 19.738535 4.671563 4.000000
4.144493 19.855879 4.659027 12.000000
2.042780 19.937725 4.603509 21.000000
2.112368 19.997114 4.618731 26.000000
1.512792 20.025951 4.612911 8.500000
-9.829992 22.047462 4.653357 12.000000
2.054387 22.103676 4.685335 2.000000
9.659739 22.036842 4.638214 1.000000
-9.958810 22.149012 4.681371 8.000000
9.662475 22.232780 4.673043 4.000000
-10.956877 24.460056 4.682525 12.000000
-13.646126 -37.029243 4.779124 6.000000
-14.036526 -36.661995 4.754117 7.000000
-15.054752 -36.543682 4.786337 7.000000
-14.750377 -36.453499 4.762292 2.000000
-15.070418 -36.257858 4.755079 6.000000
-15.225224 -35.990566 4.732477 12.000000
12.166905 -32.335258 4.797081 13.000000
11.309772 -32.187542 4.737118 4.000000
12.131957 -31.937609 4.743719 11.000000
13.701950 -31.512329 4.771225 4.000000
13.202103 -31.437273 4.734367 2.000000
13.830765 -31.269806 4.747570 5.000000
14.646211 -31.237926 4.790480 5.000000
16.209143 -29.803898 4.710712 14.000000
13.756417 -20.728607 4.795699 3.000000
13.806673 -20.453896 4.757085 3.000000
13.938041 -20.302736 4.747242 10.000000
13.805592 -20.245827 4.723771 12.000000
14.586674 -20.143295 4.794184 2.000000
14.119632 -20.023270 4.723013 8.000000
14.004829 -19.993542 4.705599 0.000000
14.652533 -19.968918 4.774499 12.000000
14.952311 -19.784809 4.780556 0.000000
15.724999 -19.191685 4.782827 3.000000
15.882901 -19.137838 4.794184 4.000000
16.947039 -17.765076 4.732856 15.000000
17.138355 -17.629917 4.739671 6.000000
17.533237 -17.588404 4.787370 9.000000
17.190926 -17.463102 4.723771 4.000000
17.600254 -17.325939 4.760870 5.000000
17.406219 -17.242939 4.723013 14.000000
15.103146 -16.545849 4.728289 12.000000
-15.217426 -13.803157 4.719022 0.000000
-16.469297 -12.816387 4.793344 17.000000
-16.373713 -12.824792 4.777226 43.000000
-16.315184 -12.614352 4.736931 14.000000
-13.888342 -11.270794 4.780226 12.500000
-14.204745 -10.840714 4.775579 22.000000
-15.863566 -10.384778 4.707326 43.000000
-14.450216 -10.326272 4.746661 7.000000
-14.743629 -9.784520 4.729104 9.000000
-15.276975 -9.394784 4.793136 9.000000
-15.019485 -9.171527 4.703284 24.000000
-18.921543 1.758632 4.717928 1.000000
