# This PCD file was generated using the MATLAB® pcwrite function
# from Computer Vision Toolbox®.
# .PCD v.7 - Point Cloud Data file format
VERSION .7
FIELDS x y z intensity
SIZE 4 4 4 4
TYPE F F F F
COUNT 1 1 1 1
WIDTH 1222
HEIGHT 1
VIEWPOINT 0 0 0 1 0 0 0
POINTS 1222
DATA ascii
-14.082458 18.559689 1.593173 43.000000
-12.981753 18.581402 1.550055 8.500000
-13.843048 18.666908 1.589216 11.000000
2.774608 22.894625 1.577072 41.000000
2.589404 22.976524 1.581165 21.333334
2.132142 23.027493 1.581438 20.000000
2.499173 23.042738 1.584986 4.000000
2.725585 23.097424 1.590444 11.000000
2.865730 23.040241 1.587715 56.000000
3.097585 23.122959 1.595356 40.000000
2.375422 23.264429 1.599176 3.000000
-13.186783 26.564590 1.511208 12.000000
-13.129729 26.659647 1.514261 10.000000
-13.024872 26.657690 1.511818 17.000000
-12.920143 26.655344 1.509376 28.000000
-15.045211 27.030897 1.576346 2.000000
-14.606231 27.447214 1.584285 6.000000
16.988920 -28.185085 1.676903 2.000000
17.545900 -28.101128 1.688099 3.000000
17.023478 -28.042791 1.671611 2.000000
17.281023 -28.067944 1.679549 2.000000
17.255442 -27.830175 1.668557 12.000000
17.689697 -27.745886 1.676700 12.000000
17.835045 -27.780937 1.682196 11.000000
15.710223 -27.610100 1.618686 1.000000
17.813803 -27.557026 1.672018 12.000000
17.961300 -27.594675 1.677717 10.000000
18.196144 -27.017563 1.659804 6.000000
19.518284 -27.013088 1.698175 9.500000
17.410421 -26.933016 1.634156 5.000000
19.477034 -26.690104 1.683620 20.000000
19.729849 -26.682838 1.690948 54.000000
17.559578 -26.429283 1.616854 16.000000
17.689159 -26.443720 1.621128 18.000000
19.708630 -26.479719 1.681992 7.000000
18.159325 -26.069551 1.618889 11.000000
18.163019 -25.671560 1.602401 17.000000
18.723480 -25.657480 1.618482 1.000000
19.688656 -25.603199 1.645759 6.000000
19.392147 -25.548206 1.634360 46.000000
18.692839 -25.447212 1.608915 8.000000
19.080341 -25.468132 1.621536 36.000000
19.225201 -25.494181 1.627032 30.000000
19.457758 -25.468117 1.633138 4.000000
-7.419738 -23.235107 1.667946 3.000000
-8.196033 -23.017212 1.670812 10.500000
-6.714977 -23.008156 1.639019 10.000000
-6.651515 -23.059811 1.641202 3.000000
-9.205536 -22.957361 1.691415 3.000000
-7.238524 -22.915821 1.643386 10.000000
-7.139123 -22.850838 1.637109 20.000000
-6.827433 -22.858444 1.631378 12.000000
-7.823788 -22.760645 1.645842 1.000000
-7.487170 -22.705563 1.634926 7.000000
-7.630233 -22.659868 1.635062 6.500000
-9.964211 -22.559891 1.686503 4.000000
-7.368763 -22.584805 1.624556 4.000000
-7.727570 -17.202658 1.619405 4.000000
-7.696194 -17.277815 1.624196 12.000000
-9.149805 -16.971733 1.655681 1.000000
-8.134466 -16.819454 1.604347 8.000000
-10.317648 -16.790791 1.692299 2.000000
17.001059 -16.724400 1.630832 18.000000
-10.258539 -16.461809 1.665605 5.000000
17.350931 -16.436665 1.634380 9.000000
-9.197997 -16.317162 1.608454 6.000000
-10.404385 -16.237644 1.656023 9.000000
-10.295553 -16.179468 1.646783 3.000000
-9.919463 -16.029673 1.618720 27.000000
17.533470 -16.094633 1.627558 1.000000
-11.146204 -15.713252 1.654312 9.000000
-11.186247 -15.665187 1.652943 3.000000
17.503809 -15.567945 1.601905 6.000000
17.791073 -15.525613 1.614731 5.000000
-4.505664 -15.438181 1.663072 11.000000
-4.626390 -15.313009 1.654226 14.500000
-4.530483 -15.343814 1.654432 16.000000
-4.320056 -15.338257 1.647849 3.000000
18.464361 -15.313081 1.640384 30.000000
19.043268 -15.393436 1.674496 45.000000
-4.592282 -15.200782 1.642089 14.000000
-6.170343 -15.180493 1.694548 10.500000
17.832785 -15.171528 1.601086 5.000000
18.448391 -15.153709 1.632606 43.500000
-5.447213 -15.072416 1.657312 4.000000
-4.873090 -15.096378 1.640443 10.000000
18.063831 -15.076941 1.609001 7.000000
18.530468 -15.075421 1.633561 32.000000
19.667841 -15.097121 1.695509 2.000000
-6.608536 -14.962332 1.691462 1.000000
-5.029393 -14.935913 1.629745 15.000000
-7.056244 -14.827008 1.698045 27.000000
-5.156882 -14.850263 1.625631 49.000000
18.528372 -14.881224 1.625101 56.000000
18.946455 -14.829236 1.645296 60.000000
19.065407 -14.825986 1.651572 11.000000
18.590235 -14.739722 1.622373 60.000000
19.096098 -14.753819 1.650208 2.000000
-6.624482 -14.623940 1.660192 40.000000
19.227940 -14.568368 1.649662 12.000000
-6.271945 -14.445168 1.628511 1.000000
-6.151391 -14.414760 1.620693 3.000000
19.370226 -14.485511 1.654029 3.000000
18.749819 -14.392443 1.616369 28.000000
18.807636 -14.343146 1.617460 36.000000
19.088684 -14.368694 1.633834 18.000000
19.277895 -14.322249 1.642294 6.000000
-7.863192 -14.156425 1.674593 16.000000
-6.480282 -14.186861 1.612876 4.000000
-7.586499 -14.072000 1.653198 27.000000
19.273315 -14.038895 1.630559 11.000000
-13.745048 -13.972423 1.683059 17.000000
-12.999944 -13.984710 1.639596 2.000000
-8.584253 -13.969891 1.695577 1.000000
-13.539501 -13.850245 1.663210 20.000000
-8.203431 -13.832647 1.663072 12.000000
-7.348645 -13.838267 1.620282 41.000000
-13.589809 -13.728079 1.658761 16.000000
-7.230932 -13.720490 1.603824 16.000000
19.918844 -13.756488 1.655393 28.000000
-8.420825 -13.607902 1.654843 3.000000
19.226875 -13.638589 1.612002 25.000000
19.442963 -13.609054 1.622918 7.000000
-8.465639 -13.584755 1.655255 1.000000
19.217428 -13.541344 1.607636 10.000000
19.820202 -13.505226 1.640111 38.000000
-13.952298 -13.319137 1.656365 7.000000
19.236601 -13.374766 1.602178 22.000000
19.677460 -13.317635 1.624829 31.000000
19.915180 -13.206574 1.634107 9.000000
-13.998011 -13.195670 1.651916 5.000000
-9.267891 -13.196729 1.667598 5.500000
-14.506741 -13.084871 1.677583 20.000000
-4.915717 -13.084981 1.692747 8.000000
-14.423133 -12.927512 1.663210 11.000000
-10.292374 -12.814863 1.699691 23.000000
19.817892 -12.874807 1.616096 45.000000
19.942076 -12.866573 1.622918 33.000000
-10.055417 -12.764400 1.680353 13.000000
-8.755399 -12.763029 1.600532 22.000000
-5.265306 -12.780926 1.673992 9.000000
-15.023370 -12.637407 1.685796 2.000000
-10.247311 -12.615921 1.680765 37.250000
-6.142704 -12.599995 1.697556 5.000000
-10.657580 -12.500487 1.698731 29.333334
-10.355871 -12.527007 1.680765 21.500000
-6.020475 -12.548834 1.685533 2.000000
-4.884934 -12.522748 1.627826 8.000000
-14.982902 -12.443466 1.672450 0.000000
-14.894813 -12.449579 1.666974 20.000000
-5.332049 -12.440579 1.639127 13.500000
-5.268254 -12.490001 1.641611 21.333334
-15.011483 -12.308649 1.666974 2.000000
-10.573159 -12.270752 1.675004 49.000000
-5.624937 -12.212642 1.628307 13.000000
-10.585135 -12.168259 1.667804 59.500000
-10.647425 -12.047452 1.662661 53.333332
-10.988350 -11.970692 1.680353 36.000000
-10.859566 -11.942814 1.669244 37.500000
-10.745752 -11.967897 1.663278 41.500000
-15.724914 -11.699657 1.683059 27.000000
-14.784000 -11.663130 1.617009 18.000000
-15.757638 -11.545603 1.677469 10.000000
-15.774000 -11.393373 1.670910 2.000000
-15.695722 -11.150244 1.653285 4.000000
-15.139593 -11.117067 1.612903 22.000000
-10.633872 -8.831550 1.673992 1.000000
-10.713466 -8.728469 1.673511 15.000000
-10.658504 -8.795568 1.673511 22.000000
-10.812819 -8.448008 1.661729 6.500000
-10.746086 -8.260724 1.641451 10.666667
-11.048961 -8.166856 1.663893 2.000000
-10.941959 -8.167700 1.653554 10.000000
-10.683967 -8.089053 1.622857 41.666668
-9.417303 -7.801853 1.698049 84.333336
-9.294283 -7.815426 1.686130 67.000000
7.436748 -7.891683 1.699615 59.000000
-9.333500 -7.650249 1.675678 92.000000
-9.230285 -7.433321 1.645558 7.500000
-9.647601 -7.269991 1.677328 0.000000
-9.910649 -7.037926 1.687780 93.000000
-9.729391 -7.094745 1.671964 8.750000
-9.737315 -6.984092 1.663850 26.500000
-15.330732 -5.227970 1.675004 2.000000
-15.496436 -5.121953 1.687759 3.000000
-15.504888 -5.070774 1.686936 33.000000
-15.558982 -4.998458 1.689954 27.666666
-15.529316 -4.783410 1.680353 15.000000
18.800325 -4.788649 1.665947 6.000000
19.103987 -4.674716 1.688876 6.000000
18.580082 -4.484697 1.641307 9.000000
19.285469 -4.463039 1.699828 4.000000
19.299881 -4.084716 1.694010 14.000000
19.129961 -3.923338 1.676898 9.000000
-13.161318 -3.716837 1.656199 8.000000
18.716423 -3.716137 1.638569 25.000000
-13.161457 -3.672266 1.654756 19.000000
-13.152214 -3.447963 1.646581 10.000000
-6.595114 -3.334413 1.697475 255.000000
-13.217937 -3.214799 1.647382 3.000000
-13.159821 -3.273795 1.642253 23.000000
16.011574 -3.283792 1.690228 0.000000
-13.301256 -3.154107 1.655477 23.000000
-6.618273 -3.178156 1.686388 255.000000
-6.634947 -3.033563 1.675745 255.000000
18.403246 -3.056539 1.601951 7.000000
-13.064734 -2.903615 1.620773 11.000000
-12.960950 -2.987508 1.610754 3.500000
-6.646951 -2.951087 1.670462 255.000000
-11.417618 -2.866795 1.634556 27.750000
-6.659233 -2.869350 1.665537 255.000000
16.128204 -2.887393 1.694342 2.000000
18.423361 -2.881727 1.601267 80.000000
-6.670310 -2.726227 1.655176 57.714287
-6.706583 -2.584929 1.650941 18.000000
-6.739870 -2.404308 1.643663 8.714286
16.108822 -2.403173 1.684262 22.750000
-6.736942 -2.284418 1.633997 10.444445
-6.740233 -2.123950 1.623252 46.888889
15.563795 -2.035196 1.623162 5.000000
-15.883976 -1.961529 1.655049 12.000000
-6.762824 -1.963769 1.665104 240.818176
-15.906888 -1.888335 1.656489 1.000000
-6.781989 -1.831546 1.678877 215.416672
15.987183 -1.632376 1.661838 14.000000
-15.991122 -1.593311 1.661838 2.000000
15.854539 -1.518241 1.647026 0.000000
15.843384 -1.466957 1.645380 1.000000
18.695353 -1.494341 1.610507 22.000000
15.551020 -1.341395 1.614110 1.000000
19.615355 -1.258155 1.687850 12.000000
19.499874 -1.189246 1.677583 15.000000
18.643435 -1.019482 1.603320 15.000000
18.612185 -0.929826 1.600240 7.000000
18.672121 -0.844632 1.605031 14.000000
19.052954 -0.801887 1.637543 9.000000
16.312582 -0.635220 1.688171 4.000000
15.988445 -0.572299 1.654432 5.000000
19.555490 -0.576978 1.679978 13.000000
-13.832701 -0.243917 1.675434 15.000000
-13.866221 -0.113747 1.679282 2.000000
15.632197 -0.117320 1.616579 13.000000
15.862507 -0.168887 1.640443 13.000000
-6.959019 -0.029394 1.668039 198.307693
15.747872 -0.068714 1.628511 53.000000
15.903182 -0.019429 1.644557 52.000000
-6.980507 0.069491 1.603453 170.000000
16.062315 0.030837 1.661015 33.000000
-10.782616 0.137130 1.690201 29.400000
-10.270942 0.272540 1.610423 40.000000
-13.914560 0.323056 1.685533 13.000000
-14.008614 0.501428 1.697556 18.000000
-10.691113 0.687615 1.679175 14.000000
-10.716499 0.723059 1.683511 0.000000
-3.213037 5.844555 1.655853 6.500000
-3.149621 5.859109 1.651516 10.750000
-3.794489 5.999967 1.630615 3.000000
-3.083520 5.972444 1.668768 18.600000
-2.981976 5.967788 1.656335 5.000000
-2.907219 6.054271 1.667419 9.000000
-2.819930 6.037560 1.654407 12.083333
-3.755510 6.193764 1.663746 59.000000
-3.573203 6.122230 1.628227 20.666666
-2.717249 6.129133 1.664527 27.666666
-3.594954 6.234327 1.653001 10.000000
-3.254500 6.313584 1.631510 74.000000
-3.151466 6.356939 1.629719 88.000000
-4.135869 6.562555 1.637224 15.500000
-4.028763 6.574794 1.627518 13.750000
-3.719564 6.690977 1.615747 18.000000
-3.572583 6.721882 1.606660 1.000000
-3.461068 6.845812 1.619051 43.500000
-3.050345 7.049094 1.621116 22.500000
-3.136445 7.124678 1.643006 12.500000
-3.235307 7.256396 1.676874 24.000000
-3.080583 7.338959 1.679903 10.333333
-2.991615 7.419315 1.688439 2.000000
-3.977530 7.686500 1.668349 29.000000
-3.518751 7.728297 1.636928 21.500000
-3.267592 7.995026 1.664942 2.000000
-8.795960 8.093991 1.659724 24.666666
12.923162 8.524492 1.600944 28.000000
13.088150 8.544991 1.616373 36.000000
13.260247 8.568593 1.632625 36.000000
13.370815 8.580615 1.642912 33.000000
13.491653 8.598441 1.654432 36.000000
13.673396 8.623831 1.671713 34.000000
13.858993 8.649974 1.689405 35.000000
-9.562576 9.173388 1.604743 38.000000
6.914393 9.303348 1.609479 255.000000
7.060802 9.315652 1.623049 255.000000
7.210482 9.329144 1.637169 255.000000
7.362655 9.342724 1.651656 255.000000
7.464850 9.351056 1.661374 255.000000
7.506598 9.343001 1.664125 97.000000
-9.274338 9.414598 1.600415 1.000000
-9.345232 9.636799 1.625662 14.500000
-9.125300 9.619425 1.605705 20.000000
-10.078352 9.759772 1.698998 6.000000
-9.156986 9.775101 1.622055 21.000000
-9.755839 9.965817 1.688899 34.000000
-9.537688 9.928452 1.667259 21.000000
-9.359254 9.928326 1.652351 23.000000
-9.146650 10.140576 1.653794 8.000000
-9.107230 10.290240 1.664133 15.500000
-12.137437 11.071349 1.698868 16.000000
7.563663 11.197420 1.636413 43.571430
7.645419 11.120034 1.634238 29.666666
7.854689 11.297208 1.666297 1.000000
-10.709109 11.431995 1.619870 2.000000
-11.072477 11.745718 1.669244 14.000000
4.403462 12.777730 1.636722 134.750000
4.512628 12.736078 1.636322 255.000000
4.675079 12.747469 1.644296 255.000000
4.838534 12.757532 1.652351 255.000000
4.961847 12.749500 1.656800 144.500000
-9.419299 13.084145 1.667187 8.333333
-9.023883 13.046731 1.640443 4.000000
-9.332281 13.136657 1.666364 21.000000
-9.158042 13.152192 1.657312 21.000000
8.080253 13.242778 1.604235 49.000000
8.142648 13.251226 1.608350 48.000000
8.270685 13.271751 1.617127 46.666668
8.431459 13.296043 1.628099 46.500000
8.552331 13.316454 1.636603 46.666668
8.730421 13.346383 1.649220 46.666668
8.863894 13.366526 1.658547 45.000000
-12.903604 13.517010 1.604689 2.000000
12.492800 13.913612 1.605716 43.000000
12.622445 13.925501 1.613929 50.000000
12.761942 13.946663 1.623340 50.000000
12.950903 13.975821 1.636174 50.500000
13.114601 14.019471 1.648494 46.000000
13.207749 14.030435 1.654654 47.000000
13.356104 14.054651 1.664921 44.000000
13.507689 14.080767 1.675530 44.000000
13.654317 14.099927 1.685454 46.500000
6.404487 14.138287 1.605058 50.000000
13.806949 14.123828 1.696063 47.000000
6.394277 14.234555 1.613699 45.000000
6.372233 14.366375 1.625219 45.500000
-12.125184 14.599669 1.629672 17.000000
-11.967511 14.595440 1.620774 2.000000
6.343073 14.546541 1.641060 48.000000
-12.079261 14.637688 1.629672 4.000000
6.324070 14.691383 1.654021 48.000000
6.303718 14.836378 1.666981 46.500000
18.402855 14.897020 1.619098 19.000000
18.502428 14.881651 1.623737 25.000000
18.611439 14.873280 1.629195 31.000000
18.748707 14.886701 1.637109 37.000000
18.886242 14.899406 1.645023 43.000000
6.283801 14.985165 1.680353 47.000000
18.309557 14.916952 1.615004 7.000000
19.033464 14.918777 1.653756 45.000000
19.190437 14.944728 1.663307 45.000000
19.347761 14.969837 1.672858 43.000000
19.505432 14.994107 1.682410 45.000000
6.267235 15.078313 1.688582 46.000000
19.660273 15.015109 1.691688 41.000000
-10.867431 15.145949 1.600754 22.500000
6.250145 15.171503 1.696811 41.000000
-10.905563 15.453897 1.624196 12.000000
-10.787752 15.492679 1.621116 14.000000
-10.743565 15.533047 1.621800 6.000000
7.855843 16.916233 1.601609 47.000000
7.958389 16.927677 1.606229 47.500000
8.090941 16.955297 1.613245 33.666668
9.503765 17.173431 1.685454 45.000000
9.697040 17.202454 1.695721 48.000000
5.849025 17.832159 1.611534 51.500000
5.818892 18.026392 1.626592 48.000000
5.799814 18.162275 1.637200 47.000000
5.778739 18.294413 1.647467 48.000000
5.758080 18.430401 1.658076 47.000000
5.737799 18.570248 1.669027 40.000000
-14.317971 18.625870 1.606544 4.000000
5.715531 18.706335 1.679636 41.000000
5.693617 18.846279 1.690587 41.000000
-13.268294 20.964048 1.696600 3.000000
-11.946869 21.315212 1.670948 7.000000
-11.830068 21.421297 1.673404 12.000000
-11.797245 21.521345 1.678316 25.000000
-11.637252 21.712471 1.684593 7.000000
-11.546487 21.706648 1.681318 24.000000
-11.560214 21.898092 1.693326 19.000000
2.450587 23.276693 1.600541 7.000000
2.317253 23.422686 1.609546 15.000000
1.737867 23.608839 1.618825 0.000000
2.046060 23.720318 1.628103 5.000000
3.025970 23.719921 1.635199 36.000000
2.297295 23.989973 1.648025 9.000000
2.606748 24.034590 1.653210 12.000000
2.764537 24.077208 1.657303 19.000000
3.148076 24.074341 1.660305 5.000000
2.007220 24.156139 1.657576 2.000000
2.860275 24.238821 1.669038 13.000000
12.699118 29.261820 1.625403 68.000000
12.610284 29.308910 1.625810 17.000000
12.983209 29.660933 1.649830 18.000000
12.601684 29.803341 1.648812 6.000000
12.557407 29.960680 1.655326 6.000000
13.284451 30.091433 1.676089 35.000000
12.527592 30.154924 1.663875 4.000000
-10.018436 30.292942 1.625810 2.000000
-9.954271 30.419189 1.630899 1.000000
-9.889425 30.545322 1.635988 1.000000
12.443538 30.767910 1.691152 41.000000
12.553720 30.761953 1.692984 20.000000
-9.868641 31.147629 1.664893 1.000000
10.126972 31.731995 1.697259 41.000000
10.235196 31.726639 1.698684 56.000000
17.248222 -30.535858 1.787027 9.000000
16.513414 -29.889336 1.740006 2.000000
16.550894 -29.736084 1.734103 4.000000
18.662390 -29.475407 1.777664 5.000000
16.986088 -29.314287 1.726367 3.500000
18.555174 -29.103367 1.758733 6.000000
16.948378 -28.934078 1.708658 12.000000
18.750183 -28.806667 1.751405 9.000000
16.990475 -28.798113 1.703773 9.000000
19.260599 -28.598063 1.756901 17.000000
18.954973 -28.432533 1.741227 5.000000
18.495167 -28.028097 1.711101 4.000000
19.374252 -28.095144 1.738988 8.000000
18.341331 -27.985830 1.704994 39.000000
19.314690 -27.728195 1.721889 2.000000
18.883579 -27.661545 1.706622 5.000000
19.810356 -27.691233 1.734917 4.000000
19.508053 -27.450493 1.715986 36.000000
19.188400 -27.363197 1.702958 4.000000
19.813841 -26.973272 1.705401 54.000000
-7.274195 -25.218554 1.794843 1.000000
-8.195771 -24.854462 1.789658 2.000000
-7.498189 -24.819542 1.773012 1.000000
-7.093194 -24.884365 1.769464 3.000000
-9.999469 -23.432087 1.742174 2.000000
-9.876051 -23.345776 1.733442 1.000000
-10.930696 -22.968245 1.739445 3.000000
-10.973455 -22.872623 1.734806 5.000000
-10.519343 -22.839184 1.719524 25.000000
-11.097711 -22.763767 1.731804 4.000000
-10.369609 -22.701511 1.706698 39.000000
-10.215105 -18.255323 1.796335 3.000000
-9.974626 -18.294794 1.789319 3.000000
-10.447675 -18.132425 1.797019 7.000000
-10.680799 -18.009991 1.798046 1.000000
-10.537257 -18.025137 1.792912 2.000000
-9.166138 -17.935356 1.729601 20.000000
-10.837670 -17.888079 1.795992 3.000000
-10.663756 -17.853174 1.785726 3.000000
19.137453 -16.913530 1.746541 2.000000
-4.758184 -16.495916 1.775398 21.000000
-4.021117 -16.432955 1.749477 15.000000
19.245693 -16.269632 1.723344 4.000000
-5.284559 -16.196846 1.761820 3.000000
-5.054484 -16.178371 1.752768 17.333334
-5.732301 -16.018497 1.759351 36.000000
19.169844 -16.000071 1.707516 4.000000
-5.397854 -15.947436 1.741042 16.000000
-5.957011 -15.706716 1.737133 6.000000
-5.999413 -15.620955 1.730413 28.000000
-5.862865 -15.606163 1.723967 6.000000
-5.375348 -15.637742 1.709978 21.000000
-5.519834 -15.578886 1.709155 24.000000
-5.734717 -15.411954 1.700514 7.000000
-6.028563 -15.312232 1.701749 1.000000
-14.097127 -15.260872 1.784015 5.000000
-7.888053 -15.120458 1.763603 20.666666
-7.884816 -15.075849 1.759351 13.000000
-7.474370 -15.030607 1.735899 20.000000
-6.882686 -14.943417 1.701337 64.000000
-7.521992 -14.833076 1.719852 46.000000
-14.394767 -14.224873 1.737814 11.000000
-14.268312 -14.233487 1.730628 12.000000
-14.331778 -13.941911 1.716939 2.000000
-10.064675 -13.908915 1.775398 16.000000
-14.465077 -13.895764 1.722414 0.000000
-14.206016 -13.819571 1.701881 10.000000
-10.406405 -13.824821 1.789387 0.000000
-10.362922 -13.857446 1.789387 52.000000
-9.976804 -13.879081 1.767580 3.000000
-9.012787 -13.778231 1.702572 0.000000
-10.617388 -13.653377 1.788564 21.000000
-10.117646 -13.618458 1.754414 4.000000
-10.072450 -13.646975 1.754002 18.000000
-14.605714 -13.596241 1.713516 23.000000
-4.922987 -13.488723 1.738912 5.000000
-6.248814 -13.345856 1.784597 12.000000
-4.763098 -13.310132 1.711982 9.000000
-4.526583 -13.304358 1.701884 14.000000
-15.088993 -13.270012 1.725494 20.000000
-14.915919 -13.201131 1.710436 1.000000
-10.253340 -13.271059 1.734253 14.000000
-10.280119 -13.134309 1.724790 18.000000
-10.092886 -13.148554 1.714092 17.000000
-6.248931 -13.130633 1.761034 15.000000
-5.280586 -13.169066 1.718234 0.000000
-10.300528 -12.935683 1.709978 23.666666
-6.353942 -12.828031 1.733623 11.000000
-6.072036 -12.862921 1.722562 15.000000
-10.689215 -12.564226 1.705863 0.000000
-7.840400 -12.407082 1.777384 21.000000
-7.890894 -12.371870 1.777063 14.000000
-7.726944 -12.370482 1.766323 23.000000
-9.151408 -9.125886 1.794504 15.000000
-9.272418 -9.045488 1.798630 8.000000
-9.410506 -8.868035 1.795421 31.666666
-9.248766 -8.881866 1.780476 10.000000
-9.181762 -8.817308 1.767548 26.000000
-9.446154 -8.735016 1.786436 19.333334
-11.529943 -8.410864 1.728333 1.000000
-9.540115 -8.493960 1.773600 28.000000
-9.743640 -8.351313 1.781852 32.000000
-9.742684 -8.297538 1.776901 39.000000
-9.227155 -8.267433 1.720238 31.000000
-9.133915 -8.287951 1.712536 33.333332
-10.055922 -8.137314 1.796155 32.000000
-9.393681 -7.949524 1.708685 54.000000
7.425424 -7.929430 1.702712 35.000000
7.507390 -7.842207 1.701628 34.750000
-10.515463 -7.417845 1.786803 0.000000
-9.887762 -7.305885 1.707035 26.000000
-10.751636 -7.235700 1.799456 24.000000
-10.686280 -7.273334 1.794871 45.000000
-10.673479 -7.110278 1.780751 54.500000
-10.748888 -7.039195 1.784052 64.000000
-10.915788 -6.978217 1.798905 62.000000
-10.826201 -6.993071 1.789553 53.000000
-9.432234 -6.326274 1.780136 5.500000
-9.555302 -5.961546 1.765271 6.000000
-9.439488 -5.930567 1.747309 5.000000
-9.567974 -5.865690 1.759077 8.500000
-9.554049 -5.713451 1.744831 0.000000
-9.488267 -5.533399 1.721604 22.500000
-15.776384 -4.778196 1.704629 26.000000
19.612782 -4.603747 1.729943 4.000000
19.530874 -4.390729 1.718992 11.000000
-13.702361 -4.103087 1.732180 0.000000
-13.693204 -4.147263 1.732661 15.000000
16.319288 -3.614911 1.728493 3.000000
-6.558709 -3.574430 1.715682 26.666666
-6.574154 -3.480943 1.708668 255.000000
16.379793 -3.145358 1.724790 19.000000
16.850945 -3.180973 1.773340 12.000000
-6.652783 -2.854164 1.797294 255.000000
16.345991 -2.820505 1.715326 11.000000
-6.668525 -2.725527 1.788586 255.000000
16.473198 -2.736045 1.726847 14.500000
16.898773 -2.697671 1.769637 153.000000
-6.689450 -2.575932 1.779705 255.000000
-6.707496 -2.426826 1.770961 255.000000
16.577145 -2.247233 1.729933 2.500000
16.947544 -2.162012 1.766757 8.000000
16.909445 -2.049263 1.761409 4.000000
16.334646 -1.979696 1.701543 8.500000
16.371859 -1.862390 1.703943 30.333334
-6.771101 -1.512518 1.722532 195.818176
16.378952 -1.464664 1.700514 4.000000
17.268312 -1.407619 1.791650 16.500000
-6.798950 -1.319125 1.719465 255.000000
-6.789299 -1.394890 1.720815 255.000000
-6.809150 -1.221491 1.717538 255.000000
16.439369 -1.158202 1.704217 12.000000
17.121763 -1.152235 1.774575 23.000000
17.339710 -1.112192 1.796793 36.000000
-6.828884 -1.070606 1.716161 255.000000
16.584583 -1.011450 1.718207 17.000000
-6.846930 -0.919654 1.715197 255.000000
16.595621 -0.959804 1.719029 19.000000
16.629139 -0.856946 1.721910 7.000000
-6.864394 -0.768752 1.714922 255.000000
16.682652 -0.780951 1.727053 10.000000
19.925861 -0.713237 1.712148 2.000000
-14.595908 -0.624507 1.769209 3.000000
-6.883507 -0.617951 1.715886 255.000000
16.521194 -0.695332 1.709978 17.000000
17.266674 -0.563744 1.786507 4.000000
17.359831 -0.512196 1.795970 2.000000
-6.900963 -0.466815 1.717263 255.000000
-6.921194 -0.315483 1.720154 255.000000
16.900263 -0.233038 1.747831 3.000000
-6.943365 -0.152697 1.724285 255.000000
-14.045372 0.017159 1.700922 0.000000
-6.933500 0.010891 1.721393 0.000000
-14.163709 0.150798 1.715349 14.000000
-14.078285 0.282611 1.705250 7.000000
-14.184750 0.463121 1.718715 13.000000
-12.301188 0.558595 1.709785 6.000000
-12.864749 0.928918 1.790929 26.500000
-12.874803 1.031346 1.793404 16.333334
-12.801005 1.106437 1.784052 9.000000
-12.629605 1.291768 1.762781 14.666667
-12.679049 1.377388 1.770849 3.000000
-12.666780 1.476775 1.770712 20.250000
-12.669063 1.598254 1.773050 21.500000
-3.182383 5.640913 1.730941 9.000000
-3.219405 5.748661 1.760891 0.000000
-3.058623 5.888099 1.773285 4.000000
-2.989484 5.867166 1.759859 4.000000
-2.693037 5.890247 1.730941 22.000000
-2.934285 5.954172 1.774059 21.000000
-2.703242 5.962030 1.749531 25.000000
-3.441728 6.018274 1.721255 35.142857
-3.186677 6.087787 1.705972 85.000000
-2.836793 6.004210 1.774834 21.000000
-2.719363 6.048032 1.772252 3.000000
-2.873557 6.390970 1.739706 93.000000
-3.863286 6.439360 1.724861 37.750000
-4.163000 6.582947 1.789109 3.000000
-3.900547 6.525087 1.746128 57.000000
-4.090467 6.651561 1.793587 14.000000
-3.761367 6.634684 1.751799 11.000000
-3.131851 6.965431 1.754187 27.000000
-3.876914 7.131482 1.713220 27.000000
-3.111289 7.159028 1.792990 17.333334
-2.968962 7.167342 1.781946 9.500000
-3.188576 7.464683 1.713220 25.000000
-4.548584 7.663735 1.717941 27.000000
-3.442662 7.656694 1.771869 0.000000
-9.470877 8.390918 1.756913 6.000000
-9.506660 8.620112 1.781852 13.000000
-9.461970 8.633916 1.778551 11.000000
13.987556 8.669272 1.701749 34.000000
14.119766 8.689935 1.714503 29.000000
-9.271354 8.730700 1.768282 16.333334
-9.195283 8.768797 1.764248 6.000000
14.265821 8.718150 1.728904 40.000000
14.408791 8.743468 1.742893 44.000000
14.548651 8.765922 1.756471 35.000000
14.681964 8.783494 1.769226 35.000000
14.829214 8.808444 1.783627 37.000000
6.258806 9.244219 1.749786 255.000000
6.338411 9.236142 1.755774 255.000000
6.479569 9.253690 1.770639 255.000000
6.622402 9.270448 1.785711 255.000000
-8.413025 9.359991 1.747469 13.000000
6.237152 9.306436 1.755980 98.500000
6.239001 9.447576 1.774562 32.333332
-10.108924 9.882124 1.711982 3.000000
-10.052341 9.919874 1.710299 7.000000
-12.207532 11.065230 1.703806 10.000000
-12.257604 11.322878 1.725613 12.000000
-11.556339 12.975114 1.796793 1.000000
-11.248348 12.912343 1.770872 13.000000
6.621171 13.005888 1.767405 51.250000
6.783370 13.019581 1.777865 49.500000
6.925177 13.040672 1.788124 42.333332
7.069250 13.063345 1.798784 43.500000
6.538462 13.148716 1.778346 41.500000
6.515079 13.310802 1.794696 42.000000
9.999205 13.547735 1.741248 44.000000
10.063073 13.545000 1.744951 45.000000
10.143702 13.564301 1.751534 43.000000
10.255487 13.579807 1.759763 44.500000
10.408300 13.603585 1.771283 43.500000
10.561830 13.625963 1.782804 43.500000
10.677395 13.641887 1.791444 45.000000
13.904354 14.134362 1.702565 44.000000
14.015980 14.158586 1.710779 44.000000
14.113832 14.168129 1.717281 44.000000
14.276548 14.196946 1.728917 45.000000
-15.238935 14.255355 1.791886 8.000000
14.428437 14.213479 1.739183 44.000000
14.518587 14.212687 1.744659 46.000000
14.631725 14.233700 1.752872 45.000000
14.733675 14.243062 1.759717 47.000000
14.847326 14.262966 1.767930 46.000000
14.969894 14.290554 1.777170 43.000000
-15.137491 14.339861 1.790517 3.000000
15.098564 14.322994 1.787095 49.000000
15.210185 14.338367 1.794966 49.000000
19.821795 15.040109 1.701513 47.000000
19.983667 15.064242 1.711337 43.000000
6.235539 15.272103 1.705863 44.000000
6.214710 15.428655 1.720058 47.000000
6.191234 15.581629 1.733842 50.000000
6.175778 15.686152 1.743305 51.000000
12.745022 15.868617 1.747739 13.000000
6.217562 15.939001 1.769226 24.000000
12.466911 15.997151 1.741579 43.000000
12.580102 15.969246 1.745686 20.000000
12.666362 15.923805 1.747226 15.500000
12.402238 16.052408 1.741921 52.000000
12.331255 16.143290 1.744402 51.500000
9.812543 17.217123 1.701710 44.500000
9.930363 17.234610 1.708041 47.000000
10.049596 17.253017 1.714543 47.000000
10.210526 17.278734 1.723441 46.000000
10.332685 17.298899 1.730285 46.000000
10.415742 17.314163 1.735077 48.000000
10.539681 17.334654 1.742092 48.000000
10.659831 17.347654 1.748423 47.000000
10.741541 17.358137 1.752872 46.000000
10.829744 17.378422 1.758348 25.000000
10.969934 17.419895 1.767759 25.000000
11.127839 17.487410 1.779908 32.000000
5.670879 18.986271 1.701539 41.000000
5.649575 19.133945 1.713174 42.000000
5.627399 19.281675 1.724810 43.000000
5.604350 19.429453 1.736446 37.000000
5.580427 19.577272 1.748081 38.000000
5.556712 19.728973 1.760059 38.000000
5.534234 19.888391 1.772721 38.000000
5.510809 20.047863 1.785384 41.000000
5.475995 20.168921 1.794624 33.000000
-14.737429 20.883902 1.747905 3.000000
-14.658009 20.910488 1.746268 1.000000
-14.094782 21.222378 1.742174 3.000000
-13.835700 22.167568 1.786929 1.000000
-13.538193 22.231407 1.779971 13.500000
11.384290 23.728952 1.799756 2.000000
10.345964 31.728512 1.700516 6.000000
10.093376 31.973177 1.708454 40.000000
10.053602 32.199207 1.718836 39.000000
10.030185 32.482552 1.732271 12.000000
9.978254 32.678192 1.741024 41.000000
9.945974 32.942661 1.753440 40.000000
9.907564 33.191936 1.765043 44.000000
9.865422 33.433632 1.776239 47.000000
10.929272 33.517368 1.796391 45.000000
9.881139 33.878639 1.798223 10.000000
17.863031 -30.495565 1.800869 5.000000
18.492998 -30.248890 1.806569 3.000000
-5.696525 -26.915533 1.881352 4.000000
-5.824224 -26.892239 1.881625 9.500000
-5.496836 -26.802238 1.870982 4.000000
-6.640368 -26.772364 1.886264 6.000000
-5.576942 -26.765303 1.869617 4.000000
-5.131760 -26.724190 1.860884 8.000000
-4.969567 -26.787294 1.863068 9.000000
-6.016529 -26.375301 1.849969 5.000000
-5.909135 -26.285051 1.842327 21.000000
-5.798047 -26.174910 1.833322 8.000000
-7.165092 -26.066017 1.848604 14.000000
-7.213783 -25.924196 1.840144 8.000000
-6.961905 -25.964050 1.838234 10.000000
-6.741098 -25.787207 1.822679 5.000000
-6.587816 -25.694946 1.813946 2.000000
-6.776115 -25.592304 1.810399 6.000000
-6.921100 -25.491453 1.806305 10.000000
-8.494411 -25.226061 1.820223 1.000000
-8.139973 -25.216879 1.812036 2.000000
-8.596955 -25.009912 1.808488 17.000000
-6.251218 -20.459578 1.837059 5.000000
-6.078754 -16.819889 1.849458 8.000000
-4.756916 -16.889315 1.814485 8.000000
-6.078367 -16.654942 1.833412 13.000000
-8.411162 -16.331280 1.899655 17.000000
-6.686624 -16.231010 1.815308 2.000000
-15.696983 -15.560598 1.897975 16.000000
-9.798485 -15.505662 1.896775 0.000000
-15.680530 -15.350149 1.884286 3.000000
-9.924773 -15.382536 1.893072 1.000000
15.816537 -15.364802 1.893526 8.000000
-15.631551 -15.206326 1.872651 25.000000
-9.964513 -15.285603 1.886900 6.500000
-10.012196 -15.167087 1.879357 28.000000
15.789095 -15.146490 1.878811 4.000000
-10.080517 -15.046789 1.872911 9.000000
-4.365291 -15.045031 1.897126 16.500000
15.901311 -15.063430 1.880864 6.000000
-4.378796 -14.830081 1.872601 11.000000
-4.420728 -14.744392 1.864105 29.666666
15.975172 -14.756960 1.867517 11.000000
-16.453835 -14.608330 1.889420 12.000000
-16.340282 -14.645861 1.884286 6.000000
-16.567366 -14.570167 1.894553 0.000000
-10.648289 -14.522430 1.862213 52.000000
-16.577049 -14.486577 1.890446 1.000000
-10.487823 -14.398224 1.842052 2.000000
-10.259171 -14.366912 1.825594 3.000000
-10.161041 -14.324430 1.816131 17.000000
-5.244164 -14.369196 1.852403 7.000000
15.827116 -14.346123 1.834322 3.000000
16.539179 -14.387458 1.882404 15.500000
16.731926 -14.325803 1.891473 18.000000
16.179266 -14.208834 1.849037 2.000000
16.581167 -14.287247 1.879495 7.000000
-5.673451 -14.021143 1.831725 1.000000
-7.310694 -13.819122 1.893279 18.000000
17.186026 -13.892153 1.897633 8.000000
-7.464085 -13.741419 1.893760 2.000000
-7.214200 -13.793624 1.885104 8.000000
16.882612 -13.734811 1.868886 17.000000
-7.084853 -13.650567 1.862502 14.000000
16.298697 -13.603674 1.823028 18.000000
17.002758 -13.655912 1.872651 24.000000
17.287685 -13.662792 1.892158 7.000000
17.392698 -13.613123 1.896606 3.000000
16.992617 -13.560174 1.866833 11.000000
-7.214612 -13.483434 1.851922 53.000000
-7.217363 -13.387299 1.841824 16.000000
-6.809197 -13.323536 1.812008 5.000000
-16.976267 -13.220427 1.847668 0.000000
-6.841930 -13.284428 1.809604 21.000000
-12.334951 -13.144593 1.864065 4.500000
-17.150581 -13.013282 1.848695 3.000000
-17.062101 -13.030818 1.843562 8.000000
17.530960 -13.024388 1.875389 52.000000
17.178133 -12.930558 1.846299 14.000000
17.030367 -12.735708 1.826108 9.000000
-8.674959 -12.603216 1.852884 10.500000
-8.586382 -12.601333 1.846633 20.000000
-8.796426 -12.567266 1.857693 32.000000
-8.985859 -12.459249 1.860338 5.000000
-8.810850 -12.462420 1.848316 9.500000
-9.778708 -12.253961 1.898569 16.000000
-9.810575 -12.136689 1.889913 26.000000
-9.774884 -12.170547 1.890394 26.000000
-8.754320 -12.178441 1.816336 23.000000
-8.745979 -12.086538 1.806718 16.000000
-8.793572 -11.992918 1.800948 24.000000
18.004154 -11.219682 1.821659 11.000000
18.025759 -11.154675 1.820290 4.000000
18.805582 -11.112711 1.875731 11.000000
-18.433973 -11.028133 1.844588 4.000000
-19.211479 -10.635970 1.885655 44.666668
-19.432751 -10.336929 1.890104 17.000000
-19.052780 -10.058139 1.850064 1.000000
-19.087311 -9.923530 1.847326 18.000000
-11.830910 -9.888667 1.867311 1.000000
-19.357626 -9.228964 1.841508 17.000000
-19.426105 -9.149534 1.843904 26.000000
-9.228130 -9.116054 1.801106 9.500000
-19.485027 -9.028117 1.844075 26.000000
-19.569054 -8.955278 1.848011 26.000000
-19.914619 -8.887390 1.872651 4.000000
-19.621914 -8.867863 1.849037 15.500000
-9.842717 -8.708099 1.824761 0.000000
-10.002368 -8.627721 1.834113 3.000000
-9.837295 -8.648358 1.818710 5.000000
-19.966246 -8.278442 1.856053 12.500000
-10.585033 -8.116427 1.852084 13.666667
-10.799507 -8.084942 1.873172 14.000000
-10.605362 -8.026614 1.846766 15.666667
-10.196391 -8.015176 1.800831 5.500000
-10.821321 -7.995749 1.868221 5.000000
-10.326351 -7.935149 1.808258 0.000000
7.422789 -7.926617 1.897242 47.000000
-10.822493 -7.839934 1.855568 5.000000
7.442449 -7.872934 1.892767 53.500000
7.514155 -7.834558 1.896553 34.799999
-10.835841 -7.491910 1.829162 3.000000
-9.419287 -7.492351 1.886466 23.333334
-9.325485 -7.497885 1.875523 32.000000
-10.738485 -7.374838 1.808808 48.000000
-9.334351 -7.337484 1.860967 25.500000
-11.018861 -6.971217 1.810458 40.000000
17.249315 -4.858311 1.853161 10.000000
17.672724 -4.619872 1.888957 3.000000
17.026659 -4.336877 1.816954 2.000000
17.169422 -4.258545 1.829297 11.000000
17.244555 -4.219716 1.835881 7.000000
17.016600 -4.079042 1.809548 11.000000
17.120872 -4.018816 1.818600 14.000000
17.160547 -3.971290 1.821480 13.000000
17.436718 -3.977530 1.849458 2.000000
17.053175 -3.833719 1.807491 14.000000
-6.553058 -3.618747 1.858546 207.100006
17.359871 -3.531864 1.831972 27.000000
-6.574625 -3.481177 1.847012 255.000000
17.503172 -3.475247 1.845344 18.000000
17.783449 -3.472860 1.873734 1.000000
-13.106898 -3.389674 1.879774 10.000000
-6.594609 -3.334163 1.834643 255.000000
-6.615038 -3.176583 1.821906 255.000000
17.334490 -3.103352 1.821068 90.000000
17.853584 -3.138432 1.874557 15.000000
-6.632800 -3.020019 1.809423 255.000000
-6.646058 -2.925730 1.802836 255.000000
-11.571530 -2.876578 1.868916 26.666666
17.391743 -2.888541 1.823126 18.000000
-11.565100 -2.797892 1.864993 2.000000
17.327782 -2.710359 1.813662 42.000000
18.055931 -2.766172 1.888957 57.000000
17.785164 -2.667532 1.859745 95.000000
17.781879 -2.552905 1.857687 78.000000
18.101088 -2.540720 1.890192 4.000000
18.045908 -2.475192 1.883609 54.000000
17.588257 -2.356148 1.835058 41.000000
18.163158 -2.317089 1.893483 18.000000
-6.728757 -2.258645 1.818331 255.000000
-6.744717 -2.121465 1.822558 255.000000
17.653112 -2.195682 1.839584 13.000000
17.916082 -2.142701 1.865916 42.500000
17.991692 -2.008554 1.872088 33.000000
-6.761045 -1.989671 1.843423 255.000000
15.411777 -1.916906 1.880776 1.000000
17.942537 -1.946014 1.866328 22.000000
-6.783363 -1.832834 1.877940 216.833328
-15.551827 -1.747164 1.895203 16.000000
-6.819676 -1.750983 1.881727 0.000000
17.837336 -1.764684 1.853573 17.000000
17.764875 -1.644870 1.844932 102.000000
18.273251 -1.634059 1.897186 33.000000
17.398273 -1.500735 1.805845 0.000000
-6.803865 -1.320069 1.852293 70.500000
-6.738090 -1.373262 1.837834 0.000000
-15.282393 -1.256370 1.856972 14.000000
-6.817098 -1.222926 1.851038 255.000000
-15.226874 -1.051464 1.848396 15.333333
-6.837432 -1.071962 1.849711 255.000000
-15.046241 -0.975632 1.825954 5.000000
-6.856071 -0.920882 1.848825 255.000000
18.275097 -0.999340 1.892660 23.000000
-6.867940 -0.786226 1.847530 170.555557
-6.827862 -0.634633 1.832670 0.000000
-6.856732 -0.496348 1.837317 0.000000
17.747854 -0.439934 1.835881 9.500000
-6.863124 -0.334451 1.836432 0.000000
17.419580 -0.349681 1.801730 14.000000
-6.875358 -0.205310 1.838350 0.000000
-9.689025 -0.106539 1.867854 46.000000
-9.701095 -0.076194 1.870126 61.000000
-9.563865 -0.022615 1.843626 21.500000
-10.470887 0.133098 1.829503 27.600000
-11.546760 0.258103 1.810280 15.666667
-10.699708 0.216656 1.869706 0.000000
-11.601191 0.344317 1.819158 18.000000
-11.800445 0.486260 1.851160 18.000000
-11.871785 0.557799 1.862825 16.500000
-12.068968 0.719121 1.895034 12.000000
-12.005791 0.810050 1.886053 0.000000
-11.844403 1.031237 1.863507 18.200001
-12.040666 1.116981 1.895344 53.000000
-13.117110 1.717582 1.836864 2.000000
-3.273455 5.946959 1.814252 21.000000
-3.153251 5.978142 1.806334 62.000000
-3.308422 6.085689 1.851260 65.500000
-4.162999 6.132712 1.840265 29.666666
-4.179530 6.297853 1.876569 39.000000
-4.038181 6.297366 1.857293 41.000000
-4.268858 6.345553 1.898737 2.000000
-4.139596 6.389022 1.890063 9.000000
-3.846298 6.321113 1.837052 8.500000
-4.034890 6.409716 1.880424 3.333333
-3.852129 6.429167 1.860827 10.000000
-3.795340 6.487148 1.865967 12.000000
-2.937449 6.758852 1.829663 19.333334
-3.123504 6.831770 1.865003 39.000000
-3.951042 7.081134 1.862536 31.000000
-3.473876 7.062961 1.807914 31.000000
-3.974126 7.202089 1.889400 47.000000
-2.995889 7.396495 1.832986 1.000000
-3.239865 7.454739 1.867013 0.000000
-2.991518 7.452903 1.844627 1.000000
-3.178584 7.506482 1.872386 16.000000
-3.994267 7.718937 1.834374 28.833334
-3.570497 7.787765 1.808215 11.333333
-3.560436 7.852582 1.819780 10.000000
-3.340416 8.173209 1.863561 2.000000
12.794970 8.497740 1.860098 11.000000
12.653438 8.518805 1.847274 60.000000
12.891213 8.503418 1.870196 14.000000
13.054190 8.522830 1.887990 26.000000
12.621263 8.632283 1.851762 83.666664
14.993900 8.842661 1.800085 49.000000
15.414289 8.895857 1.840407 0.000000
15.217318 8.910105 1.823537 83.000000
15.355308 8.926242 1.836704 83.000000
-9.530735 9.146037 1.834113 1.000000
-9.473456 9.148410 1.828612 9.000000
-9.166812 9.250387 1.808258 20.000000
6.767649 9.287474 1.801196 255.000000
6.914623 9.303609 1.816887 145.333328
7.052922 9.366344 1.837740 45.000000
7.301296 9.325089 1.856322 18.000000
7.398227 9.327476 1.866026 33.666668
-9.428806 9.425600 1.851167 4.500000
-9.274393 9.447540 1.838239 6.500000
7.224360 9.469408 1.866852 44.333332
7.320198 9.440595 1.872426 38.500000
-9.097496 9.593469 1.835764 27.000000
-9.388586 9.654494 1.869871 4.000000
-9.282516 9.635830 1.857769 1.000000
-9.258885 9.702420 1.862170 7.000000
-9.256392 9.884633 1.880324 8.000000
-9.132856 9.954569 1.875785 19.250000
-9.044088 9.967241 1.868771 18.000000
-8.935814 10.196482 1.882524 26.500000
-8.861686 10.208587 1.877023 27.000000
-9.438681 11.684985 1.819061 12.666667
-9.258805 11.698313 1.806718 12.000000
-9.472973 12.085679 1.859617 11.000000
-13.045033 12.752321 1.886489 20.000000
4.401500 12.764874 1.874823 134.250000
4.514766 12.735065 1.876106 255.000000
4.677285 12.746597 1.885275 255.000000
4.841975 12.759887 1.894994 255.000000
4.972558 12.740809 1.899028 4.000000
-12.975984 12.845293 1.888134 23.000000
-11.745812 12.940222 1.807216 6.333333
-12.915970 13.029180 1.897186 4.000000
7.158358 13.080426 1.805757 42.000000
-12.343901 13.177138 1.867151 28.000000
-11.751074 13.110586 1.820657 2.000000
-11.390099 13.200219 1.802965 4.000000
7.255509 13.110792 1.814653 47.500000
7.374684 13.130733 1.823790 49.000000
7.522633 13.151060 1.834771 48.666668
7.671963 13.171118 1.845911 47.500000
7.827526 13.198637 1.858334 46.000000
7.984625 13.225758 1.870918 44.500000
8.108006 13.241364 1.880295 44.500000
8.267786 13.267091 1.893119 44.333332
-12.456965 13.381856 1.890603 31.000000
-12.433779 13.441367 1.893483 2.000000
6.493333 13.480277 1.812008 42.000000
6.486124 13.629038 1.827878 45.000000
10.795862 13.660046 1.800496 43.000000
10.954830 13.683575 1.812634 41.500000
6.462317 13.745706 1.839419 45.000000
11.119529 13.711821 1.825594 44.500000
11.285017 13.738531 1.838555 43.500000
11.451277 13.763699 1.851516 43.000000
11.577404 13.782750 1.861390 43.000000
11.706583 13.803852 1.871677 44.500000
11.876048 13.826607 1.884843 45.000000
12.006210 13.845692 1.895129 44.000000
6.436661 13.917591 1.856972 45.500000
6.411574 14.095112 1.875246 46.500000
-15.712143 14.196949 1.818408 3.000000
6.393138 14.232022 1.889432 44.000000
-15.536053 14.351322 1.816184 4.000000
6.375865 14.313702 1.897607 47.000000
15.324961 14.355902 1.803179 46.000000
15.493259 14.376976 1.814986 47.500000
15.673766 14.407719 1.828162 47.000000
15.789572 14.422915 1.836375 45.000000
15.911530 14.442882 1.845273 47.000000
16.089094 14.466258 1.857935 45.500000
16.270145 14.491078 1.870940 47.000000
16.393185 14.508567 1.879837 48.000000
16.525471 14.533319 1.889762 48.000000
16.649071 14.549516 1.898660 51.000000
-13.770190 17.120544 1.886682 3.000000
-13.748684 17.204191 1.891131 21.000000
5.959852 17.250116 1.887312 29.000000
-11.945526 17.925016 1.849722 4.500000
-11.292327 18.348242 1.850064 28.000000
-11.663285 18.428247 1.872765 9.333333
-11.157142 18.451687 1.851604 11.500000
-10.963745 18.657448 1.858277 11.500000
5.450795 20.328451 1.807286 33.000000
5.427707 20.499578 1.820975 35.000000
5.411660 20.701605 1.837402 41.000000
5.387426 20.876719 1.851433 42.000000
16.427193 20.852762 1.815311 7.000000
16.888628 20.892971 1.837142 37.000000
5.362145 21.051884 1.865464 38.000000
17.422422 21.007778 1.866342 36.000000
5.333874 21.219366 1.878811 39.000000
15.995881 21.250391 1.818858 15.000000
16.103531 21.254107 1.823498 36.000000
16.225883 21.276396 1.829774 33.000000
16.346104 21.294960 1.835778 36.000000
5.306520 21.394611 1.892842 39.000000
16.525764 21.320131 1.844647 35.000000
16.703493 21.341082 1.853243 35.000000
16.971136 21.404570 1.867980 13.000000
17.080612 21.404175 1.872619 33.000000
17.207747 21.425081 1.879169 33.000000
17.457870 21.458939 1.891722 28.000000
-13.226350 23.772814 1.860339 9.000000
-13.109150 23.737396 1.854335 14.000000
-13.823585 23.837376 1.884354 30.666666
11.338840 23.825859 1.804395 30.000000
-12.913298 23.912561 1.858428 3.000000
11.318447 23.976845 1.813128 33.000000
11.293832 24.120708 1.821314 33.000000
11.270106 24.268272 1.829774 32.000000
11.250571 24.426798 1.839053 31.000000
11.225177 24.574549 1.847512 33.000000
11.203905 24.733286 1.856791 34.000000
11.178475 24.884851 1.865524 35.000000
9.898166 24.910954 1.833049 31.000000
11.153828 25.040144 1.874529 34.000000
11.131539 25.202827 1.884081 34.000000
11.101933 25.350994 1.892541 33.000000
2.381464 26.631290 1.828410 2.000000
-15.029980 33.380871 1.865397 11.000000
-15.968470 33.478580 1.890027 4.000000
-15.835871 33.470810 1.886770 7.000000
-15.217345 33.515362 1.875575 7.000000
11.135238 33.551903 1.801344 37.666668
11.299466 33.575680 1.805144 58.000000
11.421610 33.589188 1.807790 57.000000
11.542652 33.598473 1.810233 55.000000
-15.680882 33.689167 1.893488 9.000000
-15.004831 33.606667 1.875371 4.000000
-14.918591 33.697468 1.877814 7.000000
11.706057 33.615181 1.813761 39.333332
13.593683 33.917942 1.861936 13.000000
13.859356 33.961315 1.869061 15.000000
13.994879 33.987789 1.872929 56.000000
14.124575 33.998993 1.875982 52.000000
14.259111 34.020771 1.879646 49.000000
14.395478 34.045715 1.883513 51.000000
14.527444 34.059116 1.886770 10.000000
14.939099 34.129284 1.898373 23.000000
8.401257 35.319466 1.849927 22.000000
8.582711 35.341541 1.853184 57.500000
8.764508 35.362797 1.856440 56.000000
8.887239 35.381580 1.858883 59.000000
9.005248 35.380589 1.860308 3.000000
9.133312 35.417881 1.863768 54.000000
9.295787 35.433365 1.866618 34.333332
10.260404 35.594631 1.887585 16.000000
-8.077154 -38.196682 1.989363 8.000000
-7.944911 -38.163200 1.986310 4.000000
-8.934657 -37.561909 1.967379 2.000000
-4.585475 -28.724363 1.989146 8.000000
-6.275320 -28.329527 1.984234 10.000000
-4.889743 -28.338070 1.966496 16.000000
-4.756795 -28.364700 1.966769 30.000000
-4.623728 -28.390776 1.967041 17.000000
-6.632637 -28.256208 1.984780 11.000000
-5.426766 -28.260468 1.967860 13.000000
-5.240357 -28.246922 1.964585 14.000000
-4.961473 -28.224308 1.959673 31.000000
-5.137993 -28.188652 1.959400 31.000000
-7.436975 -28.088266 1.986963 21.000000
-7.325482 -28.022690 1.980686 28.000000
-6.720147 -28.034443 1.971408 12.000000
-5.529009 -28.077930 1.956944 12.000000
-5.029015 -28.090736 1.951486 15.000000
-4.345702 -28.071239 1.942481 10.500000
-4.162764 -28.054571 1.939479 2.000000
-4.026541 -28.046261 1.937569 2.000000
-5.685406 -27.944878 1.950122 18.500000
6.273525 -27.413645 1.923105 33.000000
6.352398 -27.362701 1.920922 55.000000
6.450221 -27.393106 1.924469 12.000000
-8.404420 -27.200712 1.946847 1.000000
-8.487453 -27.166557 1.946301 4.000000
-6.804617 -17.443941 1.936274 4.000000
-6.666592 -17.249977 1.912410 7.000000
15.609757 -16.874722 1.973949 0.000000
-9.636333 -16.663664 1.990585 21.000000
16.159502 -16.611376 1.990034 1.000000
-15.875761 -16.342514 1.956496 0.000000
-8.374299 -16.385967 1.902947 4.000000
-9.382275 -15.934328 1.912204 31.250000
15.525907 -15.960062 1.912006 1.000000
-15.612004 -15.870263 1.911664 10.000000
-9.462861 -15.842645 1.908295 42.000000
15.562028 -15.896971 1.910295 12.000000
-15.686098 -15.746444 1.908584 5.000000
-9.716820 -15.702205 1.909530 40.000000
-9.543609 -15.774547 1.906567 46.000000
-4.234074 -15.790752 1.979840 1.000000
-9.640362 -15.688585 1.904181 49.000000
-5.104228 -15.644146 1.992824 34.000000
15.744183 -15.634644 1.905333 5.000000
-9.750606 -15.592129 1.901712 27.000000
16.557945 -15.587055 1.952731 3.000000
16.670858 -15.594859 1.960260 4.000000
-4.350243 -15.445755 1.943292 9.000000
-11.398962 -15.343123 1.976596 19.000000
-10.666096 -15.340789 1.932159 1.000000
-11.735463 -15.288429 1.993054 1.000000
16.899649 -15.221855 1.953073 4.000000
17.024597 -15.237795 1.961971 1.000000
17.155857 -15.210234 1.968816 13.000000
-11.742727 -15.149635 1.982150 6.500000
-11.499811 -15.177924 1.969190 6.000000
-5.330017 -15.194629 1.950025 15.000000
16.612291 -15.153160 1.930829 7.000000
-11.779994 -15.001972 1.972481 8.500000
-10.917503 -15.037674 1.921667 12.500000
16.423679 -15.075914 1.914402 8.000000
-12.108455 -14.979403 1.991819 3.000000
-11.964481 -14.992851 1.983590 17.000000
-6.894120 -14.968241 1.995710 15.000000
-6.780272 -14.967857 1.989939 38.000000
-6.274561 -14.963130 1.964933 38.000000
-11.354414 -14.888624 1.936274 4.000000
-7.013410 -14.737003 1.976474 13.000000
-6.302945 -14.454308 1.909630 15.000000
-13.114788 -14.019670 1.985236 0.000000
-7.621600 -13.926909 1.922614 8.000000
-7.889567 -13.843168 1.929587 8.000000
-7.617383 -13.815960 1.910591 13.000000
17.845646 -13.832523 1.938871 23.500000
-12.734864 -13.786152 1.940800 41.000000
-8.095097 -13.797707 1.937281 5.500000
-7.741405 -13.733179 1.909149 5.000000
-7.629900 -13.736419 1.902897 5.000000
18.195215 -13.785908 1.960260 32.000000
-7.880978 -13.628315 1.906504 15.000000
-13.071747 -13.456059 1.939977 20.000000
-4.685174 -13.484294 1.982097 9.000000
18.448603 -13.438165 1.959918 25.000000
18.120111 -13.373947 1.933909 5.000000
-13.861381 -13.149362 1.975773 22.000000
-9.149068 -13.158884 1.940888 14.000000
18.693239 -13.171980 1.963682 20.000000
18.179947 -13.068429 1.922615 21.000000
18.735437 -13.070091 1.961629 14.500000
-9.762712 -12.969680 1.965894 18.000000
-10.124180 -12.851688 1.981283 14.000000
-10.034807 -12.820888 1.971665 33.000000
-4.708859 -12.895454 1.906180 0.000000
18.570606 -12.825357 1.938016 13.000000
-5.073002 -12.760859 1.906730 6.000000
-9.799465 -12.601573 1.933194 19.000000
-9.712114 -12.611403 1.927663 51.500000
-9.623046 -12.659550 1.925740 38.000000
18.575071 -12.656810 1.930144 2.000000
-13.514388 -12.501324 1.903769 4.000000
-5.793394 -12.572613 1.922133 1.000000
-10.311543 -12.473391 1.959883 24.000000
-10.359215 -12.358794 1.952910 2.333333
-10.014050 -12.309114 1.921652 11.000000
-6.674845 -12.375825 1.952390 11.000000
18.995945 -12.340825 1.945202 32.000000
19.088202 -12.315657 1.950678 10.000000
-10.414816 -12.280748 1.950025 19.000000
-10.508310 -12.195558 1.949544 51.666668
19.067699 -12.133435 1.940753 19.000000
-11.079605 -12.070106 1.984168 32.000000
