# This PCD file was generated using the MATLAB® pcwrite function
# from Computer Vision Toolbox®.
# .PCD v.7 - Point Cloud Data file format
VERSION .7
FIELDS x y z intensity
SIZE 4 4 4 4
TYPE F F F F
COUNT 1 1 1 1
WIDTH 1219
HEIGHT 1
VIEWPOINT 0 0 0 1 0 0 0
POINTS 1219
DATA ascii
6.924170 13.502031 2.925068 22.666666
6.891769 13.631655 2.944501 21.000000
6.865486 13.794239 2.970244 6.000000
-13.610568 16.658371 2.986898 46.500000
-13.454592 16.680378 2.975621 63.500000
-13.380786 16.749819 2.976721 55.000000
6.281651 17.807995 2.959771 25.000000
5.995926 18.077003 2.985166 49.500000
5.850995 18.115393 2.983824 45.000000
2.552541 20.758976 2.904104 15.500000
3.383440 20.752272 2.919508 31.000000
2.194756 20.811823 2.905755 3.000000
2.297093 20.840611 2.911256 7.500000
2.392613 20.805960 2.907955 8.000000
2.737642 20.907236 2.927760 16.000000
2.043540 21.300905 2.971220 0.000000
5.109340 23.413918 2.902195 6.000000
-14.727472 24.794037 2.982174 1.000000
4.508256 27.681732 2.900296 1.000000
4.468938 27.994368 2.931566 10.000000
4.385746 28.627560 2.994929 14.000000
-16.167025 29.714100 2.904799 47.000000
-16.100113 29.813833 2.909590 6.000000
19.897503 -39.169281 3.004323 9.000000
17.833521 -31.354441 3.097471 1.000000
17.852882 -30.934561 3.067013 12.000000
16.877146 -30.788458 3.014995 15.000000
17.583244 -30.689651 3.037240 3.000000
18.785038 -30.522703 3.077622 2.000000
18.605927 -30.445545 3.063933 4.000000
18.962494 -29.960958 3.044769 3.000000
19.609848 -29.932770 3.072831 8.000000
19.276627 -29.626776 3.035186 59.000000
19.629965 -29.556656 3.046822 14.000000
-5.063920 -29.347502 3.079688 6.000000
-6.469152 -29.204573 3.093265 10.000000
-6.291377 -29.271873 3.096146 6.000000
-5.888417 -29.177011 3.078042 1.000000
19.603842 -29.118675 3.014311 9.000000
-7.915685 -28.796610 3.088328 1.000000
-6.538367 -28.662941 3.040189 8.000000
-7.319639 -28.549404 3.047801 4.000000
-5.934466 -28.481161 3.008507 4.000000
-9.402336 -27.922350 3.046772 2.000000
-9.804110 -23.175714 3.047425 10.000000
-10.407996 -22.976274 3.054638 14.000000
-10.455380 -22.889284 3.047425 5.000000
-7.874378 -20.751268 3.081795 19.000000
-7.902683 -20.630234 3.067491 18.000000
-8.593731 -20.128244 3.038885 2.000000
-9.568142 -19.934525 3.070242 1.000000
-9.540586 -19.406132 3.002577 9.000000
16.130705 -19.422628 3.057523 9.000000
-10.213857 -19.274343 3.028799 6.666667
15.676053 -19.241302 3.005587 5.000000
16.462225 -19.200022 3.062813 11.000000
15.723836 -19.176607 3.003182 7.000000
16.222515 -19.101757 3.034921 21.000000
16.060703 -19.092983 3.021456 6.000000
16.936096 -18.895485 3.072912 7.000000
16.260447 -18.844559 3.014243 3.000000
16.960802 -18.803852 3.066660 15.000000
17.161594 -18.827227 3.085095 31.666666
17.209824 -18.722103 3.079645 8.000000
17.427231 -18.721144 3.097438 7.000000
17.149910 -18.539682 3.058485 4.000000
-6.720405 -18.404175 3.070952 3.000000
-6.038705 -18.302212 3.020781 11.000000
17.315710 -18.368557 3.057043 20.000000
-6.287493 -18.280939 3.030072 0.000000
-6.359045 -18.118021 3.009632 3.000000
17.860346 -18.130459 3.082049 3.000000
-7.051640 -18.067879 3.039983 4.000000
17.154692 -18.083597 3.018571 29.000000
17.780045 -17.711899 3.039249 14.000000
-8.943126 -17.627867 3.098206 8.000000
-8.066464 -17.651236 3.041841 4.000000
-7.794508 -17.639151 3.022640 7.000000
-17.659697 -17.506260 3.011358 19.000000
17.745289 -17.566561 3.023861 10.000000
17.761608 -17.363113 3.007991 39.000000
17.978905 -17.247177 3.017128 14.000000
17.992762 -17.152248 3.010396 34.000000
-6.131520 -16.629148 3.096442 50.000000
18.793076 -16.609173 3.037326 1.000000
-5.791268 -16.500328 3.055138 16.000000
-10.635246 -16.252361 3.044318 11.000000
-11.017851 -15.947450 3.038124 2.000000
19.844303 -15.886862 3.078443 29.000000
19.866619 -15.599859 3.058966 7.500000
19.596895 -15.537877 3.028670 36.000000
19.689177 -15.311051 3.020495 15.000000
19.882637 -15.261998 3.035402 3.000000
19.608341 -15.149584 3.000778 34.000000
19.989218 -14.850718 3.015686 36.000000
-9.563644 -14.715477 3.066152 15.000000
-9.601511 -14.622470 3.056170 25.000000
-9.871939 -14.515201 3.066840 24.666666
-9.696642 -14.537271 3.052935 22.799999
-9.939345 -14.483487 3.068906 0.000000
-10.066077 -14.280152 3.052384 62.000000
-10.026518 -14.129560 3.026913 0.000000
-10.748782 -14.043633 3.089730 47.000000
-10.872752 -13.976727 3.093688 36.000000
-10.018338 -13.978077 3.004540 7.000000
-11.394345 -13.560019 3.094377 28.000000
-11.344439 -11.167627 3.068672 3.000000
7.344659 -10.009524 3.082315 14.000000
7.379583 -9.925763 3.070750 42.000000
7.465190 -9.910238 3.080388 25.000000
-9.890779 -9.142942 3.093780 15.000000
-9.886162 -8.910919 3.057067 49.000000
-9.779171 -8.898363 3.036919 14.000000
-15.115791 -8.531219 3.032420 0.000000
-15.128765 -8.475988 3.029667 5.000000
-15.166513 -8.310302 3.021406 20.000000
-15.556910 -7.930091 3.050663 33.500000
-15.539594 -7.829198 3.039993 28.000000
-15.619045 -7.624664 3.036551 2.000000
-14.086718 -7.401919 3.067536 13.000000
16.096611 -7.052521 3.070282 1.000000
16.173222 -6.935173 3.074413 2.500000
18.056475 -6.916773 3.030692 8.000000
18.160927 -6.858850 3.042770 2.500000
16.067329 -6.740889 3.044123 11.000000
16.062960 -6.679787 3.039304 2.000000
18.499521 -6.689430 3.083340 2.000000
15.879857 -6.545204 3.000754 2.000000
16.369316 -6.448044 3.073725 0.000000
18.217144 -6.458187 3.029453 14.000000
18.128517 -6.171452 3.001580 4.000000
18.493576 -5.590584 3.028214 8.000000
18.924776 -5.526821 3.090153 5.000000
16.595329 -5.475531 3.053072 6.000000
18.573814 -5.487713 3.035647 12.000000
18.516808 -5.344603 3.020781 8.000000
19.056093 -5.177427 3.095109 2.000000
16.865379 -4.925391 3.069594 4.000000
15.271588 -4.829770 3.087600 3.000000
16.702837 -4.821027 3.037239 4.000000
18.568672 -4.795269 3.005916 6.000000
18.755964 -4.780836 3.033789 23.000000
18.626337 -4.499304 3.003438 32.000000
-11.479692 -4.358434 3.048581 8.000000
16.821009 -4.343944 3.035174 37.000000
-11.332152 -4.221263 3.002318 46.000000
15.357507 -4.175421 3.067914 24.000000
18.707832 -4.147427 3.003438 3.000000
-15.304986 -4.006620 3.049743 4.000000
15.465804 -3.996850 3.079272 26.000000
-15.161584 -3.918229 3.018701 11.000000
-11.451870 -3.860655 3.000390 33.000000
15.365230 -3.842432 3.053150 2.000000
19.251377 -3.888751 3.078385 21.000000
-15.171628 -3.667600 3.008858 29.000000
19.085375 -3.668356 3.046176 1.000000
-13.863309 -3.397456 3.012591 8.000000
-13.870109 -3.352970 3.011765 9.000000
19.415924 -3.353712 3.088295 5.000000
-10.896012 -3.258600 3.039474 69.000000
16.959969 -3.259836 3.017275 16.000000
19.432714 -3.231005 3.087676 11.000000
-14.068599 -3.028891 3.037372 10.000000
17.113857 -3.011476 3.035862 82.000000
-11.920831 -2.961151 3.049545 4.000000
18.978186 -2.971904 3.010871 18.000000
-14.216798 -2.874355 3.061328 19.000000
19.093159 -2.867111 3.026201 16.500000
-12.167542 -2.780032 3.098700 0.000000
19.469782 -2.611659 3.079004 1.000000
17.363543 -2.384685 3.062022 1.000000
19.156061 -2.355500 3.025117 7.500000
-11.147292 -2.253762 3.039474 34.000000
15.888750 -2.286773 3.094414 14.000000
17.385616 -2.248772 3.062710 8.500000
-14.513077 -2.158620 3.096848 12.000000
19.116756 -2.076743 3.013968 3.000000
-12.274217 -1.983560 3.086894 29.500000
-13.256869 -1.526842 3.065126 0.000000
-14.227877 -1.322387 3.015895 16.000000
-13.057832 -1.337880 3.014981 28.000000
-11.171210 -1.322200 3.006425 3.000000
-13.015532 -1.250960 3.003340 6.000000
-11.169604 -1.233118 3.003327 34.000000
-13.220942 -1.145058 3.048112 0.000000
-13.262849 -1.064773 3.056171 4.000000
-12.263772 -1.023354 3.055328 24.000000
-12.213073 -0.941856 3.041192 32.000000
-12.125919 -0.782022 3.016775 20.000000
-13.171590 -0.372492 3.026621 1.000000
-13.209986 -0.228274 3.034680 18.000000
-14.274355 -0.179395 3.013004 5.000000
-11.441342 0.057887 3.057835 10.000000
-14.684038 0.115331 3.099326 17.000000
-14.302395 0.426985 3.020025 0.000000
-14.269691 0.470880 3.013417 25.000000
-14.252495 0.515146 3.010113 0.000000
-12.744495 9.584592 3.073972 24.000000
-12.717108 9.705386 3.083814 5.000000
-10.980263 9.649791 3.085283 0.000000
-10.871447 9.840367 3.094920 16.000000
4.221691 10.517670 3.028940 18.200001
4.371694 10.507373 3.041540 10.666667
4.461710 10.536685 3.058064 6.000000
4.536281 10.588915 3.078720 4.000000
4.086320 10.612257 3.039216 10.750000
4.025142 10.754380 3.068908 5.500000
-9.627197 10.885395 3.067110 21.000000
4.005887 10.858431 3.093179 1.000000
-11.105602 11.001428 3.013401 2.000000
-9.259124 10.944992 3.025808 3.000000
7.063810 11.015554 3.005728 45.000000
7.227812 11.040906 3.031099 49.666668
7.394361 11.066297 3.057067 47.333332
7.532523 11.083698 3.078110 50.000000
7.616639 11.094719 3.091094 48.000000
-11.180165 11.191852 3.049491 24.666666
-10.901217 11.143625 3.005072 23.000000
-10.879846 11.191896 3.008858 3.000000
-11.068171 11.208054 3.036493 7.500000
6.790941 11.239801 3.016324 45.500000
8.729179 11.253539 3.005983 47.000000
8.857756 11.272324 3.025808 45.000000
8.984467 11.286874 3.044807 44.000000
6.769063 11.388781 3.043098 32.799999
9.089026 11.308511 3.062154 47.000000
9.184158 11.317179 3.076197 40.000000
9.284499 11.331331 3.091892 41.000000
-10.859816 11.552385 3.056431 16.166668
-10.774653 11.655925 3.059838 32.000000
-10.687103 11.707973 3.055800 0.000000
12.480185 11.797717 3.000409 40.000000
12.617586 11.815592 3.020029 41.000000
12.756927 11.833655 3.039993 39.500000
12.951611 11.863719 3.068562 37.000000
13.096347 11.883375 3.089558 38.000000
-18.659071 11.960523 3.077394 24.000000
-18.604763 12.008337 3.074643 8.000000
14.910067 12.143030 3.013968 35.000000
15.024940 12.158276 3.029453 34.000000
15.133896 12.167966 3.043699 27.000000
14.668736 12.295485 3.000032 52.000000
14.654408 12.401481 3.009013 43.000000
14.642453 12.470518 3.014587 43.000000
14.587703 12.582879 3.019542 35.000000
17.765574 12.574053 3.022106 54.500000
17.943073 12.573211 3.042186 40.000000
18.083290 12.586946 3.059239 34.000000
18.187922 12.575138 3.070242 2.000000
14.432897 12.688538 3.012110 68.000000
17.721289 12.696579 3.026966 53.000000
14.579423 12.898785 3.051132 52.000000
14.572966 13.016048 3.062591 50.500000
17.292276 13.030664 3.006428 7.000000
17.415590 13.038011 3.020731 17.000000
17.539120 13.044708 3.035034 35.000000
17.653307 13.043697 3.047687 15.000000
14.592214 13.157346 3.079624 21.000000
6.783610 14.183805 3.030815 28.000000
6.855484 14.162320 3.033086 0.000000
6.350732 14.550123 3.060343 48.500000
6.445606 14.538426 3.065643 35.333332
6.309471 14.707067 3.084950 38.500000
6.595060 15.859217 3.000754 23.000000
6.571039 16.014067 3.024159 5.500000
-13.942132 16.793379 3.030633 60.000000
-13.841404 16.779022 3.020181 50.000000
-13.508131 17.073708 3.022931 42.000000
-13.530217 17.268145 3.046036 32.000000
-12.629215 18.266134 3.083445 9.000000
5.798716 18.346504 3.015826 36.000000
5.777602 18.481556 3.035028 31.000000
5.930387 21.297651 3.069692 1.000000
5.848763 21.394123 3.079594 30.500000
5.396128 21.594433 3.090597 62.500000
5.531203 21.605223 3.096648 48.666668
2.150305 21.696533 3.027332 0.000000
2.030043 21.883198 3.051538 0.000000
2.995095 21.808105 3.056489 4.000000
2.872930 21.940418 3.072443 1.000000
2.573253 22.071293 3.085371 0.500000
-15.649542 24.640730 3.018588 33.000000
5.346164 24.874079 3.081087 5.000000
-14.752592 25.014965 3.003158 0.000000
4.903777 25.110731 3.098399 60.000000
-14.814653 25.301538 3.031960 5.000000
-14.743096 25.361712 3.033606 2.000000
4.328247 28.857607 3.017559 1.000000
17.879951 -32.256142 3.166943 6.000000
18.879274 -31.783684 3.174472 2.000000
18.378475 -31.163139 3.106711 8.000000
-4.679775 -30.546812 3.195716 9.000000
-5.490109 -30.120474 3.166092 6.000000
-4.715461 -30.146725 3.155394 5.000000
-4.521818 -30.148214 3.152514 5.000000
-4.231953 -30.150089 3.148399 2.000000
-7.142687 -30.005081 3.189544 11.000000
-5.085942 -30.038013 3.150457 3.000000
-7.817856 -29.906204 3.196539 16.000000
-7.321611 -29.920965 3.185430 18.000000
-5.260801 -29.927090 3.142228 9.000000
-6.655120 -29.603350 3.137702 4.000000
6.008703 -29.428631 3.106020 20.500000
6.150601 -29.415598 3.107666 40.000000
-6.970385 -29.281275 3.112603 7.000000
-8.681358 -29.065443 3.136879 22.000000
-8.524653 -28.871252 3.113015 21.000000
-9.605653 -20.256805 3.112877 6.500000
17.058998 -19.644901 3.150817 5.000000
17.349409 -19.479397 3.158992 14.000000
16.901136 -19.340042 3.110422 10.000000
-7.235748 -19.068293 3.196689 6.000000
-7.260278 -18.953211 3.181204 4.000000
-17.651966 -18.869900 3.129177 2.000000
-17.775639 -18.764385 3.130138 3.000000
17.875946 -18.608330 3.124849 24.000000
18.108524 -18.152824 3.105132 6.000000
-8.852042 -17.863626 3.124840 11.000000
-8.846318 -17.711992 3.103161 6.000000
-8.900143 -17.680582 3.102541 3.000000
-10.380186 -17.496136 3.188637 1.000000
-4.415041 -17.551085 3.161840 0.000000
18.925261 -17.592598 3.129177 18.000000
-10.457430 -17.438530 3.187088 10.500000
-4.329504 -17.442492 3.139811 0.000000
-5.114560 -17.310841 3.153579 14.000000
-4.660564 -17.369205 3.141876 3.000000
19.339302 -17.309561 3.143123 32.000000
-5.151994 -17.238056 3.143253 8.000000
19.665682 -17.270647 3.169572 5.000000
-6.416864 -17.153641 3.199703 12.500000
-5.657932 -17.057903 3.139811 8.000000
-5.391248 -17.057322 3.125355 2.000000
-5.204599 -17.087715 3.120765 11.000000
-6.558923 -16.962524 3.177329 13.500000
-6.177909 -16.918524 3.146695 2.000000
19.488798 -16.899595 3.123887 25.000000
19.736368 -16.898193 3.146489 6.000000
-7.008101 -16.852465 3.188688 24.000000
-7.260954 -16.715008 3.183869 22.000000
-15.851322 -16.657177 3.192736 23.333334
-7.648829 -16.462938 3.171478 14.000000
-6.706260 -16.490879 3.110210 26.500000
19.864428 -16.369150 3.117154 49.000000
16.894207 -15.318734 3.166514 21.000000
-6.575241 -15.129243 3.179971 18.000000
16.765793 -15.011423 3.124704 3.000000
-6.404899 -14.864862 3.120157 1.000000
-6.341196 -14.845179 3.111828 10.000000
16.950119 -14.796953 3.124154 17.000000
17.702066 -14.733115 3.197871 20.500000
17.729961 -14.568828 3.186318 8.500000
-10.637966 -14.313584 3.115717 21.333334
17.940403 -14.321637 3.187418 20.000000
-10.675576 -14.177262 3.100572 37.000000
-11.055470 -14.028836 3.120536 28.000000
17.993477 -14.088411 3.173115 2.000000
18.193298 -14.091863 3.195303 31.666666
-10.948189 -13.982833 3.102638 43.000000
-8.813121 -13.984226 3.186406 33.500000
-11.510953 -13.698669 3.126043 14.500000
-11.706191 -13.667500 3.143942 6.000000
-11.550828 -13.572177 3.113652 16.000000
-12.143551 -13.477316 3.169413 1.000000
-11.478740 -11.770918 3.169371 18.500000
-11.632948 -11.560108 3.161421 3.000000
-10.687699 -10.721329 3.195147 4.000000
-9.884842 -9.195213 3.100944 16.000000
-9.956778 -9.146110 3.105421 7.000000
-10.493982 -9.048639 3.182728 37.000000
-10.170630 -9.040803 3.125658 11.600000
-10.617867 -8.925246 3.186012 57.000000
-10.549705 -8.981676 3.182430 36.000000
-10.167201 -8.935247 3.109003 0.000000
-10.482625 -8.867919 3.153775 42.000000
18.889858 -7.509551 3.186159 9.000000
16.401686 -6.941840 3.111587 3.000000
16.524097 -6.750089 3.118471 0.000000
16.553894 -6.671359 3.118126 15.000000
16.619936 -6.607156 3.124666 11.000000
17.296465 -5.888198 3.192130 52.000000
19.454380 -5.881034 3.185540 1.000000
17.436790 -5.511184 3.194884 36.000000
17.279083 -5.342160 3.159775 3.000000
15.575200 -5.141960 3.161799 4.000000
15.719322 -5.080233 3.184514 9.000000
17.068993 -5.043108 3.109522 13.000000
15.639432 -4.784440 3.152714 4.000000
15.417541 -4.663640 3.105014 4.000000
17.197124 -4.556523 3.108145 3.000000
17.753399 -4.377069 3.194540 31.500000
15.698548 -4.162395 3.130757 18.000000
19.448246 -4.183547 3.118026 7.000000
15.608957 -4.086199 3.110314 0.000000
-11.289672 -3.924870 3.194391 49.666668
-11.321467 -3.856350 3.196457 51.000000
15.831437 -3.879785 3.142114 5.000000
17.473484 -3.586791 3.116405 7.000000
-11.359249 -3.449064 3.172703 44.333332
15.727542 -3.489579 3.105519 4.666667
-11.373129 -3.362396 3.169605 46.000000
-14.670774 -3.206792 3.169540 5.000000
17.899797 -3.091832 3.173543 6.000000
-12.334448 -2.736716 3.136772 34.250000
-12.433773 -2.636074 3.155566 3.000000
19.775879 -2.526333 3.124840 13.000000
-14.539065 -2.373044 3.109238 28.000000
-12.349450 -2.245270 3.116290 25.000000
-12.665832 -2.190048 3.191228 11.000000
-12.388429 -2.142097 3.121350 40.500000
17.926924 -2.175746 3.154956 5.000000
-12.741897 -1.833865 3.196047 7.000000
-14.992414 -1.726730 3.185235 17.000000
-14.991867 -1.108824 3.172844 18.000000
-12.790691 -1.148288 3.188336 39.000000
-13.594129 -0.919607 3.129598 3.000000
-12.512911 -0.925476 3.115085 56.000000
-12.478975 -0.962397 3.107375 74.000000
-11.647206 -0.457624 3.115211 12.000000
-11.649715 -0.347790 3.114867 6.333333
-15.044391 0.070899 3.175322 2.000000
-14.718824 0.161846 3.106760 30.000000
-13.668657 0.300609 3.140344 27.500000
-13.826885 0.369312 3.177057 36.000000
-13.641809 8.747801 3.123943 6.000000
-13.578976 8.868954 3.126467 11.333333
-13.502000 8.960550 3.123791 16.000000
-13.361122 9.080224 3.114100 24.000000
7.664703 9.060325 3.171670 2.000000
7.708160 9.053855 3.177867 40.000000
-13.625390 9.166243 3.165585 32.000000
-13.410551 9.237513 3.139085 7.500000
-13.379786 9.309588 3.142114 20.000000
-13.501673 9.457483 3.177699 7.000000
-13.135531 9.491059 3.123943 16.666666
-13.089315 9.541398 3.122428 30.000000
-13.100445 9.612677 3.132271 1.000000
-10.903764 10.015994 3.124933 17.000000
-12.670044 10.139739 3.128233 48.333332
-10.923459 10.193443 3.153432 11.500000
-10.893841 10.262252 3.158801 0.000000
-12.846840 10.392034 3.185271 1.000000
-12.589891 10.315721 3.137571 29.000000
-12.786718 10.410022 3.178456 77.000000
4.865806 10.803721 3.166713 10.800000
-9.720175 11.095512 3.113369 45.500000
-11.905373 11.144748 3.143628 36.000000
-11.890310 11.200949 3.148928 25.000000
-9.921549 11.147451 3.149715 0.000000
7.702176 11.106726 3.104526 51.500000
7.817760 11.123500 3.122882 50.000000
7.962716 11.142580 3.145716 49.000000
8.109529 11.161757 3.168998 45.500000
8.261051 11.184424 3.193772 47.666668
9.352422 11.341360 3.102630 39.000000
9.452109 11.352768 3.117912 42.000000
13.186291 11.889669 3.101949 31.000000
-15.554635 12.577926 3.135369 0.000000
6.289932 14.854177 3.109557 38.000000
6.273638 14.946298 3.124700 36.000000
-12.175421 16.263378 3.184301 14.000000
-13.848274 17.788893 3.130205 6.000000
-12.725413 18.781227 3.150010 2.000000
-12.377170 18.770964 3.121954 11.000000
-12.285582 18.760035 3.113702 6.000000
-12.589472 18.963045 3.160462 0.000000
-11.694384 19.143440 3.114802 0.000000
-11.539119 19.158844 3.105450 8.000000
-11.784178 19.427376 3.154961 3.000000
3.403487 19.704088 3.134130 22.000000
-10.917960 19.777853 3.136807 1.000000
3.322662 19.791988 3.145589 15.000000
3.494024 19.735035 3.141357 30.666666
3.601807 19.741114 3.145279 12.000000
-10.884334 19.864170 3.145059 1.000000
3.191361 19.835600 3.148996 22.333334
5.328221 21.758192 3.110401 27.000000
5.300772 21.944279 3.134607 27.000000
3.117078 22.179161 3.109851 4.000000
4.988827 25.126362 3.102247 56.000000
4.842089 25.215708 3.109460 30.000000
4.804833 25.453213 3.136871 34.000000
5.267069 25.681911 3.174862 21.000000
5.210714 25.819002 3.189769 37.000000
18.363909 -32.524300 3.207325 1.000000
18.561962 -32.397900 3.206298 4.000000
18.731382 -32.456783 3.217934 10.000000
-4.930667 -31.522570 3.299401 4.000000
-5.618425 -31.383024 3.296932 9.000000
-5.203413 -31.329472 3.284177 20.000000
-5.004586 -31.349760 3.282943 13.000000
-5.387308 -31.221664 3.276360 18.000000
-5.297829 -31.289433 3.281708 9.000000
-4.370769 -31.139069 3.251673 9.000000
-5.713895 -30.799419 3.239329 8.000000
-5.021820 -30.835152 3.230689 13.000000
-4.531662 -30.874796 3.226986 13.000000
-5.798819 -30.718760 3.232746 7.000000
-4.409771 -30.715590 3.208882 10.000000
-6.465485 -30.548790 3.229043 11.000000
-6.054753 -30.494934 3.215054 18.000000
-5.866785 -30.551910 3.217111 16.000000
-6.243043 -30.440699 3.213408 20.000000
-5.938329 -30.408371 3.203945 19.000000
-7.114760 -30.310141 3.219580 5.000000
-8.002408 -30.223812 3.233158 1.000000
-7.298531 -30.237764 3.216700 8.000000
-6.694600 -30.222342 3.201065 3.000000
-6.987208 -30.192793 3.204768 2.000000
-9.242869 -29.584488 3.205179 18.000000
16.492283 -26.986914 3.270599 1.000000
17.083549 -26.805477 3.287057 17.000000
17.307777 -26.784496 3.297755 8.000000
17.292023 -26.576582 3.278828 17.000000
-10.414257 -25.055618 3.285948 3.000000
-10.613667 -24.656513 3.250843 10.000000
17.617418 -20.032322 3.230645 15.000000
17.601313 -19.887665 3.216218 15.000000
18.325512 -19.686119 3.257094 29.000000
-7.219206 -19.391136 3.243144 12.000000
-8.104863 -19.149590 3.259248 13.000000
-7.862285 -19.075327 3.233853 5.000000
19.150690 -18.957806 3.263346 7.000000
19.322817 -18.770939 3.262384 6.000000
-9.062630 -18.433941 3.219607 2.000000
-10.353069 -18.224701 3.285262 21.000000
19.886713 -18.254763 3.269117 5.000000
-10.440819 -18.179096 3.285882 12.000000
15.331181 -18.001341 3.283140 9.000000
19.789175 -17.937439 3.234493 9.000000
-10.387460 -17.890507 3.242524 24.000000
-10.463560 -17.763601 3.231375 0.000000
-10.397726 -17.779331 3.228278 21.000000
-6.227114 -17.742128 3.285064 7.000000
-6.168757 -17.754162 3.283688 14.000000
-6.251224 -17.633347 3.268543 25.000000
-6.052718 -17.598328 3.251333 23.000000
15.942300 -17.569576 3.294142 8.000000
16.012163 -17.425303 3.285891 8.000000
-15.923012 -17.340424 3.268837 5.000000
-6.595518 -17.381102 3.247891 7.000000
-6.248184 -17.393150 3.228845 23.666666
-15.850880 -17.045643 3.231978 11.000000
-7.250496 -17.056141 3.237909 15.000000
-15.901645 -16.992868 3.231428 1.000000
-8.151889 -16.847977 3.269920 8.000000
-7.977916 -16.824245 3.253054 12.000000
-7.261397 -16.860781 3.207275 39.000000
-8.539068 -16.787796 3.290572 29.333334
-8.352419 -16.789062 3.276115 7.500000
16.943350 -16.362005 3.270487 10.000000
-9.115487 -16.283537 3.260282 6.000000
-5.341431 -16.179411 3.284455 0.000000
-5.284477 -16.177444 3.280670 1.000000
16.760260 -16.083748 3.225377 11.000000
-6.100468 -15.917171 3.285970 14.000000
-13.286923 -15.711824 3.225181 1.000000
-13.132224 -15.728261 3.211555 3.000000
-13.095363 -15.784647 3.214652 14.000000
-10.119552 -15.787052 3.276115 30.000000
16.807487 -15.777844 3.200897 4.500000
17.656473 -15.709246 3.281490 19.000000
-10.581567 -15.628909 3.297456 4.000000
-5.871761 -15.613287 3.215556 28.000000
17.714643 -15.661570 3.283140 34.000000
-13.539872 -15.510116 3.227039 1.000000
-13.485898 -15.546605 3.225801 2.000000
-6.256094 -15.586102 3.237513 6.000000
-7.152607 -15.451290 3.282184 8.500000
-6.288705 -15.456404 3.216692 15.000000
-17.805655 -15.358586 3.264986 4.000000
-17.416119 -15.311205 3.219876 2.000000
-17.528416 -15.264042 3.227302 4.500000
17.616474 -15.040577 3.216300 10.000000
17.644600 -14.826580 3.200071 17.000000
17.978712 -14.444929 3.202272 2.000000
-8.895770 -14.263889 3.240541 16.000000
-12.150398 -14.096253 3.251333 12.000000
18.292002 -14.046095 3.202272 24.000000
18.354940 -14.002976 3.205573 12.000000
-9.898988 -13.944813 3.296570 20.666666
-9.190889 -13.944012 3.219342 1.000000
-8.960752 -13.993246 3.203139 16.200001
18.482372 -13.962843 3.216300 8.000000
-9.971168 -13.830441 3.286727 25.333334
-12.697938 -13.399560 3.225173 2.000000
-10.515815 -13.210783 3.254927 8.500000
-10.564653 -13.116334 3.246598 34.666668
-10.574307 -12.926331 3.219342 17.000000
-10.571081 -9.231496 3.223620 4.000000
-10.790137 -8.983590 3.224964 27.000000
-14.948863 -7.985293 3.267041 37.000000
19.817692 -6.885742 3.288359 5.000000
17.286703 -6.621902 3.234123 6.000000
17.491621 -6.637458 3.268543 57.000000
17.392529 -6.475267 3.242383 15.000000
19.831106 -6.267947 3.259867 3.000000
17.393391 -5.982234 3.213470 1.000000
17.744295 -5.978512 3.271297 38.000000
19.933794 -5.821496 3.254912 5.000000
17.735533 -5.728422 3.256152 22.000000
16.060682 -5.134884 3.250384 4.000000
18.090538 -5.098652 3.283688 18.000000
17.748560 -5.062509 3.224485 74.000000
18.048008 -4.964607 3.270264 4.000000
17.768890 -4.887694 3.219666 15.000000
18.077066 -4.850498 3.269920 1.000000
16.152002 -4.500604 3.232213 4.000000
16.010799 -4.407104 3.201170 6.000000
-11.326414 -4.320620 3.239834 65.000000
17.994081 -4.346579 3.234123 22.000000
-11.362940 -4.242924 3.241641 41.750000
-11.303904 -4.109832 3.214530 46.000000
16.507576 -4.155605 3.281427 47.000000
-14.766817 -4.014826 3.229841 3.000000
-11.287643 -4.023803 3.202653 47.000000
-14.731222 -3.905914 3.216624 0.000000
16.466799 -3.925982 3.263256 14.000000
-11.385779 -3.798523 3.207818 47.000000
-11.519901 -3.749671 3.237768 32.666668
18.376860 -3.712100 3.275427 2.000000
18.434805 -3.663567 3.283688 12.000000
16.322601 -3.514164 3.218585 4.000000
16.343456 -3.357802 3.216313 1.000000
16.534864 -3.343025 3.251899 0.000000
16.660828 -3.232565 3.271584 2.000000
18.287266 -3.277219 3.245826 3.000000
16.591005 -3.137902 3.254927 12.000000
-14.874761 -3.056058 3.205060 17.000000
16.666428 -3.061838 3.266536 6.000000
16.817007 -3.016767 3.293541 4.000000
18.161482 -2.961038 3.214847 19.000000
16.766605 -2.871998 3.279155 10.500000
-12.854286 -2.767457 3.264478 0.000000
-13.909340 -2.585476 3.249588 9.000000
15.072031 -2.508674 3.224885 1.000000
-13.856239 -2.485638 3.233470 3.000000
15.035626 -2.395970 3.213485 12.600000
18.323851 -2.457945 3.229992 8.000000
-14.032793 -2.381026 3.269288 35.000000
18.572987 -2.313387 3.269920 39.000000
15.039861 -2.261147 3.210016 18.666666
15.081898 -2.154515 3.215523 12.666667
15.165374 -2.061187 3.230254 2.500000
18.695581 -1.971584 3.284376 8.000000
-13.934355 -1.738087 3.225411 41.000000
-14.056797 -1.678662 3.251678 27.000000
-13.023935 -1.645334 3.259177 14.500000
-13.141053 -1.534390 3.284719 34.000000
-13.037345 -1.584617 3.260623 12.000000
-13.203925 -1.352849 3.295321 27.000000
-12.887058 -1.116141 3.211468 39.000000
-12.084330 -0.893808 3.238457 8.666667
-15.171363 -0.739348 3.205886 9.000000
-13.073006 -0.678266 3.250021 22.000000
-14.231937 -0.201214 3.269288 7.000000
-13.938067 -0.284662 3.202130 4.000000
-14.320776 0.089980 3.289436 15.000000
-14.295718 0.022454 3.283616 1.000000
-14.095504 0.199285 3.237948 0.000000
-14.250726 0.246258 3.273766 12.000000
-14.162027 0.445051 3.254513 16.500000
-12.079083 9.897182 3.295925 45.000000
-9.546975 10.393178 3.241529 19.000000
-9.510975 10.452477 3.246006 9.500000
-13.160445 10.852489 3.288241 6.000000
-13.042406 10.847204 3.270070 32.000000
-11.078971 10.837973 3.271143 25.000000
-12.835835 10.928013 3.249627 59.000000
-12.795472 10.963178 3.248113 65.000000
-11.069212 10.951630 3.286508 27.799999
6.845090 10.975737 3.211468 55.000000
6.925721 10.989315 3.224962 49.500000
7.004532 10.999148 3.237491 48.000000
-12.749999 11.063946 3.254170 36.000000
-10.556214 11.100580 3.233145 19.500000
6.807070 11.069248 3.226247 46.000000
7.064199 11.016305 3.249057 47.000000
7.113514 11.016887 3.255804 49.000000
7.220905 11.030363 3.273153 45.333332
-10.517197 11.164480 3.237276 0.000000
-12.699635 11.231661 3.268177 18.000000
-12.552635 11.278609 3.253034 61.500000
6.785570 11.230905 3.257732 42.000000
8.414936 11.207582 3.219143 47.500000
8.538292 11.224302 3.239291 47.500000
8.632635 11.238080 3.254961 46.000000
8.723745 11.246525 3.269289 46.000000
8.886655 11.272510 3.297047 47.666668
-12.526973 11.362749 3.260227 12.000000
6.763333 11.379076 3.286454 30.000000
10.001403 11.452713 3.209190 6.000000
12.299994 11.770533 3.281806 21.500000
-13.295228 16.065496 3.268539 3.500000
-13.018881 19.476770 3.252883 0.000000
2.797554 20.369762 3.222704 14.000000
2.692601 20.563261 3.250576 0.000000
2.968218 20.649059 3.269778 25.000000
2.920932 20.783508 3.289598 29.000000
3.053184 20.776474 3.291456 35.000000
3.146498 20.805157 3.298063 31.000000
3.381057 20.737656 3.293314 4.000000
-16.154016 26.810549 3.236861 1.000000
-5.665160 -32.227364 3.383748 10.000000
-7.831496 -31.155474 3.322031 6.000000
-8.313716 -31.005560 3.319562 32.000000
18.198421 -27.339075 3.396228 17.333334
16.760500 -27.233152 3.306807 3.000000
-7.334353 -27.013529 3.389821 5.000000
-7.071396 -27.050718 3.385974 17.000000
16.948496 -27.060188 3.301869 7.500000
18.298864 -26.996849 3.372638 12.000000
17.253635 -26.885616 3.303515 10.000000
-10.554345 -25.169258 3.305184 6.000000
-9.454202 -22.534685 3.393165 8.000000
17.757183 -20.710340 3.303741 2.000000
18.024744 -20.625790 3.317206 6.000000
18.936125 -19.836309 3.321053 2.000000
-9.384391 -19.551693 3.399231 7.000000
-9.830206 -19.078344 3.363925 4.000000
-9.649349 -19.019911 3.342866 22.000000
-9.703659 -18.978949 3.341008 21.000000
15.563383 -18.866470 3.395915 7.000000
-9.931561 -18.623625 3.308180 12.500000
15.407256 -18.439951 3.336502 1.000000
15.421763 -18.339905 3.327150 1.000000
15.732575 -18.181492 3.338428 14.000000
-7.169032 -18.033308 3.390390 3.000000
-5.880714 -18.013365 3.310535 1.000000
15.786448 -18.013744 3.325775 12.000000
15.883563 -17.896400 3.322474 9.000000
16.043102 -17.905464 3.338152 2.000000
16.673979 -17.805738 3.387113 9.000000
16.081982 -17.723545 3.323024 9.000000
16.813696 -17.619139 3.381612 3.000000
16.179804 -17.497087 3.308996 13.000000
16.908365 -17.570452 3.385830 27.000000
-7.872306 -17.370520 3.331876 3.000000
17.088371 -17.352867 3.381612 31.000000
-8.940877 -17.219265 3.389702 23.000000
-8.471412 -17.231365 3.354593 1.000000
16.760792 -17.235504 3.338152 8.000000
17.106548 -17.262510 3.374460 25.000000
17.222244 -17.270403 3.386563 5.000000
-8.590918 -17.066290 3.338072 18.000000
17.587418 -16.701410 3.367676 26.666666
-13.534696 -16.630707 3.360828 8.000000
-10.224991 -16.516958 3.393832 4.000000
17.837721 -16.587442 3.382162 71.000000
-13.571056 -16.463007 3.344105 17.000000
-13.486715 -16.465818 3.336053 32.000000
-10.230970 -16.411190 3.378688 8.000000
-5.208760 -16.469948 3.329884 10.000000
18.031309 -16.453304 3.389314 1.000000
18.056490 -16.372629 3.384363 1.000000
-7.056371 -16.097759 3.388183 2.000000
-10.785279 -16.038097 3.376622 7.000000
-7.179434 -16.034622 3.386669 9.500000
-11.137639 -15.906199 3.392456 18.000000
-7.029090 -15.899488 3.351083 3.000000
-11.257885 -15.864826 3.398651 12.000000
-10.304430 -15.855315 3.303652 8.000000
18.079266 -15.883026 3.341453 30.000000
-10.891870 -15.659682 3.332564 33.000000
18.050537 -15.608413 3.313397 32.000000
-15.241806 -15.104102 3.363306 1.000000
-15.263841 -15.031188 3.357731 2.000000
18.853832 -15.050819 3.349705 12.000000
-6.281837 -14.706214 3.375225 34.000000
-9.843477 -14.435551 3.368119 9.000000
-9.895020 -14.316900 3.354869 4.000000
-9.791591 -14.359319 3.350326 14.000000
-9.998299 -14.273747 3.359412 28.000000
-10.930224 -11.457829 3.342184 38.000000
-10.818785 -11.412579 3.319054 21.000000
-11.216409 -11.111195 3.332271 62.000000
-11.471430 -11.012245 3.356226 11.000000
-11.397372 -11.010158 3.344662 31.000000
-11.181534 -11.007260 3.311620 1.000000
-11.548905 -10.811054 3.338879 0.000000
7.333896 -9.994857 3.313161 33.000000
7.377316 -9.922700 3.304554 39.666668
7.470541 -9.917341 3.318325 5.000000
-9.457079 -9.810198 3.383029 37.333332
-9.568541 -9.768978 3.394980 27.200001
-10.413855 -8.866017 3.395559 52.000000
16.020657 -7.324686 3.395754 2.000000
17.982559 -7.018339 3.372492 2.000000
16.196009 -6.858123 3.390455 5.000000
18.152168 -6.596045 3.374213 16.500000
16.242207 -6.519449 3.373797 4.000000
18.308739 -6.104706 3.371804 16.000000
18.335499 -5.985881 3.369738 4.000000
17.993656 -5.749430 3.300210 4.000000
16.678604 -5.681109 3.396512 2.000000
18.477777 -5.585808 3.372492 50.000000
18.185411 -5.310895 3.309847 11.000000
16.519966 -5.167546 3.336698 2.000000
18.729473 -4.430902 3.362510 2.500000
15.313792 -4.249721 3.354299 7.000000
16.825546 -4.291905 3.347298 3.000000
15.140709 -4.116478 3.311620 1.000000
15.559712 -4.125583 3.397529 3.000000
18.563726 -4.176709 3.324304 32.000000
15.399652 -3.979754 3.357052 0.000000
-15.318084 -3.856163 3.333923 5.000000
19.037897 -3.721286 3.389014 3.000000
15.582316 -3.560241 3.373573 4.000000
16.817274 -3.510249 3.311712 6.000000
18.855696 -3.562820 3.352528 7.000000
19.109512 -3.424572 3.391767 6.000000
15.572495 -3.199406 3.355400 0.000000
-12.258762 -2.800874 3.360669 12.000000
-14.540854 -2.750154 3.399129 2.000000
-12.274704 -2.703265 3.359120 4.500000
17.056137 -2.783879 3.331398 5.000000
-13.357545 -2.613381 3.379174 3.000000
18.709946 -2.629511 3.300898 4.000000
18.948433 -2.602352 3.341514 23.000000
-12.396881 -2.284200 3.368931 28.000000
-12.285805 -2.203922 3.335882 27.000000
19.017595 -2.247515 3.345644 4.000000
19.228117 -2.211168 3.381441 4.000000
-12.258416 -2.159283 3.326587 1.000000
18.851210 -2.107839 3.313977 17.000000
18.802898 -2.042647 3.304340 5.000000
-14.456583 -1.895549 3.348984 4.000000
-14.400596 -1.842203 3.334656 3.000000
19.066339 -1.829163 3.346333 3.000000
-13.352625 -1.495376 3.335802 74.000000
-13.520045 -1.428169 3.375319 2.000000
-13.450860 -0.867470 3.346404 1.000000
-13.435180 -0.739383 3.340621 19.000000
-13.345405 -0.790473 3.319095 20.000000
-13.435682 -0.654763 3.339657 60.000000
-13.585333 -0.405578 3.374355 21.000000
-13.536090 -0.361545 3.361825 5.000000
-13.425913 0.105492 3.333392 10.000000
-13.393378 0.021037 3.325200 20.000000
-13.365347 0.147003 3.318453 18.500000
-13.576907 0.277287 3.371463 35.000000
-13.375871 0.231140 3.321344 3.000000
-13.668790 8.504746 3.397804 21.333334
-12.733274 9.633546 3.369994 9.333333
-12.642008 9.774377 3.372747 24.000000
-12.663654 9.886824 3.390920 4.500000
-10.804337 9.883044 3.363311 29.000000
-10.605736 9.896933 3.331970 3.000000
-12.608992 9.972223 3.392985 14.000000
-10.522034 9.974572 3.330179 38.000000
-10.397559 9.918776 3.300629 19.000000
-10.337114 10.048918 3.311374 14.666667
-10.290487 10.130098 3.316747 0.000000
-12.234126 10.316752 3.377704 7.500000
-9.600266 10.786470 3.316747 20.000000
-9.704334 10.834661 3.340924 3.000000
-9.661893 10.924624 3.349879 72.000000
-11.708601 11.029775 3.395051 35.000000
-11.413767 11.060728 3.354574 1.000000
7.384935 11.052197 3.300140 47.000000
7.524946 11.072573 3.323754 49.500000
7.667993 11.094512 3.348331 50.000000
7.840073 11.117990 3.377567 51.333332
7.954125 11.130713 3.396523 51.000000
9.048009 11.293703 3.323911 49.000000
9.145245 11.305534 3.340029 41.000000
9.212713 11.316051 3.351670 43.000000
9.310513 11.326683 3.367788 43.000000
9.451340 11.351849 3.392860 43.000000
12.469364 11.783363 3.307169 43.000000
12.602145 11.797006 3.327612 45.000000
12.746899 11.820223 3.351083 43.000000
12.941140 11.849966 3.382504 42.000000
14.719600 12.142491 3.333712 52.000000
14.894417 12.130284 3.355970 38.000000
15.012091 12.147878 3.373869 38.000000
15.126951 12.162382 3.391079 39.000000
14.665545 12.292809 3.343235 52.500000
14.285852 12.401003 3.305028 46.000000
14.645090 12.433165 3.356314 46.000000
14.624944 12.575029 3.369738 47.000000
14.605886 12.759494 3.388325 45.000000
14.589404 12.826130 3.393832 49.000000
6.755521 14.144180 3.308316 33.333332
-9.906297 14.237384 3.343512 0.000000
6.320261 14.668435 3.371095 6.000000
6.303359 14.756602 3.386790 31.000000
-13.672338 16.363543 3.342247 6.000000
-13.522523 16.497786 3.343485 43.000000
-13.092201 16.494581 3.300747 1.000000
-13.600395 16.699520 3.375694 32.000000
-13.057047 16.610443 3.311587 3.000000
-13.607521 16.815893 3.390559 28.000000
-13.591770 16.904753 3.399850 20.000000
6.275339 17.819824 3.300668 32.666668
6.012595 18.070242 3.327195 44.400002
5.850215 18.112963 3.325451 45.000000
5.797372 18.342255 3.360789 34.000000
5.776166 18.476963 3.382130 30.000000
2.817083 21.001200 3.321187 1.000000
3.284319 20.973219 3.327381 27.000000
2.933050 21.356342 3.378791 2.000000
-16.917740 21.865318 3.347983 2.000000
-6.107982 -32.923653 3.462746 1.000000
-6.009512 -32.970081 3.465626 4.000000
-5.858223 -32.722473 3.437647 1.000000
-6.661910 -32.483070 3.429007 7.000000
-9.098545 -32.304169 3.470563 1.000000
-6.108798 -32.360847 3.405554 5.000000
-6.822206 -32.234268 3.407200 1.000000
-9.902778 -32.050114 3.468917 34.000000
16.439980 -29.331671 3.477146 10.000000
16.612144 -29.207048 3.474678 8.000000
16.449881 -29.134367 3.459866 15.000000
16.940666 -29.142061 3.485787 2.000000
16.893412 -28.851788 3.457397 12.000000
16.973866 -28.781437 3.455340 12.000000
17.076395 -28.748495 3.457808 11.000000
17.189096 -28.732262 3.462334 10.000000
17.334719 -28.770132 3.473443 15.000000
17.441525 -28.742748 3.476735 37.000000
-6.332884 -28.169975 3.496580 4.000000
-6.574499 -28.008528 3.484076 7.000000
-7.107130 -27.902719 3.486962 15.000000
-6.845725 -27.976177 3.487924 8.000000
-6.756875 -27.993685 3.487443 7.000000
19.040707 -27.902166 3.493193 8.000000
-6.622916 -27.821623 3.463398 16.000000
-6.355993 -27.863449 3.460994 7.000000
18.297754 -27.739464 3.436413 6.000000
19.083475 -27.498367 3.461306 1.500000
-7.637002 -27.445120 3.449933 6.000000
19.694031 -27.356737 3.485787 3.000000
-8.511885 -27.244757 3.456666 1.000000
-7.307043 -27.251226 3.416751 5.000000
18.743000 -27.281429 3.422835 13.000000
19.256395 -27.287565 3.453694 13.000000
19.353397 -27.062473 3.440527 8.000000
19.118513 -26.912300 3.413783 21.000000
-9.180212 -22.882647 3.423422 10.000000
-9.223808 -22.783916 3.412969 4.000000
-7.923755 -20.302435 3.415954 14.000000
-8.184183 -20.215916 3.418432 2.000000
-8.244664 -20.182787 3.417193 2.000000
-8.405464 -20.034952 3.405425 14.000000
-9.224548 -19.854433 3.431439 1.000000
-9.145589 -19.847425 3.425245 6.000000
-10.188589 -19.773891 3.486565 9.000000
-10.277823 -19.642956 3.474797 19.000000
-9.331414 -19.598919 3.402328 14.000000
-9.475029 -19.582588 3.409760 11.000000
-10.075842 -19.405096 3.427103 10.000000
15.500778 -19.341164 3.441576 2.500000
15.649450 -19.277233 3.447627 4.000000
15.765240 -19.233948 3.453128 4.000000
16.032183 -19.187887 3.471833 9.000000
16.049038 -19.085873 3.462480 5.000000
-6.284964 -18.948463 3.487800 1.000000
-7.124353 -18.254187 3.423434 1.000000
17.123831 -18.171362 3.466881 2.000000
-8.576256 -17.940250 3.474031 12.000000
-8.703971 -17.845789 3.468868 4.000000
-17.013712 -17.729343 3.411869 4.000000
-8.714793 -17.726418 3.450970 1.000000
-8.243203 -17.742237 3.417927 4.000000
-9.247362 -17.539186 3.464050 4.000000
17.528994 -17.467916 3.436074 12.000000
-17.681141 -17.302567 3.434974 5.000000
-9.060693 -17.316776 3.414485 1.000000
17.652521 -17.371326 3.438825 25.000000
17.704176 -17.313011 3.438275 11.000000
17.872133 -17.367754 3.460280 8.000000
17.926605 -17.311525 3.460280 22.000000
-10.221474 -17.228621 3.499847 14.000000
-4.779207 -17.256744 3.451782 2.000000
17.459915 -17.290096 3.411869 10.000000
-10.182976 -16.980865 3.459231 18.500000
-6.432418 -16.942371 3.493425 0.000000
-10.215919 -16.855209 3.443398 21.000000
-10.624289 -16.689646 3.456477 6.000000
-7.057220 -16.666191 3.488882 24.000000
-10.357896 -16.499107 3.403470 7.000000
18.313875 -16.501469 3.422871 2.000000
18.750570 -16.577436 3.475133 2.000000
-11.214650 -16.341845 3.462673 30.000000
19.116613 -16.166233 3.476233 11.000000
-11.066597 -16.018005 3.401405 31.000000
-7.636229 -16.031282 3.423011 6.000000
19.284620 -15.897016 3.470182 54.000000
19.479383 -15.853059 3.487236 7.000000
19.541416 -15.801748 3.489436 25.000000
19.603313 -15.750209 3.491637 24.000000
19.777014 -15.619014 3.499155 28.666666
-15.271943 -15.470392 3.407283 5.500000
19.731058 -15.448890 3.479534 25.000000
-12.581647 -15.311674 3.462328 13.000000
-6.452308 -15.237641 3.492524 15.000000
19.668379 -15.102990 3.443226 2.000000
19.564533 -14.925775 3.416820 10.000000
-10.646343 -14.272865 3.432476 44.500000
-10.677820 -14.128897 3.413926 59.000000
-11.031991 -14.054405 3.444211 32.666668
-10.910294 -14.019936 3.424525 37.000000
-10.812943 -14.030720 3.414683 47.500000
-10.732402 -14.062814 3.410140 68.000000
-8.753395 -14.035637 3.491285 10.000000
-12.143840 -13.388093 3.484339 21.000000
-12.132881 -13.291857 3.469197 37.000000
-12.604769 -13.048061 3.497211 18.000000
-11.209576 -11.899472 3.450396 3.000000
-11.322079 -11.757159 3.445026 15.500000
-11.378084 -11.630941 3.434150 6.000000
-11.483034 -11.591773 3.443787 4.000000
-10.482902 -10.648875 3.432260 2.000000
-9.669254 -9.730179 3.405679 27.000000
-9.870726 -9.595510 3.417727 53.000000
-10.019710 -9.558329 3.437967 2.000000
-10.027519 -9.367179 3.406803 9.666667
-10.372912 -9.261456 3.452425 39.000000
-10.596089 -9.136621 3.473629 31.000000
-10.453161 -9.157431 3.450256 52.500000
-10.774426 -9.056829 3.494512 26.333334
-15.835882 -8.163009 3.434368 11.000000
18.486565 -7.551756 3.488832 3.000000
18.484680 -7.281308 3.470934 4.000000
18.621944 -7.200550 3.488144 7.000000
16.304096 -7.025026 3.422254 3.000000
16.367746 -6.930786 3.426418 16.500000
16.576029 -6.896541 3.460868 0.000000
18.390221 -6.912431 3.432383 4.000000
16.696909 -6.641131 3.463897 14.000000
16.927261 -6.548663 3.498725 4.000000
18.530704 -6.552910 3.433932 9.750000
18.517178 -6.433873 3.424811 18.000000
16.694099 -5.744980 3.403326 2.000000
16.870455 -5.628410 3.428311 4.000000
17.074532 -5.459030 3.455568 60.000000
19.156248 -5.399013 3.477129 3.000000
15.520029 -5.123746 3.449569 0.000000
17.045385 -5.156045 3.432854 38.000000
17.267126 -5.134421 3.472604 13.500000
15.542105 -5.049997 3.449157 9.000000
17.422028 -5.031905 3.495696 73.000000
15.672748 -4.956641 3.469395 1.000000
18.919220 -4.790792 3.409666 14.500000
15.717157 -4.539497 3.452874 0.000000
15.666265 -4.418344 3.435527 0.000000
15.890637 -4.159939 3.466917 0.000000
-13.492302 -4.081275 3.499652 11.000000
15.920254 -4.060981 3.467743 7.000000
-13.186848 -3.876101 3.412426 6.000000
15.733543 -3.855795 3.419006 2.000000
19.400990 -3.855577 3.455789 32.000000
15.879671 -3.733315 3.442961 13.000000
17.313347 -3.670591 3.411654 8.000000
15.772497 -3.499567 3.409919 0.000000
15.970764 -3.490950 3.450396 17.000000
17.458261 -3.472664 3.431340 39.000000
19.149050 -3.493784 3.400717 2.000000
19.305380 -3.334618 3.422745 2.000000
19.475040 -3.300951 3.450970 7.000000
19.678921 -3.240198 3.484357 12.500000
17.623238 -3.104281 3.449511 17.000000
19.489723 -3.114771 3.448216 30.000000
19.731953 -3.058160 3.488488 16.500000
17.500610 -2.912900 3.419983 8.000000
-14.753434 -2.694456 3.444797 5.000000
-13.448264 -2.675027 3.404233 9.000000
17.716080 -2.492985 3.448754 0.000000
19.565891 -2.374664 3.443398 1.000000
-13.866693 -1.508856 3.463027 20.000000
-12.939711 -1.120701 3.471177 6.000000
-14.060117 -0.596666 3.493869 11.000000
-13.685874 -0.623867 3.401342 29.000000
-14.869036 -0.584206 3.417933 18.000000
-13.828433 -0.456319 3.435076 64.000000
-13.898057 -0.021830 3.450497 34.000000
-14.045579 0.331003 3.488086 22.000000
-14.044470 0.419263 3.488407 21.000000
-14.059708 0.508178 3.492905 0.000000
-18.037457 7.600796 3.419648 12.000000
-13.645205 8.569582 3.400833 3.000000
-10.544416 9.325635 3.494833 1.000000
-12.592703 10.252068 3.427266 87.000000
-12.509922 10.316049 3.422310 34.000000
-10.964779 10.329077 3.460019 3.000000
-9.517175 10.317331 3.484873 0.666667
-9.450849 10.353627 3.480376 9.000000
-12.652126 10.500272 3.470221 45.000000
-12.042279 10.992263 3.441309 22.000000
6.828184 10.987043 3.457234 48.500000
6.920810 10.981500 3.469111 50.000000
7.030246 11.001297 3.489250 48.500000
6.803411 11.102233 3.479955 45.000000
-11.796865 11.112783 3.420658 10.000000
8.043993 11.145013 3.412426 46.500000
8.165426 11.164754 3.434112 47.000000
8.282796 11.177172 3.453870 47.500000
8.436147 11.199056 3.481018 46.333332
-12.051777 11.281798 3.484263 18.000000
-10.106348 11.212425 3.467183 4.000000
-9.831541 11.258203 3.433156 18.000000
-9.788461 11.280199 3.430469 5.000000
-9.944070 11.315108 3.460019 0.000000
9.557391 11.369889 3.411665 0.000000
13.079718 11.864123 3.404083 41.000000
13.187683 11.861757 3.419225 26.666666
-18.060776 12.477907 3.440730 30.000000
-15.557325 12.419248 3.477818 1.000000
17.756752 12.567837 3.409760 48.000000
17.919365 12.556599 3.429581 40.000000
18.065758 12.574741 3.450021 38.000000
18.183184 12.571862 3.464886 4.000000
17.736506 12.707544 3.419877 39.000000
14.584451 12.903232 3.402093 49.000000
17.575911 12.986510 3.425245 17.000000
14.560507 13.029644 3.413658 40.400002
7.021248 13.111051 3.416142 3.000000
6.987092 13.213114 3.433156 12.333333
6.959911 13.330153 3.454050 12.000000
6.934119 13.451886 3.476137 0.000000
-9.753716 14.697220 3.400297 0.000000
6.289017 14.852015 3.404137 38.000000
6.274137 14.947484 3.421484 32.000000
-9.436147 15.236761 3.454811 14.000000
8.386931 15.621890 3.417964 24.000000
-14.022224 16.889851 3.440730 20.000000
-13.893655 16.842363 3.422148 44.000000
-13.545999 16.956631 3.401708 3.000000
-12.991209 17.582266 3.426484 1.000000
-12.918688 17.657623 3.429271 1.500000
-11.886883 18.276253 3.417193 1.000000
-12.189742 18.360949 3.454357 1.000000
-11.803287 18.527451 3.443208 1.000000
5.806343 21.370892 3.471080 45.000000
5.393211 21.582726 3.486875 54.000000
5.506062 21.601141 3.493998 59.000000
2.458671 21.988834 3.467983 2.000000
2.541283 22.098778 3.486565 10.000000
2.751885 22.093452 3.489662 25.000000
2.821280 22.084698 3.489662 15.000000
2.612550 22.106382 3.489043 17.000000
-14.767736 24.509762 3.465322 1.000000
-19.011103 27.671686 3.471797 1.000000
-18.350065 28.009809 3.462746 2.000000
4.887219 28.323452 3.480710 50.000000
-10.344846 -32.749855 3.551618 4.000000
-11.955889 -32.442726 3.575482 6.000000
16.318382 -30.446413 3.572191 8.000000
16.166594 -30.392145 3.559847 2.000000
16.447418 -30.342907 3.569105 14.500000
16.670799 -29.963818 3.545858 11.000000
17.248775 -29.887798 3.568488 1.000000
16.949087 -29.582802 3.525697 39.000000
18.201525 -29.574587 3.591117 20.000000
-5.865097 -29.061460 3.590354 13.000000
-6.027331 -28.926846 3.578331 32.000000
18.555878 -28.914845 3.552853 16.000000
18.956207 -28.935043 3.577128 2.000000
-7.050539 -28.813187 3.592278 3.000000
-6.200615 -28.849585 3.573523 13.000000
-6.101727 -28.830072 3.568714 18.000000
-5.924456 -28.887291 3.571118 7.000000
-5.733554 -28.877205 3.565347 7.000000
19.038252 -28.862062 3.575482 40.000000
-7.137202 -28.775480 3.590354 21.000000
-5.618448 -28.770359 3.549959 11.000000
-5.516059 -28.725471 3.542264 14.000000
-5.426524 -28.746559 3.542745 9.000000
-5.316629 -28.658049 3.529761 18.000000
-5.213752 -28.604292 3.521105 4.000000
-7.753667 -28.557924 3.583622 2.000000
-7.999861 -28.403315 3.573523 2.000000
-6.205711 -28.438114 3.524952 2.000000
19.408512 -28.441147 3.560670 9.000000
-7.302910 -28.299362 3.539379 7.000000
-8.935926 -28.289480 3.592758 2.000000
-7.868007 -28.275282 3.554287 4.000000
-6.516914 -28.160582 3.500427 10.000000
-9.336493 -28.017542 3.576408 1.000000
-8.923287 -27.943514 3.552363 6.000000
19.456051 -27.755178 3.505125 7.000000
-9.321820 -27.683241 3.537456 2.000000
-9.351360 -23.739803 3.542799 2.000000
-9.237839 -23.669411 3.527945 3.000000
-9.127710 -23.605932 3.514192 1.000000
-10.187582 -19.925432 3.507625 4.000000
-10.442690 -19.806330 3.509483 7.000000
16.123676 -19.421059 3.504840 3.000000
16.431404 -19.416430 3.531796 4.000000
16.678259 -19.417660 3.554168 5.000000
17.071747 -19.418686 3.590109 8.000000
-6.983610 -19.313074 3.587962 0.000000
16.386997 -19.241045 3.509241 6.000000
16.993528 -19.207687 3.560953 11.000000
17.603106 -18.916695 3.587909 27.000000
17.285524 -18.811043 3.547199 10.000000
17.066050 -18.689707 3.514192 15.000000
-10.343551 -17.814882 3.598977 28.000000
18.885868 -17.728878 3.596711 27.000000
-6.056831 -17.600300 3.588067 0.000000
-10.130110 -17.574186 3.543905 6.000000
-5.992647 -17.593214 3.582767 22.000000
-6.890808 -17.324642 3.594124 17.000000
-7.198968 -17.226521 3.599045 20.500000
18.799564 -17.262877 3.543899 10.000000
19.087992 -17.198975 3.567554 6.000000
19.295420 -17.276352 3.596160 35.000000
-6.607279 -16.999294 3.515760 13.500000
-8.077600 -16.821562 3.597152 8.000000
-7.160460 -16.763134 3.513868 25.000000
-8.652725 -16.404417 3.575196 7.000000
-8.803782 -16.194319 3.553239 6.000000
19.365704 -16.220936 3.507591 4.000000
19.677753 -16.117529 3.531796 5.000000
-8.842108 -16.083813 3.538096 5.000000
-5.719902 -16.045668 3.595367 3.500000
-8.879679 -15.973310 3.522953 20.000000
-8.918933 -15.886872 3.512101 14.000000
