# This PCD file was generated using the MATLAB® pcwrite function
# from Computer Vision Toolbox®.
# .PCD v.7 - Point Cloud Data file format
VERSION .7
FIELDS x y z intensity
SIZE 4 4 4 4
TYPE F F F F
COUNT 1 1 1 1
WIDTH 1238
HEIGHT 1
VIEWPOINT 0 0 0 1 0 0 0
POINTS 1238
DATA ascii
-6.148652 -20.123888 2.548257 3.000000
-5.404435 -20.155552 2.527097 5.000000
-6.496067 -19.910044 2.536234 4.000000
-6.698705 -19.790359 2.530223 7.000000
-5.847390 -19.803907 2.500648 8.000000
-8.184481 -19.691010 2.582400 17.000000
-6.381036 -19.767855 2.515556 17.000000
-7.934491 -19.608986 2.561722 10.000000
-6.550735 -19.657864 2.509305 28.000000
-6.480240 -19.651949 2.505938 31.000000
-7.574894 -19.418581 2.524212 25.000000
-7.446572 -19.268194 2.501610 10.000000
-8.390099 -19.158587 2.532868 52.000000
-7.821935 -19.157505 2.505938 7.000000
-9.110514 -18.539507 2.501610 15.000000
6.990834 -11.054133 2.521262 1.000000
7.027637 -11.035429 2.522020 43.000000
7.084035 -10.971218 2.517477 43.666668
7.185115 -10.975825 2.528834 8.000000
-17.973246 -4.910197 2.587050 66.000000
-17.984678 -4.812252 2.585033 80.333336
-17.990486 -4.713000 2.582282 0.000000
-18.000851 -4.504763 2.576506 0.000000
-18.005695 -4.385981 2.573205 0.000000
-18.393272 -3.452186 2.598511 20.500000
-18.376234 -3.359411 2.593835 1.000000
-18.180017 -3.264546 2.564678 1.000000
-18.217791 -3.094390 2.565778 5.000000
-18.109314 -3.163845 2.552575 129.000000
-18.326744 -2.994561 2.578431 3.333333
-18.359524 -2.852046 2.579806 4.000000
-18.335930 -2.730536 2.574030 4.000000
-18.176474 -2.502793 2.547624 0.000000
-18.176262 -2.415541 2.545974 0.500000
-11.736797 -2.392161 2.528115 1.000000
-18.191078 -2.301300 2.545974 0.500000
-11.740081 -2.316078 2.525637 3.000000
-18.201746 -2.215545 2.545974 1.000000
-11.772017 -2.264802 2.530180 1.000000
-18.205078 -2.085483 2.544323 1.000000
10.706907 -2.164726 2.509051 0.000000
12.037550 -2.003597 2.575613 12.000000
-18.215467 -1.956312 2.543773 1.500000
11.119383 -1.886693 2.590537 63.000000
-18.283625 -1.876529 2.552025 2.000000
11.090646 -1.845989 2.582478 55.000000
-18.492241 -1.780599 2.579531 25.000000
12.130607 -1.707004 2.585525 56.000000
-18.351095 -1.650711 2.558352 22.500000
-18.343386 -1.533893 2.555876 26.000000
10.081045 -1.321826 2.524260 44.000000
13.378702 -1.328298 2.591676 34.000000
9.996696 -1.246926 2.501128 0.000000
14.709525 -1.271396 2.579450 2.000000
-17.990253 -0.908203 2.501139 38.500000
-18.005373 -0.767236 2.502331 36.000000
-18.021044 -0.597808 2.503614 35.333332
10.325859 -0.622524 2.568275 43.666668
9.446779 -0.534727 2.528764 24.500000
13.295046 -0.564201 2.565176 11.000000
-18.035122 -0.456512 2.504990 36.000000
9.613365 -0.476154 2.572399 18.750000
12.094814 -0.399113 2.554135 3.000000
-18.040094 -0.314884 2.505265 35.333332
9.528217 -0.314418 2.547870 19.000000
9.645038 -0.287943 2.578854 7.000000
14.318013 -0.379932 2.502349 0.000000
-18.049698 -0.201622 2.506365 35.000000
9.709140 -0.198292 2.595378 7.000000
-18.060333 -0.116628 2.507740 35.000000
9.586925 -0.105418 2.562329 13.000000
12.222347 -0.095997 2.579743 44.000000
-18.072594 -0.003145 2.509391 35.000000
9.619591 -0.014978 2.570936 31.222221
9.673994 0.115034 2.585641 40.285713
11.897749 0.056068 2.511181 3.000000
13.220587 0.020767 2.548519 4.000000
-18.079287 0.138846 2.510399 35.333332
-18.080318 0.280860 2.510766 36.500000
-18.070894 0.365914 2.509666 34.000000
14.365146 0.386200 2.510610 20.000000
14.622337 0.347147 2.555356 45.000000
10.232753 0.447059 2.542958 38.200001
-18.438906 0.547256 2.561377 0.000000
10.101603 0.571825 2.511971 53.000000
14.831669 0.616409 2.593448 2.666667
-18.433731 0.750039 2.561652 0.000000
13.199723 0.809642 2.549276 14.000000
-18.487404 0.839511 2.569629 0.000000
10.929260 0.877482 2.518453 64.500000
11.228149 0.830455 2.586060 15.000000
13.287265 0.856920 2.566691 13.000000
14.314458 0.835394 2.505103 20.000000
14.602797 0.898261 2.556045 5.000000
16.140028 0.891040 2.533628 5.000000
10.867714 1.001544 2.506813 39.750000
13.400025 0.991091 2.590162 7.000000
10.905020 1.082699 2.517110 0.000000
12.944318 1.025609 2.503091 57.000000
9.470358 1.211554 2.551657 20.000000
10.973007 1.194177 2.535318 29.666666
10.004282 1.279804 2.504020 56.000000
10.853059 1.227028 2.508753 33.333332
10.912588 1.395999 2.526960 65.000000
13.343207 1.367119 2.585619 4.000000
14.325214 1.698036 2.520247 0.000000
9.359484 1.892303 2.552001 48.000000
-18.515549 1.982016 2.585583 72.000000
10.121479 1.947258 2.558958 33.000000
-18.517838 2.070563 2.587233 8.000000
9.184653 2.098505 2.517920 11.000000
9.330717 2.286664 2.567493 44.000000
9.080501 2.346686 2.506559 48.000000
9.200162 2.346802 2.537543 93.000000
9.952926 2.908553 2.574379 34.000000
10.549856 2.832747 2.509051 6.000000
9.889784 2.935115 2.561207 13.666667
12.751190 2.997809 2.525048 20.000000
10.489813 3.047528 2.509051 4.500000
10.845656 3.022041 2.586060 2.000000
9.571939 3.287276 2.512694 37.599998
9.490081 3.410999 2.503699 20.666666
9.527073 3.345670 2.506911 65.000000
9.597231 3.438195 2.531007 0.000000
12.749914 3.466465 2.547005 5.000000
10.473077 3.530686 2.538601 3.000000
12.497673 3.609632 2.507634 25.000000
12.640842 3.694046 2.538677 50.000000
12.396536 3.877712 2.503848 15.000000
10.189977 4.053024 2.518901 3.000000
12.750513 4.054587 2.579183 11.500000
14.168725 4.094952 2.576697 4.000000
12.650735 4.398027 2.581833 3.000000
13.839700 4.379579 2.536081 1.000000
12.480839 4.604424 2.564419 9.000000
11.273853 4.920666 2.596264 22.000000
11.903349 5.217772 2.505363 26.000000
12.332602 5.237422 2.582843 11.666667
-18.977230 8.239724 2.505457 23.000000
-19.014484 8.362661 2.515556 24.000000
-19.041315 8.517631 2.526136 25.500000
-19.050678 8.665869 2.534551 27.500000
-19.067936 8.818741 2.544169 28.500000
-19.076839 8.968777 2.552825 28.500000
-19.086388 9.120146 2.561722 28.000000
-19.103729 9.276305 2.571821 22.000000
-19.109734 9.390733 2.578553 45.000000
-18.985229 9.440910 2.567733 39.000000
-18.989330 9.592252 2.576389 37.500000
10.217644 10.383039 2.545030 15.000000
9.952318 10.502275 2.527820 20.500000
10.094548 10.519144 2.547095 0.000000
7.951282 10.694706 2.568962 27.000000
7.938646 10.748067 2.575776 1.000000
8.075884 10.756031 2.592812 11.000000
9.863462 10.741476 2.547784 27.000000
10.045029 10.734352 2.568436 11.000000
9.482084 10.907789 2.525066 13.333333
9.740849 10.879251 2.551226 0.000000
9.334131 10.967567 2.516117 3.000000
9.663888 11.000174 2.558110 10.000000
9.851469 10.933488 2.571189 42.000000
10.015585 10.976158 2.595972 50.000000
9.814008 11.030495 2.579450 0.000000
8.975193 11.243031 2.513364 18.000000
8.907648 11.695260 2.568436 44.250000
9.065970 11.704625 2.586564 72.666664
8.611205 11.739905 2.543653 23.000000
8.116107 11.906695 2.517494 12.000000
8.734643 11.830081 2.569124 4.000000
10.577227 11.963792 2.502969 17.000000
7.943259 12.055740 2.522313 18.000000
7.797424 12.136507 2.520248 25.333334
10.662172 12.136497 2.532080 6.000000
10.814394 12.154883 2.550042 1.000000
7.793120 12.242176 2.535393 9.000000
8.409872 12.254760 2.596660 13.000000
11.127554 12.271983 2.596497 1.000000
7.667453 12.605769 2.577729 33.500000
10.781313 12.587663 2.597736 7.000000
7.543465 12.714750 2.582892 33.000000
7.771137 12.641688 2.592530 12.000000
9.953154 12.794600 2.540751 15.000000
6.233610 12.987269 2.516806 41.000000
6.298406 13.017280 2.526443 37.000000
10.072329 13.117030 2.592161 2.000000
6.769676 13.240502 2.598037 11.000000
8.307570 13.804279 2.525267 2.000000
8.640111 14.055290 2.585967 5.000000
6.366498 14.782844 2.522789 16.000000
6.411334 14.759145 2.522170 24.000000
6.817019 14.794048 2.553139 0.000000
6.904808 14.740187 2.551281 6.000000
-19.428612 14.816712 2.526702 24.000000
-19.476715 14.999181 2.542131 23.500000
-19.523664 15.182354 2.557560 23.000000
-19.551073 15.302467 2.567435 24.000000
-19.587290 15.430286 2.578544 25.000000
-19.589058 15.581857 2.588419 26.500000
-19.475115 15.641620 2.583070 18.000000
-19.487766 15.752745 2.591299 14.000000
7.600720 16.494808 2.521768 30.000000
7.519827 16.592760 2.529470 18.000000
7.563485 16.829515 2.561927 3.000000
6.468557 17.127544 2.542123 19.500000
7.379697 17.135464 2.590534 1.000000
5.468657 17.493296 2.544873 12.000000
5.554660 17.478626 2.546524 13.500000
5.487401 17.748857 2.579531 39.000000
-19.283892 21.927219 2.507477 15.000000
-19.325048 22.113735 2.521850 13.000000
-19.433172 22.378958 2.545121 10.000000
-19.550220 22.657152 2.569761 13.000000
-19.593088 22.851576 2.584819 13.000000
-19.627172 23.037390 2.598850 14.000000
5.687214 23.562096 2.506541 13.000000
5.442881 23.689110 2.513535 14.000000
5.601690 23.697033 2.518061 25.500000
7.356318 23.808546 2.576898 5.000000
3.762408 24.053696 2.517650 0.000000
4.933681 24.056337 2.539457 29.000000
4.015014 24.174170 2.534108 12.000000
4.320574 24.133560 2.535342 1.000000
6.356433 24.160574 2.583481 28.000000
6.568941 24.194408 2.592533 4.000000
3.945444 24.225935 2.538222 29.000000
4.102231 24.228128 2.541102 38.000000
2.878325 24.391785 2.539868 6.000000
3.583500 24.414827 2.551800 3.000000
2.511007 24.592316 2.556326 5.000000
2.599501 24.691143 2.567435 6.000000
3.042439 24.778759 2.581630 18.500000
8.898544 27.866032 2.511925 1.000000
6.751131 28.360235 2.503370 44.000000
6.856091 28.404745 2.509188 16.000000
6.957606 28.433392 2.513637 35.000000
7.052655 28.434603 2.515690 13.000000
7.156524 28.470282 2.520823 20.000000
5.760928 28.545305 2.500632 4.000000
7.488028 28.644482 2.542383 25.000000
8.454746 28.745445 2.572955 45.666668
8.268486 28.835503 2.575922 18.500000
7.714668 29.137064 2.588242 9.000000
5.834987 29.388069 2.572841 59.000000
4.516083 29.478323 2.560863 15.000000
5.746452 29.425812 2.574553 38.000000
2.777441 29.996828 2.586873 5.000000
2.597132 30.108980 2.595086 10.000000
-3.735434 -21.853037 2.684831 3.500000
-4.956209 -21.727064 2.698777 6.000000
-4.524751 -21.715544 2.686273 18.000000
-4.005840 -21.782883 2.682186 12.000000
-5.195747 -21.675085 2.699258 7.000000
-4.324800 -21.604374 2.668240 7.500000
-4.091807 -21.676006 2.671366 32.000000
-5.560531 -21.547503 2.694929 13.000000
-5.667674 -21.405863 2.681625 20.000000
-5.925223 -21.293495 2.676656 10.000000
-5.785077 -21.307308 2.673770 33.000000
-5.430079 -21.318586 2.664152 11.000000
-6.230844 -21.102587 2.664633 1.000000
-6.101434 -21.152765 2.666076 15.000000
-5.802514 -21.109070 2.651168 54.000000
-5.315641 -21.146833 2.640589 8.000000
-5.953308 -20.885414 2.630009 38.000000
-5.190866 -20.928322 2.611254 10.000000
-7.764714 -20.867533 2.696372 2.000000
-5.857522 -20.796991 2.616544 60.000000
-7.086824 -20.616701 2.640108 48.000000
-7.176064 -20.560547 2.637222 58.500000
-7.452377 -20.419777 2.632413 17.000000
-7.235727 -20.421732 2.623757 0.000000
-9.512524 -19.827517 2.663190 27.000000
-9.227495 -19.869852 2.653092 1.000000
-9.409232 -19.771250 2.651649 9.000000
-9.249456 -19.754456 2.641550 4.000000
-8.430487 -19.755438 2.601155 5.000000
-9.655183 -19.647886 2.651168 3.000000
-9.547752 -19.662769 2.647080 16.000000
-9.052063 -19.653482 2.620391 5.000000
-9.695710 -19.574755 2.645397 18.000000
-9.223325 -19.538568 2.616544 7.000000
-10.018905 -19.156248 2.617986 9.000000
-5.748832 -12.758984 2.697675 7.500000
-18.049376 -6.986401 2.687356 5.000000
-17.809774 -7.022644 2.658199 77.000000
-17.824369 -6.963769 2.657099 70.000000
-17.992914 -6.834867 2.672502 1.000000
-17.993362 -6.738181 2.667826 2.500000
-17.844667 -6.586787 2.641145 106.000000
-17.850391 -6.525248 2.638945 72.000000
-17.999130 -6.451730 2.654898 19.333334
-18.053034 -6.311460 2.655448 16.500000
-18.113852 -6.110064 2.654348 1.000000
-18.159262 -6.061913 2.658199 6.000000
-18.330473 -4.010095 2.605387 2.000000
-18.361704 -3.896218 2.606304 20.000000
-18.377541 -3.748988 2.604287 16.000000
-18.389296 -3.561208 2.600803 18.333334
-18.682465 -2.632302 2.619690 3.000000
-18.572147 -2.676286 2.605387 4.000000
11.263533 -2.341730 2.642473 28.500000
-19.099470 -1.960263 2.665901 16.000000
-18.963604 -1.886138 2.646096 17.000000
11.241639 -1.980247 2.621878 33.000000
12.233651 -1.760717 2.608654 20.000000
12.265149 -1.647478 2.611959 42.000000
12.536522 -1.563728 2.666478 7.000000
9.952375 -1.125177 2.676796 16.666668
14.854017 -1.096024 2.602168 1.000000
14.936933 -1.149333 2.617313 14.000000
13.472606 -0.911384 2.603033 18.000000
12.640007 -0.855061 2.673912 24.000000
9.741651 -0.782083 2.611903 1.000000
9.851089 -0.604245 2.637722 38.000000
10.043733 -0.679430 2.690394 55.000000
11.511909 -0.355762 2.645458 52.333332
9.887938 -0.139797 2.642886 28.000000
9.949270 -0.171928 2.659411 29.000000
12.562464 -0.138137 2.651609 21.000000
12.355656 -0.058225 2.607828 12.000000
11.755802 0.018522 2.700230 11.500000
10.060118 0.363614 2.690394 34.000000
11.324162 0.391488 2.602626 19.500000
-19.183899 0.478903 2.664526 5.000000
10.054754 0.490000 2.690394 67.000000
-19.203297 0.610195 2.667735 5.000000
10.076694 0.586313 2.697624 110.000000
-19.151758 0.688879 2.660950 1.000000
10.518169 0.678336 2.616787 26.000000
10.833875 0.784276 2.696785 47.500000
15.048935 0.751880 2.632457 4.333333
-18.947681 0.920066 2.633994 1.000000
13.598967 0.962858 2.628019 5.000000
-19.015003 1.073147 2.644446 2.500000
10.813414 1.027857 2.696785 9.000000
-18.843668 1.152531 2.621341 0.000000
-18.735220 1.234487 2.607038 0.000000
10.657743 1.261280 2.664497 54.666664
11.599723 1.225322 2.679187 4.000000
15.046678 1.305829 2.638653 25.000000
11.403555 1.714448 2.648741 10.000000
11.421535 1.827390 2.656801 5.000000
10.379201 2.200488 2.634136 14.000000
12.564641 2.172549 2.691259 4.000000
9.825842 2.310059 2.697624 39.000000
10.248472 2.307713 2.608113 33.000000
11.294839 2.246684 2.645160 7.000000
9.764078 2.441684 2.689878 60.000000
-18.561886 2.578965 2.602087 0.000000
11.104761 2.573946 2.618296 3.000000
-18.615559 2.735625 2.612539 0.000000
-18.739532 2.844150 2.631793 14.000000
-18.770212 2.969556 2.638670 14.500000
10.964098 3.017957 2.612028 3.000000
-19.170387 3.187391 2.698358 5.000000
-18.598644 3.182419 2.619966 36.500000
9.436672 3.181293 2.661476 7.000000
10.045726 3.177045 2.615824 6.000000
10.151989 3.175604 2.640883 39.000000
10.206420 3.157463 2.652449 11.000000
-18.476849 3.281255 2.605662 115.500000
9.526118 3.278246 2.692460 8.000000
-18.490934 3.403746 2.610613 91.000000
9.391201 3.347769 2.664575 24.000000
13.374290 3.456336 2.662847 12.000000
-18.621628 3.761542 2.637845 0.000000
-18.673513 3.863670 2.647747 0.000000
12.176232 3.850836 2.695389 23.000000
-18.740389 3.969717 2.659849 0.000000
10.129033 3.955256 2.699677 1.000000
13.199460 3.992695 2.658304 1.000000
12.078374 4.092987 2.691672 4.000000
14.695724 4.599728 2.690283 2.000000
-18.722340 4.615988 2.677454 83.500000
11.305706 5.104665 2.618154 42.500000
11.358045 5.192926 2.635914 48.000000
11.535166 5.143026 2.665652 87.000000
10.193543 9.542288 2.691618 7.000000
-19.143744 9.783707 2.603560 8.000000
-19.152061 9.902095 2.611013 3.500000
-19.159769 10.020744 2.618467 1.000000
9.491383 10.267719 2.695404 3.000000
11.101866 10.396214 2.657240 9.000000
10.343781 10.711299 2.601479 46.000000
-19.226103 10.798038 2.670404 24.500000
8.397999 10.791520 2.635969 42.000000
8.357552 10.879972 2.644675 29.000000
8.544673 10.838866 2.660575 25.000000
7.995040 10.943799 2.612623 18.000000
8.338860 10.997994 2.660575 16.000000
8.502937 10.926437 2.668904 34.000000
8.693423 10.956580 2.696161 48.000000
10.204451 10.973613 2.618001 48.000000
8.406730 11.015455 2.671175 37.000000
10.004874 11.033839 2.602168 35.000000
9.915021 11.214779 2.615247 4.000000
7.989290 11.254498 2.660575 9.000000
10.469436 11.329738 2.695102 1.000000
9.976714 11.501198 2.659994 5.000000
9.535225 11.641475 2.629015 24.000000
9.593998 11.813853 2.658846 47.000000
9.540923 12.106950 2.693037 27.000000
8.940922 12.270059 2.652421 5.000000
11.801264 12.220566 2.662772 1.000000
11.307225 12.391677 2.629325 2.000000
8.739703 12.481589 2.662059 11.000000
8.729696 12.551036 2.671008 7.000000
7.854369 12.687569 2.606987 24.000000
11.337554 12.662562 2.664011 6.000000
7.799969 12.960823 2.642783 147.000000
10.700673 12.953246 2.633454 16.000000
8.152674 13.077457 2.692349 22.000000
8.230995 13.065554 2.697856 15.000000
10.477134 13.040244 2.621892 10.000000
10.954557 13.036639 2.668966 29.000000
7.692183 13.153052 2.662059 38.000000
10.395350 13.191175 2.632422 16.000000
10.992064 13.165026 2.688167 0.000000
6.932524 13.249430 2.612494 10.000000
10.827435 13.219122 2.678257 17.000000
6.593899 13.412388 2.611117 29.000000
6.868992 13.331256 2.620066 0.000000
10.838482 13.360491 2.696529 9.000000
6.625102 13.475998 2.623508 7.000000
9.914846 13.428534 2.616318 3.000000
6.808598 13.525624 2.645537 10.000000
6.214122 13.635806 2.618001 31.333334
6.304232 13.681217 2.631769 17.000000
6.200856 13.797529 2.642783 15.000000
6.378727 13.729240 2.644849 20.000000
6.514210 13.737446 2.656208 9.500000
8.807695 14.128159 2.609504 1.000000
8.397273 14.462776 2.621273 6.000000
8.390633 14.662737 2.647907 8.000000
8.134474 14.747739 2.639854 21.000000
8.451883 14.878005 2.681973 4.000000
7.792250 15.007122 2.650384 18.000000
7.975983 15.013283 2.664630 13.000000
8.179323 14.995797 2.677328 24.500000
8.352446 14.920473 2.680115 8.000000
7.989599 15.153622 2.685070 5.000000
8.129915 15.130395 2.692193 12.500000
-10.590206 15.700523 2.629593 15.000000
-10.454530 15.693687 2.618315 31.000000
-10.355699 15.759076 2.618315 31.000000
-10.306187 15.845910 2.624642 24.000000
-19.645975 16.034382 2.622363 16.500000
-19.657778 16.198858 2.634089 12.000000
-19.668039 16.311338 2.642318 9.000000
-19.683903 16.429132 2.651370 6.000000
-19.772337 16.608606 2.670297 3.000000
-19.920601 16.840179 2.697453 2.000000
-19.780197 16.989563 2.696424 13.500000
6.869678 17.601658 2.623541 22.000000
7.495400 17.555735 2.650497 3.000000
6.766035 17.662971 2.626292 18.000000
7.032828 17.690687 2.643346 34.000000
7.405675 17.808510 2.678004 16.000000
6.073801 17.841673 2.616940 7.000000
6.150440 17.882450 2.625742 23.000000
7.147378 17.815592 2.665351 14.000000
6.303352 17.959345 2.642796 12.000000
5.251216 18.086395 2.615015 27.000000
5.361602 18.146980 2.627392 0.000000
5.552085 18.160053 2.636744 0.000000
5.234892 18.352915 2.649947 35.000000
5.199780 18.449354 2.661500 0.000000
10.689958 19.245565 2.666076 0.000000
9.926465 19.423086 2.641550 1.000000
6.335749 21.212275 2.680984 15.000000
6.409249 21.215073 2.683869 27.000000
-19.662846 23.226698 2.613224 13.000000
-19.710360 23.431692 2.629308 13.000000
-19.754215 23.634167 2.645051 14.000000
-19.768990 23.803411 2.657028 11.000000
-19.787971 23.979128 2.669691 12.000000
-19.800976 24.149044 2.681669 11.000000
-19.818153 24.325447 2.694331 10.000000
3.857335 25.178408 2.634089 19.000000
4.038039 25.295120 2.648902 12.000000
4.249043 25.583252 2.681818 19.000000
4.334044 25.597237 2.684698 0.000000
4.498923 25.593012 2.687166 20.000000
2.702003 30.215790 2.605011 2.000000
2.428541 30.382927 2.617331 1.000000
5.130458 30.592590 2.663702 6.000000
3.139776 30.750368 2.654291 10.000000
2.567542 30.899405 2.662504 7.000000
2.763767 30.906481 2.664557 4.000000
3.048649 30.815605 2.659082 3.000000
-15.677424 -36.737431 2.731426 14.000000
-15.555714 -36.771801 2.730334 6.000000
-15.702817 -36.479069 2.715871 23.000000
-15.918908 -36.350441 2.713687 2.000000
-15.779200 -36.341705 2.709321 20.000000
-15.239244 -28.697092 2.790154 2.000000
-15.392778 -28.551662 2.785363 4.000000
-15.700890 -28.371960 2.784507 5.000000
-4.548253 -22.177006 2.741576 29.000000
-4.329904 -22.172117 2.735806 10.000000
-3.956612 -22.100584 2.718974 10.000000
-5.109490 -21.921938 2.725947 27.000000
-4.717841 -21.950684 2.718974 4.000000
-4.214551 -21.947727 2.706471 29.000000
-3.861041 -21.964287 2.700700 25.000000
-6.791272 -21.737436 2.757926 8.000000
-8.831375 -21.060440 2.765621 1.000000
-8.983935 -20.870497 2.751675 3.000000
-10.048759 -19.971045 2.707433 10.000000
-4.976221 -19.522488 2.797380 1.000000
-5.207460 -19.166632 2.757771 31.000000
-5.805770 -18.989815 2.757221 3.000000
-5.049382 -19.057268 2.737417 19.000000
-4.982468 -19.046207 2.733566 5.000000
-6.167583 -18.892078 2.759422 6.000000
-5.507821 -18.859707 2.728065 4.000000
-5.448544 -18.876917 2.728065 18.000000
-7.460521 -18.428385 2.760522 4.000000
-7.121558 -18.417654 2.741818 4.000000
-6.977582 -18.387951 2.730815 19.000000
-7.769136 -18.356359 2.767674 8.000000
-8.391632 -18.211216 2.784178 7.000000
-7.177605 -18.221405 2.719263 5.000000
-7.531942 -18.112148 2.723664 13.000000
-8.394441 -17.993715 2.756946 8.000000
-8.220750 -17.988846 2.746219 9.000000
-8.463068 -17.919949 2.751720 13.000000
-8.993160 -17.837475 2.773725 17.799999
-8.624681 -17.825125 2.749520 8.000000
-9.541135 -17.690210 2.790779 23.000000
-8.811644 -17.782101 2.755571 21.000000
-8.505205 -17.719975 2.729165 8.000000
-8.446088 -17.739452 2.728065 18.000000
-9.144011 -17.678171 2.763548 13.500000
-9.016361 -17.634693 2.750070 24.000000
-9.577891 -17.494379 2.769324 25.000000
-9.338947 -17.545631 2.759835 15.250000
-9.198695 -17.580526 2.755021 2.000000
-9.485053 -17.454758 2.758322 26.000000
7.020032 -11.061852 2.765190 12.000000
7.191817 -10.986063 2.771385 3.000000
7.086551 -10.975092 2.757343 34.333332
-18.245106 -6.996331 2.713212 2.000000
-19.383778 -2.390328 2.711836 16.500000
-19.425961 -2.271708 2.715687 20.500000
11.900459 -1.598431 2.757986 2.000000
12.698481 -1.624460 2.701998 27.000000
10.988155 -1.546306 2.754936 42.333332
12.056172 -1.580804 2.792909 5.000000
10.888684 -1.462533 2.727628 63.000000
12.978682 -1.000934 2.747430 57.000000
12.774227 -0.917969 2.703099 50.333332
10.157190 -0.719167 2.721378 39.000000
13.049942 -0.759311 2.758995 17.000000
10.180790 -0.656578 2.726542 20.000000
12.051533 -0.612570 2.771717 11.333333
11.157341 -0.508604 2.772927 41.000000
14.153015 -0.422525 2.729475 4.000000
14.292937 -0.471648 2.756732 3.000000
14.226069 -0.335257 2.743103 14.000000
11.961123 -0.281880 2.748137 48.000000
11.831763 -0.055756 2.717691 24.000000
11.759789 0.116973 2.701274 3.666667
11.849619 0.204767 2.722168 29.000000
10.172743 0.287671 2.719829 11.500000
10.465675 0.246637 2.797803 3.000000
11.766253 0.277287 2.703364 44.000000
11.873371 0.279855 2.727989 6.000000
14.154733 0.303944 2.729222 12.333333
10.309916 0.405077 2.757525 7.000000
10.412677 0.343605 2.784377 1.000000
11.016499 0.328886 2.736302 19.000000
10.293148 0.436810 2.753394 54.000000
10.246124 0.531598 2.742033 45.000000
11.000149 0.744129 2.737266 29.000000
10.876166 0.907538 2.709636 48.333332
11.027482 0.850454 2.745940 52.000000
10.918140 1.188017 2.726664 1.000000
11.053081 1.167578 2.759434 25.000000
11.104763 1.705218 2.789312 50.000000
10.157588 1.855105 2.759591 10.000000
9.957430 2.111068 2.720345 2.000000
10.218159 2.032519 2.784377 1.000000
11.657507 2.091215 2.720377 8.000000
10.016825 2.255552 2.744099 51.000000
9.943937 2.838235 2.763722 0.000000
12.586170 3.000771 2.730909 37.000000
12.759283 3.084438 2.770560 37.000000
-19.520510 3.182610 2.746219 5.000000
9.617935 3.175243 2.706919 92.000000
9.741737 3.182209 2.738935 14.000000
12.422222 3.127162 2.703650 0.000000
12.634514 3.307533 2.756517 48.000000
9.563371 3.335951 2.706919 30.333334
10.361981 3.366783 2.704978 24.000000
9.529778 3.464808 2.710017 45.000000
12.743202 3.593954 2.794515 17.000000
-19.468058 3.741927 2.752637 17.000000
12.039583 4.334514 2.700758 15.000000
13.500158 4.788614 2.761275 4.000000
-18.978760 5.834991 2.756946 18.500000
-18.969433 5.995667 2.762356 19.333334
-19.003456 6.170954 2.774275 19.500000
-19.004295 6.270352 2.778676 18.000000
-18.856710 6.287421 2.759972 54.000000
-18.727983 6.309940 2.744019 53.000000
-18.734093 6.443411 2.750803 58.666668
-19.013577 6.673368 2.797931 17.000000
10.092936 9.719527 2.701082 28.500000
10.217464 9.932581 2.746889 16.000000
9.864324 10.020501 2.710546 20.000000
9.899728 10.183669 2.737803 4.000000
9.714232 10.247405 2.721904 50.000000
10.000337 10.222710 2.756732 22.000000
9.987758 10.339014 2.771117 40.000000
8.988352 10.899865 2.723418 10.000000
9.390012 10.889956 2.771874 9.000000
9.492064 10.835060 2.776796 8.500000
8.820937 11.045842 2.724932 25.000000
9.002083 11.128504 2.759255 17.666666
9.243285 11.137546 2.790046 116.000000
10.827736 11.142184 2.714378 2.000000
9.122362 11.277246 2.796103 42.000000
8.241043 11.455962 2.720389 17.000000
7.861259 11.711931 2.719127 23.333334
8.415211 11.620887 2.765817 27.000000
10.411178 11.701686 2.736407 20.000000
7.972814 12.013692 2.779446 7.000000
10.286171 12.009562 2.762566 27.000000
-19.474962 12.023310 2.771712 3.666667
7.980425 12.107547 2.795346 14.000000
10.219869 12.110730 2.768532 4.333333
-19.472164 12.177034 2.781250 4.000000
4.824361 12.184970 2.766016 9.000000
-19.486774 12.314264 2.791589 3.000000
9.869315 12.283730 2.752928 2.000000
7.658888 12.338103 2.799384 12.000000
-19.303539 12.497502 2.784857 41.000000
-19.221159 12.573181 2.781490 20.000000
-19.234621 12.668456 2.789185 19.000000
-18.897465 12.963601 2.775239 17.000000
-18.726841 12.976664 2.759129 18.500000
-18.586376 13.053085 2.750473 28.000000
-18.626732 13.212880 2.765621 52.000000
11.207253 13.252607 2.720376 1.000000
-18.617470 13.338696 2.773556 38.000000
-18.655798 13.499581 2.788704 48.000000
-18.632551 13.572158 2.791589 29.000000
8.901507 15.220906 2.763733 2.000000
7.911588 15.354712 2.707368 2.000000
7.462753 15.674140 2.720995 9.000000
7.470852 15.818999 2.742054 16.000000
-7.248782 16.182121 2.779218 3.500000
6.883288 16.122047 2.747629 7.000000
7.348692 16.215145 2.790367 16.000000
7.120564 16.251915 2.781076 4.000000
5.638438 16.393801 2.717279 16.000000
-19.928209 16.954239 2.705682 2.000000
10.421966 16.953920 2.763273 5.000000
10.646590 16.958967 2.780327 3.000000
-19.854713 17.216890 2.717613 2.000000
-19.877209 17.382870 2.730643 2.666667
-19.882366 17.571890 2.743946 3.000000
-19.880581 17.681856 2.751352 2.000000
-19.881268 17.794641 2.759170 1.000000
8.462158 18.213509 2.788579 15.000000
8.394948 18.218414 2.785278 8.000000
8.541183 18.233475 2.795730 1.000000
6.634006 18.346245 2.708811 9.000000
6.533165 18.428642 2.714862 4.000000
-19.618921 18.526684 2.790440 21.000000
-19.479548 18.569574 2.783034 21.000000
-19.366554 18.578354 2.775216 17.000000
-19.183071 18.576605 2.761433 20.500000
-19.028427 18.601513 2.751764 24.000000
6.640444 18.546041 2.735216 18.000000
-19.049318 18.739325 2.763284 46.000000
6.519975 18.764986 2.758322 6.000000
-19.069523 18.877459 2.774805 65.000000
4.718936 18.884567 2.702759 13.500000
4.806921 18.858299 2.702209 8.000000
-19.089054 19.015896 2.786325 78.000000
6.547326 19.036398 2.795180 2.000000
-19.105091 19.151821 2.797434 56.000000
6.453496 21.856659 2.759850 19.000000
-19.824379 24.489815 2.705624 6.000000
-19.842262 24.669979 2.718629 3.000000
-19.876627 24.872290 2.734029 1.000000
-19.899469 25.387869 2.769963 72.000000
-19.824514 25.456543 2.770647 1.000000
5.140906 25.680794 2.708356 19.500000
3.044951 26.519415 2.760404 2.000000
3.997166 26.650202 2.786737 13.000000
2.262128 26.715393 2.772542 3.000000
2.489682 26.888983 2.792497 1.000000
8.596313 31.272667 2.785020 7.000000
5.933300 31.431171 2.746691 1.000000
5.498502 31.866089 2.776807 1.000000
5.604795 31.883987 2.779887 9.000000
5.110203 32.011379 2.783652 15.000000
-15.693764 37.683323 2.791463 2.000000
7.266361 -32.217186 2.836012 38.000000
7.365761 -32.186424 2.835327 52.000000
-15.471147 -29.808653 2.883923 10.000000
-16.600117 -29.020664 2.870919 8.000000
-16.704115 -28.781363 2.857572 16.000000
-16.689857 -28.549837 2.839776 3.000000
-16.408678 -28.478027 2.822323 5.000000
-4.156333 -22.802958 2.806978 4.000000
-6.841050 -22.644363 2.864685 13.000000
-5.006819 -22.602962 2.803612 3.000000
-7.195889 -22.534117 2.864685 1.000000
-7.049706 -22.318056 2.834389 12.000000
-6.823971 -22.334135 2.828137 24.000000
-7.942065 -22.193523 2.854586 2.000000
-7.555390 -22.206511 2.840640 1.000000
-8.629442 -21.918325 2.852663 0.000000
-8.244997 -21.947083 2.839198 10.000000
-6.501255 -19.704117 2.880999 10.000000
-5.107866 -19.779123 2.836439 20.000000
-6.140121 -19.641197 2.857344 6.000000
-6.251352 -19.564491 2.851843 6.000000
-6.016362 -19.459774 2.828187 17.000000
-7.817731 -18.967232 2.848542 8.000000
-9.075619 -18.460360 2.856244 6.000000
-18.113596 -3.252619 2.884515 0.000000
-18.097557 -3.161791 2.879560 129.000000
-18.116594 -3.018704 2.878734 2.000000
-18.123421 -2.844542 2.875430 4.666667
-18.132214 -2.700175 2.873366 12.000000
-18.142385 -2.556225 2.871714 25.666666
-18.154758 -2.412693 2.870579 41.500000
11.248229 -2.292580 2.850033 30.000000
-18.164616 -2.268965 2.869236 61.666668
11.171350 -2.222120 2.827865 55.000000
-18.176031 -2.096615 2.867791 83.000000
11.169150 -2.124554 2.822725 29.333334
11.223970 -2.049861 2.832685 0.000000
-18.190010 -1.953594 2.867481 99.000000
11.143671 -1.980974 2.810035 5.500000
-18.197994 -1.838864 2.866862 110.000000
-18.208448 -1.753273 2.867172 123.000000
-18.218452 -1.667636 2.867481 133.500000
-18.220695 -1.552460 2.866243 127.500000
-17.930437 -1.442647 2.819479 102.000000
14.860015 -1.475369 2.878631 15.000000
-17.929132 -1.357545 2.818240 106.000000
-17.943148 -1.216950 2.818859 100.666664
11.408278 -1.241350 2.849070 0.000000
-17.956450 -1.047940 2.819272 96.333336
14.840935 -1.050794 2.868031 2.000000
-17.961533 -0.906750 2.818859 95.000000
-17.975958 -0.765987 2.820098 89.333336
-17.991596 -0.596840 2.821543 85.000000
14.896935 -0.561889 2.873709 23.000000
-17.998398 -0.455580 2.821956 82.000000
11.329544 -0.480791 2.815336 15.000000
11.540473 -0.453426 2.867382 6.000000
14.798184 -0.395258 2.853645 1.000000
-18.011921 -0.314384 2.823608 79.666664
14.703800 -0.207884 2.834717 15.000000
-18.027256 -0.144722 2.825672 78.333336
12.314928 -0.096724 2.828727 15.000000
-18.041706 -0.003139 2.827840 73.500000
-18.039564 0.081865 2.827531 73.000000
-18.054764 0.167015 2.830008 72.500000
-18.061262 0.280576 2.831247 70.500000
-18.166437 0.367849 2.847971 118.000000
-18.385708 0.458975 2.882657 105.500000
-18.390713 0.603670 2.884102 104.666664
10.699711 0.588840 2.863901 100.000000
11.657619 0.531408 2.897261 30.000000
10.776798 0.661025 2.885590 51.000000
-18.401628 0.739088 2.886580 89.666664
10.823702 0.789135 2.900393 29.000000
-18.417393 0.908837 2.890244 74.000000
10.800879 0.867279 2.895917 57.000000
10.656685 0.922969 2.858737 58.000000
13.261899 0.938993 2.806079 8.000000
13.356828 1.008997 2.827144 14.500000
-18.429836 1.030387 2.893186 62.666668
-18.440235 1.186016 2.896283 45.333332
11.226620 1.150257 2.801842 2.000000
12.390555 1.151618 2.858277 3.000000
10.641451 1.293411 2.864934 13.000000
12.491698 1.240231 2.883349 12.000000
-18.446156 1.331944 2.898761 35.000000
10.400887 1.463601 2.807098 21.000000
11.364260 1.417507 2.843287 84.000000
13.505663 1.426653 2.866381 3.000000
11.229751 1.760540 2.822082 7.000000
11.371725 1.856078 2.860635 4.000000
11.426919 1.926548 2.877020 20.000000
10.109604 3.104316 2.826377 38.333332
10.822163 3.857756 2.852443 11.500000
11.928907 3.896664 2.882454 17.000000
11.828429 4.363738 2.895886 49.000000
-19.956087 4.688006 2.846342 0.000000
-19.921988 4.746092 2.843591 0.000000
12.697223 4.729625 2.859772 16.000000
12.766557 4.801176 2.878772 2.000000
-19.772404 4.973821 2.830938 10.000000
13.858504 4.964791 2.837745 0.000000
-19.987032 5.094635 2.863945 2.000000
11.243624 5.034221 2.829622 33.000000
-19.784937 5.242188 2.841941 1.000000
-19.778372 5.373669 2.845791 0.000000
12.159156 5.605448 2.825905 6.000000
-19.992247 5.770471 2.889251 6.000000
12.254411 5.790018 2.860599 2.000000
-19.798481 5.849546 2.866513 12.333333
-19.793007 5.983399 2.871097 14.000000
-19.022392 6.743656 2.802332 19.000000
-19.066784 6.860766 2.813609 11.500000
-19.252001 7.029993 2.845791 0.000000
-18.943924 7.462205 2.827087 0.000000
-18.969221 7.575665 2.836164 1.000000
-19.137167 7.747467 2.866696 2.000000
-18.987204 7.779494 2.849092 5.000000
-18.988146 7.942939 2.857894 15.666667
-18.998592 8.076200 2.866421 23.000000
-19.009296 8.222141 2.875773 47.000000
-19.015282 8.366955 2.884575 30.000000
-19.027430 8.515395 2.894477 30.000000
10.892825 9.943030 2.843045 1.000000
10.569240 10.082554 2.815788 28.000000
10.884802 10.030199 2.853266 39.000000
8.691660 10.607797 2.894466 37.000000
10.033753 10.518084 2.802160 53.000000
9.969072 10.649457 2.812003 11.000000
10.037492 10.655253 2.821845 21.000000
10.221788 10.648016 2.845317 30.000000
8.243637 10.787651 2.865555 18.799999
9.745540 10.812128 2.805946 2.000000
10.063976 10.818763 2.848345 19.000000
8.043545 10.961986 2.869685 10.000000
8.105581 10.938101 2.873402 2.500000
9.974807 10.927636 2.852131 38.000000
10.072856 10.965666 2.870302 6.000000
9.912428 11.137200 2.874088 11.000000
9.316450 11.443471 2.844559 21.000000
8.687707 11.762215 2.818817 23.000000
8.855848 11.911375 2.861217 1.000000
8.451859 11.985716 2.827145 20.000000
8.928525 11.930664 2.872573 15.000000
9.006136 11.955888 2.885445 5.000000
10.918017 12.040896 2.839667 4.000000
8.322810 12.123358 2.834717 17.000000
8.574856 12.268867 2.885445 30.000000
8.734811 12.223176 2.896045 22.000000
10.404173 12.224862 2.804559 4.000000
10.812827 12.230278 2.852058 18.000000
7.852109 12.372943 2.824874 19.500000
7.933860 12.344035 2.828660 21.333334
8.095085 12.365876 2.849102 17.000000
10.627418 12.329372 2.843797 27.000000
11.070819 12.364654 2.899558 7.000000
-19.525042 12.424460 2.802650 5.000000
7.678479 12.486071 2.825631 1.000000
-19.552786 12.528582 2.812268 8.000000
7.700624 12.610696 2.848345 15.000000
10.036798 12.654212 2.821769 15.000000
7.511563 12.747015 2.852131 31.000000
7.623750 12.753509 2.864245 1.000000
7.692982 12.838637 2.885192 72.000000
7.787224 12.843055 2.895288 145.000000
-19.502508 12.932917 2.833908 20.000000
-19.517925 13.031603 2.842083 4.000000
9.438764 13.125759 2.824522 12.000000
9.059500 13.380826 2.823145 3.000000
9.294955 13.453700 2.856877 11.000000
-18.653870 13.677585 2.801207 53.000000
6.264895 13.646152 2.894530 25.500000
8.234183 13.780142 2.804559 34.000000
-18.662575 13.819687 2.812268 36.000000
8.153438 13.841790 2.806624 5.000000
8.851106 13.904161 2.879595 5.000000
-18.673603 13.964555 2.823809 50.000000
-18.669331 14.099081 2.833187 26.000000
-18.667465 14.236245 2.843045 0.000000
7.955019 14.493999 2.888544 19.666666
6.486590 14.679505 2.803870 13.750000
6.619199 14.728386 2.821080 2.000000
6.961715 14.861670 2.867203 13.000000
6.775658 16.586689 2.808329 17.000000
7.200154 16.575041 2.832486 4.000000
6.640931 16.704893 2.817620 11.000000
6.588112 16.802198 2.828769 6.500000
6.481693 16.841419 2.828460 3.500000
6.502501 17.135971 2.872746 15.000000
5.545885 17.482834 2.874811 30.000000
5.627230 17.422239 2.869649 0.000000
8.390369 18.360010 2.802882 1.000000
-19.967796 18.561722 2.819241 7.000000
-19.798973 18.521070 2.803606 21.000000
8.227854 18.619825 2.826537 3.000000
-19.106449 19.273918 2.806486 36.000000
-19.098860 19.387701 2.814304 29.000000
6.329479 19.387911 2.831855 19.000000
-19.107435 19.518690 2.824590 28.000000
-19.120934 19.655621 2.835699 32.000000
-19.136524 19.795689 2.847219 39.000000
-19.148655 19.933187 2.858329 61.000000
-19.160120 20.070946 2.869438 52.000000
-19.159948 20.197439 2.878901 6.000000
7.904129 22.308195 2.866128 3.000000
-19.868244 27.057245 2.882554 35.000000
-19.745571 27.068014 2.877079 40.000000
-19.761000 27.268671 2.891794 68.000000
4.267833 27.284966 2.855860 48.000000
4.359802 27.310715 2.859974 17.000000
8.505965 31.722546 2.820270 3.000000
5.055802 32.322586 2.809318 17.000000
4.371638 33.431301 2.895216 6.000000
-15.666668 37.953762 2.807837 1.000000
-16.613258 38.189663 2.847953 4.000000
-16.494787 38.245327 2.848226 2.000000
-16.463972 38.506115 2.863781 3.000000
-16.324238 38.513554 2.860506 4.000000
-16.181530 38.513138 2.856686 3.000000
-15.474911 38.514454 2.838402 1.000000
-15.696287 38.713436 2.856686 2.000000
-17.373659 -30.152796 2.988302 7.000000
-17.546675 -30.015518 2.985564 5.000000
-17.348274 -29.891253 2.967768 2.000000
-17.907953 -29.349459 2.952368 8.000000
-17.198862 -29.139772 2.905597 10.000000
-18.734926 -29.037508 2.967426 4.000000
-5.198975 -20.945370 2.996525 19.000000
-4.814806 -20.788996 2.962968 24.000000
-4.697139 -20.876818 2.971220 11.000000
-4.069336 -20.818510 2.945364 2.000000
-5.219324 -20.748344 2.970670 26.000000
-4.534594 -20.762701 2.950865 14.000000
-4.459344 -20.730366 2.944264 2.000000
-4.323104 -20.729452 2.940229 3.000000
-4.154202 -20.733028 2.936012 6.000000
-5.684815 -20.666758 2.976171 2.000000
-5.525073 -20.591097 2.960217 7.000000
-4.710671 -20.634066 2.938762 15.000000
-5.859776 -20.543682 2.966269 1.000000
-5.360489 -20.491251 2.940963 15.000000
-6.067546 -20.301401 2.942063 2.000000
-5.671063 -20.366356 2.935462 3.000000
-6.859221 -20.045647 2.941788 63.500000
-6.130116 -20.050697 2.911256 1.000000
-7.829051 -19.693548 2.942613 2.000000
-8.469033 -19.496056 2.951415 1.000000
-5.850717 -18.114162 2.983618 3.000000
-6.148529 -18.061182 2.990431 7.000000
-5.963175 -18.073294 2.982998 6.000000
-6.432764 -17.789717 2.965036 12.000000
-6.306338 -17.788811 2.958223 21.000000
-5.958676 -17.870777 2.952648 16.000000
-6.183677 -17.618370 2.926634 22.000000
-5.749381 -12.760170 2.953942 6.250000
-17.800520 -7.018995 2.999103 73.000000
-17.811441 -6.958718 2.997244 60.000000
-17.838036 -6.536663 2.977734 100.500000
-17.978727 -6.444402 2.993528 39.000000
-18.001427 -6.356959 2.992289 36.000000
-18.053596 -6.279859 2.996006 28.000000
-17.922600 -5.578842 2.942118 0.500000
-17.922792 -5.409533 2.934376 7.250000
-17.929899 -5.263462 2.928905 23.000000
-17.942625 -5.124660 2.924775 45.666668
-17.959648 -4.946937 2.919820 99.666664
-17.981478 -4.811392 2.917549 67.333336
-18.325575 -4.009023 2.940260 2.000000
-18.350037 -3.923872 2.941189 36.500000
-18.360464 -3.787578 2.938402 34.400002
-18.381872 -3.559764 2.934686 31.000000
-18.519232 -3.385554 2.950790 1.000000
-18.378761 -3.449466 2.930969 37.000000
11.033785 -1.623425 2.980606 3.000000
15.056149 -1.447090 2.915730 48.000000
14.056546 -1.261932 2.978723 22.000000
12.949686 -1.019163 2.983640 17.000000
12.982478 -0.891902 2.989012 34.666668
13.008791 -0.962154 2.996176 47.000000
12.045937 -0.814874 2.997499 20.000000
11.799256 -0.240979 2.930031 8.000000
11.826367 -0.241532 2.936778 19.000000
11.703493 -0.165466 2.905935 2.000000
11.894170 -0.130788 2.953163 4.000000
11.707607 0.147130 2.906899 4.000000
14.148288 0.333422 2.986984 1.000000
11.762281 0.443650 2.922320 2.000000
15.111737 0.546200 2.914973 26.000000
11.031898 0.728895 2.954786 65.500000
13.720593 0.884866 2.901901 10.000000
10.838846 0.990261 2.908827 14.000000
12.807541 1.332519 2.957672 46.500000
13.860983 1.376180 2.939899 8.000000
-18.465284 1.479219 2.903510 22.333334
-18.476763 1.655538 2.907639 12.333333
10.810809 1.625333 2.921737 14.000000
12.887232 1.689772 2.985431 9.000000
-18.488350 1.773712 2.911149 7.000000
10.833502 1.803189 2.935163 10.000000
13.641840 1.745140 2.902727 1.000000
-18.502350 1.833731 2.914246 5.000000
-18.488636 1.891050 2.913007 4.000000
10.934461 1.855315 2.964081 80.000000
-18.511202 1.991364 2.918169 90.000000
-18.513821 2.099575 2.920440 111.000000
11.743917 2.030638 2.958946 52.000000
13.987738 2.125367 2.986157 12.500000
-18.532026 2.249211 2.926014 105.000000
12.598136 2.300829 2.941554 2.000000
-18.537346 2.397716 2.929730 101.500000
-18.549219 2.547562 2.934686 95.333336
-18.558010 2.697412 2.939331 89.500000
11.485147 2.814647 2.935814 3.000000
-18.574623 2.848979 2.945422 86.333336
10.809962 2.866209 2.988868 18.000000
12.527919 2.820991 2.949613 1.000000
-18.587477 3.000535 2.951100 79.500000
-18.589920 3.150951 2.955332 74.000000
10.499772 3.140237 2.928967 51.500000
10.688682 3.196593 2.981638 50.000000
-18.475798 3.281075 2.941189 103.000000
10.478015 3.277587 2.934130 5.000000
13.517391 3.312686 2.937421 5.000000
-18.481537 3.371997 2.944596 101.000000
10.525150 3.355974 2.952462 29.250000
-18.505821 3.436532 2.950171 92.000000
10.330064 3.446370 2.910377 0.000000
12.569394 3.502345 2.997072 63.000000
13.629679 3.476696 2.968811 0.000000
-18.631004 3.540586 2.972469 76.666664
-18.649120 3.675721 2.979282 51.500000
-18.650984 3.767472 2.982379 43.000000
-18.660559 3.906940 2.988263 26.250000
12.070926 3.901129 2.913795 36.000000
10.243544 3.944424 2.933614 4.500000
12.406179 3.966476 2.991699 3.000000
-18.667282 4.046251 2.993838 14.500000
12.092793 4.034460 2.928122 1.000000
13.338741 4.172440 2.949811 6.000000
13.520036 4.182565 2.986984 0.000000
11.826321 4.447577 2.902154 24.000000
11.957600 5.241594 2.998863 17.666666
-19.043873 8.666780 2.905205 25.500000
-19.051964 8.815385 2.914832 24.500000
-19.066111 8.967800 2.925559 23.500000
-19.077301 9.119892 2.936012 23.500000
-19.087650 9.235552 2.944264 24.000000
-19.102592 9.354160 2.953341 47.500000
-18.979591 9.442230 2.943439 36.500000
-18.992371 9.597952 2.954716 39.000000
10.171721 9.521860 2.940725 3.000000
10.020904 9.680455 2.940725 12.000000
-19.119829 9.775693 2.981672 32.000000
10.071470 9.729406 2.955594 10.000000
-19.135096 9.897556 2.991299 30.000000
9.826635 9.982217 2.956420 8.000000
9.449792 10.222727 2.938247 27.000000
9.656623 10.272455 2.975694 48.666668
10.977123 10.405983 2.915730 11.000000
11.086952 10.444161 2.936173 9.000000
8.826374 10.567464 2.906031 11.000000
8.948357 10.544042 2.918835 51.500000
10.893372 10.589643 2.928602 1.000000
8.686922 10.808214 2.926682 34.000000
9.063515 10.782352 2.972941 15.000000
8.449714 10.893270 2.909748 4.000000
8.709869 10.906668 2.945956 34.000000
8.598988 10.943066 2.937421 17.000000
8.748173 10.954724 2.958898 13.000000
8.905390 10.938562 2.977071 20.000000
8.352561 11.088249 2.929986 16.000000
9.801939 11.735470 2.947530 38.000000
9.885438 11.987731 2.995229 4.000000
9.627296 12.055590 2.974030 1.000000
11.459086 12.168595 2.920210 9.000000
11.671284 12.238934 2.954631 3.000000
11.418771 12.357082 2.939486 13.000000
10.958995 12.474362 2.900935 12.000000
11.681957 12.483611 2.986986 1.000000
10.924294 12.593574 2.912638 5.000000
8.231750 12.661266 2.911187 5.000000
8.576860 12.663208 2.948287 5.000000
8.674134 12.720572 2.967973 11.000000
10.788521 12.880136 2.935355 23.500000
10.752242 13.043511 2.953254 12.000000
7.691638 13.146852 2.936173 0.000000
10.703161 13.236187 2.973906 1.000000
9.949326 13.387012 2.914015 2.000000
6.528727 13.596042 2.907402 31.000000
6.609056 13.653240 2.924059 17.000000
6.931632 13.621714 2.946268 26.666666
6.179815 13.790742 2.913156 24.400000
6.536988 13.779219 2.939959 17.000000
6.511330 14.008249 2.977815 13.000000
6.796598 13.928920 2.987658 21.000000
5.737235 14.037649 2.923302 4.000000
9.102828 14.103190 2.932602 1.000000
9.265691 14.062838 2.942239 0.000000
8.827648 14.360367 2.944993 1.000000
8.158195 14.466652 2.901623 25.000000
8.416177 14.600776 2.944304 19.000000
8.141780 14.651954 2.928471 77.000000
8.359968 14.662498 2.948779 11.500000
8.586650 14.788944 2.987674 99.000000
-19.548424 14.908085 2.977214 11.000000
-19.555037 15.010534 2.985389 11.000000
7.970480 14.980074 2.964544 19.799999
-19.564350 15.115592 2.994045 13.000000
7.614691 15.246044 2.977348 11.000000
7.558265 17.250919 2.952029 15.000000
5.524095 17.670630 2.901858 8.000000
6.153505 17.710430 2.938712 16.000000
6.332885 17.687061 2.944596 14.000000
5.998386 17.803284 2.944596 14.000000
6.178880 17.783289 2.950790 16.000000
5.327089 18.134991 2.962558 25.000000
5.614460 18.159826 2.979282 19.000000
5.282137 18.300392 2.985476 25.000000
5.241961 18.377699 2.995386 30.000000
-19.522165 20.709173 2.943087 3.000000
-19.522295 20.840090 2.952962 6.000000
-19.535341 20.985779 2.964894 10.000000
-19.539566 21.122982 2.975591 13.000000
-19.553885 21.272146 2.987935 14.000000
-19.564781 21.418661 2.999867 14.000000
5.145271 23.401951 2.901714 48.000000
5.045771 23.476440 2.907965 8.000000
6.331886 23.467159 2.943552 20.500000
6.172534 23.612230 2.955574 9.000000
6.488756 23.605551 2.964711 26.000000
6.944901 23.520950 2.970001 5.000000
5.638949 23.688168 2.948842 20.000000
3.489980 23.777658 2.910370 12.000000
6.621433 23.795462 2.991160 2.000000
3.579387 23.864752 2.922392 30.000000
5.758063 23.855623 2.971924 35.000000
5.843361 23.879847 2.977214 39.000000
6.315798 23.853754 2.988275 6.000000
5.628024 23.976381 2.982504 29.000000
6.186633 23.973711 2.998374 27.000000
2.842437 24.087662 2.937300 1.000000
3.025898 24.019245 2.931770 10.500000
3.842956 24.073082 2.952208 7.000000
5.440886 24.025616 2.983225 19.000000
3.232038 24.126629 2.947880 21.000000
3.314294 24.163568 2.953650 20.000000
3.172188 24.258728 2.962787 7.000000
4.239571 24.267103 2.983305 26.333334
2.955839 24.390041 2.975291 5.000000
3.476427 24.487728 2.995248 30.000000
-19.759050 27.447060 2.904114 38.000000
-19.804873 27.693771 2.923621 55.000000
-19.800854 27.872822 2.935941 54.000000
5.435932 28.069988 2.956665 8.000000
-19.848770 28.127007 2.956132 51.000000
-19.844955 28.309965 2.968795 65.000000
6.531502 28.223614 2.995752 24.000000
-19.874334 28.542244 2.986590 41.000000
8.443620 32.719723 2.901719 2.000000
4.538257 33.477425 2.901034 3.000000
4.804418 33.464462 2.903088 2.000000
4.917050 33.500465 2.907537 22.000000
8.561135 33.611183 2.978377 1.000000
5.076064 33.843506 2.938679 8.000000
5.422444 33.967323 2.953737 8.000000
-16.650351 -31.593571 3.066671 10.000000
-16.466057 -31.483271 3.050929 6.000000
-16.985168 -31.269781 3.055720 4.000000
-16.836515 -30.765276 3.011573 1.000000
-17.345230 -30.545542 3.016364 4.000000
-18.313042 -29.802380 3.003702 1.000000
-19.236399 -29.610147 3.032106 2.000000
-18.987625 -29.633116 3.022182 6.000000
-19.320602 -29.536228 3.030737 10.000000
-19.530031 -29.450785 3.034502 3.000000
-19.327805 -29.345579 3.017390 13.000000
-4.016901 -21.631121 3.054838 22.000000
-5.117034 -21.479057 3.065841 11.000000
-4.128057 -21.477060 3.036685 29.000000
-5.119368 -21.193287 3.027332 7.000000
-4.997883 -21.275177 3.034484 22.000000
-6.968025 -21.118811 3.087846 2.000000
-6.823020 -21.124472 3.082345 26.000000
-5.170841 -21.115530 3.018530 9.000000
-7.404254 -20.885794 3.076844 2.000000
-7.019620 -20.834316 3.052638 11.000000
-7.060780 -20.740898 3.042186 21.000000
-7.216577 -20.561281 3.025682 21.000000
-8.819902 -20.479591 3.096098 7.000000
-8.730633 -20.448896 3.087296 10.000000
-8.559057 -20.401051 3.071892 10.000000
-7.101232 -20.437893 3.004227 90.000000
-8.325024 -20.198013 3.033384 5.000000
-7.913589 -20.213860 3.014129 39.666668
-9.568470 -19.696751 3.040535 7.500000
-9.494422 -19.780933 3.046587 8.000000
-9.711900 -19.445047 3.017980 4.000000
-4.941512 -19.134953 3.097586 9.000000
-5.301295 -19.038416 3.097586 35.000000
-4.972594 -19.008465 3.079624 4.000000
-5.042253 -18.910339 3.067546 18.000000
-5.722602 -18.717783 3.067855 1.000000
-5.531381 -18.721619 3.059803 25.000000
-5.646617 -18.678928 3.058564 13.000000
-6.988995 -18.418028 3.087676 8.000000
-7.340791 -18.297695 3.090153 23.000000
-6.876877 -18.295630 3.063519 16.000000
-7.645639 -18.223862 3.097586 7.000000
-7.443660 -18.221945 3.085198 5.000000
-7.378963 -18.226925 3.082101 8.000000
-7.225371 -18.258581 3.077765 24.000000
-7.076065 -18.130463 3.050512 16.000000
-6.256153 -18.097347 3.001271 14.000000
-6.595702 -18.062668 3.013968 0.000000
-6.472759 -18.077709 3.009632 13.000000
7.038614 -11.033672 3.006138 19.625000
7.185067 -10.975751 3.013190 0.000000
-18.279139 -7.009381 3.068475 7.000000
-18.065390 -6.992599 3.036266 4.000000
-17.978771 -6.764993 3.010871 2.000000
12.179157 -1.791947 3.056292 6.000000
13.349084 -0.903028 3.073185 1.000000
12.339874 -0.717995 3.068822 4.000000
13.153070 -0.723857 3.025726 2.000000
14.527778 -0.068461 3.066284 2.000000
14.496468 0.068314 3.059676 7.000000
14.268978 0.134480 3.011765 32.000000
14.568527 0.267078 3.075371 25.000000
13.366436 0.377997 3.071394 12.500000
14.590446 0.481466 3.081153 33.000000
13.357592 0.524821 3.070498 50.000000
15.662199 0.812599 3.023243 10.000000
15.808246 0.720612 3.050500 8.000000
15.962825 0.777920 3.080786 1.000000
12.427531 1.155054 3.098700 52.000000
15.715055 1.311343 3.039901 8.000000
