# This PCD file was generated using the MATLAB® pcwrite function
# from Computer Vision Toolbox®.
# .PCD v.7 - Point Cloud Data file format
VERSION .7
FIELDS x y z intensity
SIZE 4 4 4 4
TYPE F F F F
COUNT 1 1 1 1
WIDTH 1215
HEIGHT 1
VIEWPOINT 0 0 0 1 0 0 0
POINTS 1215
DATA ascii
6.462515 -24.152042 -0.461724 48.000000
13.682759 -23.349709 -0.499798 36.000000
13.688967 -23.192951 -0.497361 37.000000
13.690236 -23.029507 -0.494776 36.000000
13.696778 -22.876583 -0.492412 36.000000
13.698363 -22.716995 -0.489901 37.000000
13.705305 -22.567883 -0.487611 37.000000
13.707278 -22.412125 -0.485174 36.000000
13.706311 -22.253174 -0.482663 37.000000
13.710803 -22.104645 -0.480373 37.000000
13.714501 -21.956312 -0.478084 36.000000
13.719525 -21.811560 -0.475868 25.000000
13.719502 -21.660236 -0.473505 38.000000
13.727265 -21.522615 -0.471436 40.000000
13.721334 -21.364969 -0.468925 34.000000
13.705862 -21.194141 -0.466119 37.000000
13.736595 -21.023872 -0.463792 45.000000
13.755174 -20.837067 -0.461096 29.000000
13.756369 -20.697159 -0.458954 31.000000
13.787269 -17.864523 -0.416745 57.500000
13.793937 -17.699965 -0.414418 62.000000
13.797643 -17.590458 -0.412867 63.000000
13.807079 -17.432764 -0.410688 59.000000
13.817938 -17.278486 -0.408583 53.000000
13.821255 -17.116737 -0.406294 54.000000
13.831065 -16.964609 -0.404226 55.000000
13.834543 -16.806625 -0.402010 52.000000
13.844632 -16.658184 -0.400016 47.000000
14.825521 -16.015715 -0.403044 26.000000
14.922668 -15.969015 -0.403635 79.000000
15.054319 -15.908348 -0.404484 79.000000
15.158133 -15.867623 -0.405260 80.000000
15.221766 -15.834340 -0.405629 80.000000
15.325453 -15.792540 -0.406404 78.500000
15.459415 -15.731590 -0.407328 80.500000
15.631467 -15.658688 -0.408608 78.333336
15.804281 -15.585104 -0.409913 78.500000
15.935791 -15.534760 -0.410996 67.000000
-19.148760 -13.077099 -0.428229 51.000000
-19.145523 -12.943048 -0.426789 53.000000
-19.191542 -12.799184 -0.426014 51.000000
-19.297932 -12.608978 -0.425718 47.000000
-19.228310 -12.693187 -0.425497 53.000000
-19.367233 -12.524436 -0.425940 51.000000
-19.423313 -12.474331 -0.426309 51.000000
-12.416546 -6.156555 -0.496565 36.200001
-12.258504 -5.216081 -0.477325 20.666666
-12.676354 -5.098429 -0.489547 15.000000
-12.717835 -4.999473 -0.489618 33.000000
-12.445440 -5.051041 -0.481239 22.000000
-12.097094 -5.020648 -0.469280 36.500000
-12.067778 -5.075303 -0.469065 31.000000
-12.881050 -4.993646 -0.494989 123.000000
-12.502925 -4.983103 -0.482242 52.000000
-12.691434 -4.874324 -0.487112 10.000000
-12.160717 -4.583031 -0.465628 7.000000
-11.924139 -4.451137 -0.456032 36.000000
-12.209022 -4.348907 -0.464367 38.400002
-11.943865 -4.381609 -0.455831 34.400002
-13.292972 -4.198916 -0.499477 32.333332
-12.215426 -4.256250 -0.463479 19.000000
-8.435040 -3.923298 -0.495193 41.000000
-8.462380 -3.867214 -0.495264 42.000000
-12.731785 -3.546386 -0.473541 38.750000
-12.965602 -3.491104 -0.481096 40.000000
-12.867097 -3.464629 -0.477444 40.500000
3.629114 -3.470499 -0.400053 66.827583
3.630229 -3.327007 -0.416506 86.900002
-12.593266 -3.200703 -0.465556 33.500000
-12.447214 -3.246908 -0.460901 40.500000
3.627233 -3.162229 -0.423977 83.285713
-12.361936 -3.079886 -0.456461 29.000000
3.618699 -3.012885 -0.453036 72.153847
-12.254339 -2.930701 -0.451448 49.000000
-12.473461 -2.817879 -0.458180 23.000000
-12.108982 -2.815621 -0.445433 64.000000
-12.002810 -2.830707 -0.441852 61.000000
-11.840382 -2.890793 -0.436696 51.000000
-5.409738 -2.851401 -0.432018 12.375000
3.618438 -2.870501 -0.445183 74.529411
-12.386382 -2.708376 -0.454284 28.200001
-12.047632 -2.761492 -0.442855 57.000000
-5.511275 -2.705785 -0.433745 36.750000
-5.414257 -2.753937 -0.429136 36.000000
3.615189 -2.718518 -0.438331 90.062500
-12.402521 -2.618144 -0.454170 37.500000
-5.614038 -2.684537 -0.439622 39.400002
-13.038584 -2.517915 -0.475797 54.000000
-12.846250 -2.522665 -0.469065 3.000000
-12.340381 -2.530878 -0.451353 29.666666
3.615354 -2.570487 -0.429875 92.611115
-12.869701 -2.443391 -0.469352 34.000000
-12.148328 -2.425271 -0.443857 2.000000
3.613794 -2.418535 -0.421384 94.166664
-13.241851 -2.342044 -0.481812 35.000000
-13.019419 -2.302496 -0.473720 48.500000
-12.717929 -2.352546 -0.463408 45.000000
-12.897706 -2.197693 -0.468779 37.000000
3.614790 -2.270193 -0.415609 96.684212
-13.161157 -2.136406 -0.477730 43.000000
-13.022959 -2.113763 -0.472717 47.000000
3.614126 -2.118071 -0.405919 98.500000
-13.092614 -2.019822 -0.474651 47.000000
-13.463177 -1.947268 -0.487398 42.000000
-13.326495 -1.970265 -0.482672 50.000000
-13.166089 -1.988833 -0.477086 39.000000
-13.511840 -1.809954 -0.488448 29.000000
-13.362360 -1.889851 -0.483531 39.000000
-5.955853 -1.797093 -0.439500 10.166667
3.609079 -1.818357 -0.424782 101.774193
-13.349370 -1.717197 -0.482242 36.000000
-6.054581 -1.713274 -0.444527 0.000000
-5.992758 -1.726309 -0.440580 6.500000
4.540355 -1.702915 -0.427236 0.333333
4.673516 -1.702766 -0.438236 1.000000
4.828344 -1.707812 -0.451225 1.000000
13.711030 -1.788052 -0.495419 99.000000
-13.077054 -1.640425 -0.472216 45.000000
3.611952 -1.673114 -0.422886 101.250000
4.420860 -1.684651 -0.444503 0.666667
4.992983 -1.678267 -0.464097 1.714286
5.101031 -1.625985 -0.471704 1.666667
-13.038834 -1.531728 -0.470390 39.750000
3.609620 -1.521446 -0.447102 96.478264
3.933297 -1.524725 -0.445987 1.500000
4.097075 -1.558721 -0.463439 1.000000
5.125372 -1.534352 -0.471382 1.875000
3.625269 -1.435623 -0.453369 26.799999
5.216535 -1.472196 -0.477555 2.666667
-13.034256 -1.365376 -0.469566 38.500000
-12.640262 -1.384335 -0.455602 76.000000
-12.856451 -1.224501 -0.462727 43.250000
-12.810741 -1.098272 -0.460686 43.500000
-12.750050 -1.032562 -0.458323 40.000000
7.498534 -1.066996 -0.403177 14.384615
-13.632423 -0.974792 -0.489690 107.000000
-12.927697 -0.965229 -0.464482 31.000000
-12.785113 -0.994986 -0.459469 36.000000
7.498035 -0.916691 -0.402101 7.000000
-12.908298 -0.841528 -0.463479 44.000000
-12.274846 -0.722808 -0.440563 31.000000
3.649850 -0.781086 -0.433272 1.294118
3.738058 -0.715676 -0.402376 1.200000
7.494117 -0.773142 -0.401038 7.666667
-12.247986 -0.616560 -0.439397 39.714287
3.747543 -0.638576 -0.460394 0.625000
3.959152 -0.642623 -0.424048 0.000000
4.105292 -0.626639 -0.439048 0.333333
4.235704 -0.605801 -0.452365 1.000000
4.388101 -0.641840 -0.429660 1.000000
4.530575 -0.642088 -0.437444 1.428571
4.746034 -0.686435 -0.422497 2.000000
7.489439 -0.618410 -0.400030 7.571429
-12.200818 -0.526296 -0.437555 33.000000
-12.396919 -0.456787 -0.444478 43.333332
-12.346313 -0.377215 -0.442568 64.000000
-12.268474 -0.297692 -0.439704 32.666668
-12.033915 -0.153317 -0.431206 36.833336
-13.766963 -0.074489 -0.493270 18.000000
-12.207987 -0.066054 -0.437412 9.000000
-12.084215 -0.027416 -0.432972 3.000000
-12.155888 0.086988 -0.435550 47.000000
-11.942286 0.029207 -0.427888 42.500000
-12.000509 0.161226 -0.430012 40.666668
-11.979578 0.255191 -0.429320 39.000000
-12.128112 0.315466 -0.434691 32.000000
-12.368292 0.438392 -0.443428 0.000000
-12.237665 0.433908 -0.438749 25.000000
-12.239773 0.549421 -0.438988 20.666666
-13.559655 0.651317 -0.486396 10.000000
-12.479646 0.638740 -0.447725 21.000000
-12.373797 0.672308 -0.444001 34.000000
-12.559195 0.721958 -0.450732 21.000000
-12.334996 0.786860 -0.442855 29.000000
-12.553698 0.899870 -0.450947 39.000000
-12.288591 0.822668 -0.441279 62.000000
7.481622 0.880244 -0.401002 84.666664
-12.396828 0.986537 -0.445576 45.000000
-12.783030 1.003813 -0.459421 31.000000
7.483488 1.023820 -0.402065 82.833336
-13.047936 1.162201 -0.469352 61.000000
-12.920093 1.109915 -0.464625 44.000000
7.489828 1.168904 -0.403518 80.000000
-13.151747 1.233954 -0.473290 11.000000
7.486764 1.283957 -0.404343 31.571428
-13.590498 1.368449 -0.489403 28.666666
-12.892562 1.393753 -0.464625 64.000000
-13.437560 1.409972 -0.484104 97.000000
-13.144368 1.567387 -0.474293 24.500000
8.975510 1.589086 -0.485200 4.000000
-13.023894 1.656883 -0.470402 37.666668
-13.262720 1.793190 -0.479521 30.500000
-13.273933 1.858445 -0.480237 37.000000
9.141638 1.849054 -0.496469 17.750000
-13.498419 1.954816 -0.488687 26.000000
-13.611636 2.036703 -0.493127 13.000000
11.757377 2.193963 -0.428532 1.000000
-13.570455 2.270922 -0.492984 40.500000
-13.630529 2.347055 -0.495562 28.000000
7.519624 2.437471 -0.420776 0.000000
11.491381 2.482425 -0.421228 0.000000
11.600845 2.697332 -0.426742 7.500000
10.787678 3.014003 -0.401319 26.000000
11.435086 3.040504 -0.423949 0.000000
11.438859 3.118591 -0.424808 9.000000
11.452608 3.277494 -0.426814 2.000000
11.101335 3.366495 -0.415642 8.000000
11.146317 3.341935 -0.416931 9.000000
11.386718 3.375061 -0.425524 4.000000
11.546875 3.383107 -0.431110 9.000000
11.722552 3.394626 -0.437269 5.000000
11.374428 3.605997 -0.427530 12.000000
4.706594 3.777381 -0.426345 23.000000
4.888652 3.762051 -0.435788 34.000000
7.469566 3.773481 -0.445466 22.750000
11.130234 3.760882 -0.420941 4.000000
11.474825 3.737374 -0.432399 23.000000
11.636762 3.769789 -0.438272 12.000000
3.778844 3.809075 -0.425885 56.416668
3.933422 3.818167 -0.435110 46.000000
4.083755 3.822727 -0.448449 42.909092
4.223848 3.830848 -0.416991 39.285713
4.386966 3.837615 -0.411772 26.400000
4.525249 3.834775 -0.419045 46.400002
4.686069 3.846273 -0.428290 31.200001
4.861571 3.851824 -0.438184 43.000000
4.965324 3.851961 -0.443963 36.750000
5.129848 3.858464 -0.453476 48.750000
5.274883 3.852031 -0.461439 11.000000
7.432556 3.809981 -0.444589 4.000000
11.807211 3.866035 -0.445146 21.000000
12.569718 3.854946 -0.471070 4.000000
7.597939 3.985625 -0.456709 22.000000
10.874551 3.981673 -0.414926 8.000000
11.019747 3.956494 -0.419509 9.000000
12.640607 3.963749 -0.474651 19.000000
12.889716 3.997430 -0.483531 25.000000
12.077579 4.165718 -0.457750 5.000000
12.162578 4.237838 -0.461474 17.000000
11.254738 4.322543 -0.431970 11.000000
11.866825 4.387318 -0.453310 21.000000
11.172601 4.412271 -0.430394 10.000000
12.036489 4.493077 -0.460328 20.000000
7.710453 4.601774 -0.477971 2.000000
7.958992 4.532367 -0.487539 1.000000
11.978132 4.557243 -0.459183 17.000000
7.393168 4.749975 -0.467765 2.000000
7.573548 4.749006 -0.475845 10.500000
7.734029 4.782211 -0.484030 7.500000
10.802395 4.764407 -0.423018 1.000000
7.626664 4.900044 -0.482542 4.500000
10.074741 4.885515 -0.401176 4.000000
12.392794 4.804358 -0.476226 16.000000
7.377519 4.955626 -0.473081 3.500000
7.525650 4.952868 -0.479565 0.500000
10.191463 5.303079 -0.411632 1.000000
12.230426 5.234388 -0.476656 4.000000
11.936423 5.376966 -0.469065 1.000000
11.364335 5.422945 -0.451162 9.000000
10.064796 5.687434 -0.414210 14.000000
10.254402 5.667612 -0.419795 3.500000
10.367042 5.645255 -0.422946 7.000000
9.882672 5.708063 -0.408910 4.000000
10.359543 5.897003 -0.427100 9.000000
11.300526 5.812662 -0.455316 13.500000
10.103808 5.963438 -0.420368 9.500000
10.231214 6.038677 -0.425668 1.000000
11.233646 6.025952 -0.456748 2.000000
12.369725 6.143077 -0.494846 3.000000
9.727730 6.290743 -0.415069 1.000000
9.784966 6.371441 -0.418363 2.000000
10.225039 6.342263 -0.431110 0.000000
11.702819 6.468300 -0.479091 0.000000
12.187586 6.488442 -0.494703 2.000000
12.327240 6.463715 -0.498713 10.000000
9.591070 6.638695 -0.417933 4.000000
9.997475 6.644821 -0.430108 3.000000
10.251376 6.629375 -0.437412 1.000000
10.218466 6.745516 -0.438701 4.000000
11.165875 6.780952 -0.468063 13.000000
9.511617 6.807138 -0.419079 1.000000
9.691340 6.844091 -0.425095 12.000000
10.575535 6.886217 -0.452165 2.000000
11.105446 6.864249 -0.467776 2.500000
3.284474 6.911035 -0.407310 34.333332
10.667511 6.993927 -0.457034 3.000000
3.274544 7.031966 -0.412909 35.500000
3.271041 7.141377 -0.418118 16.000000
10.685641 7.297452 -0.463623 1.000000
3.305713 7.307736 -0.426942 0.000000
11.004694 7.339166 -0.473935 5.000000
10.632791 7.409263 -0.464339 8.000000
11.691222 7.405172 -0.495848 8.000000
3.304901 7.589952 -0.440656 2.500000
3.464220 7.788205 -0.453732 0.333333
11.219491 7.923281 -0.492125 1.000000
11.279252 8.018710 -0.495848 2.000000
-3.877549 10.694052 -0.407573 56.333332
-3.654116 10.675664 -0.404291 31.750000
-3.987659 10.733856 -0.410271 45.500000
-3.808044 10.711967 -0.407335 60.000000
-3.762795 10.744875 -0.407908 53.500000
-3.583909 10.717392 -0.404900 8.000000
-4.127881 10.849760 -0.415928 51.833336
-6.110436 10.933221 -0.448763 22.000000
-5.974032 10.970851 -0.447581 19.000000
-5.959818 11.110353 -0.451735 7.000000
19.115913 11.201791 -0.409174 4.000000
-5.990631 11.252522 -0.456748 7.000000
-6.007540 11.370250 -0.460758 3.000000
19.294165 11.387822 -0.413753 5.000000
-19.446884 13.692873 -0.439234 3.000000
-19.302626 13.682199 -0.436945 2.000000
-19.630730 13.730269 -0.442410 0.000000
-19.223267 13.762533 -0.436612 8.000000
-19.062630 13.783836 -0.434434 7.000000
-18.835953 13.755569 -0.430741 10.000000
-18.867506 13.915403 -0.432956 8.000000
-18.735970 13.955140 -0.431442 6.500000
-18.610867 13.998854 -0.430076 7.000000
-18.442448 13.963099 -0.427195 8.000000
-18.400265 14.068029 -0.427749 57.500000
-18.382610 14.238521 -0.429411 115.000000
-18.257629 14.372503 -0.429116 4.333333
-18.248327 14.551808 -0.431036 2.000000
-18.327276 14.709201 -0.433990 3.000000
-18.327646 14.804399 -0.435098 5.000000
-18.377249 14.940107 -0.437388 5.000000
-18.525219 15.157322 -0.442041 5.000000
-18.455904 15.197647 -0.441524 2.000000
-18.512766 15.342317 -0.444035 2.000000
-18.571964 15.490061 -0.446620 2.000000
-18.615108 15.625464 -0.448836 2.000000
-18.639246 15.745813 -0.450608 1.000000
-18.711571 15.907907 -0.453563 2.000000
-18.755709 16.047209 -0.455852 1.000000
-18.799149 16.186954 -0.458142 1.000000
-19.221041 17.191628 -0.476237 1.000000
-19.229357 17.308121 -0.477788 2.000000
-19.272705 17.457043 -0.480226 2.000000
-13.696438 17.461445 -0.409839 1.000000
-19.344864 17.633348 -0.483401 3.000000
-13.752142 17.646338 -0.413162 1.000000
-13.816614 17.844400 -0.416781 1.000000
-13.867776 18.027197 -0.420031 2.000000
-13.932505 18.229549 -0.423724 1.000000
-13.988840 18.422930 -0.427195 1.000000
-14.036863 18.607269 -0.430445 1.000000
-14.057492 18.756884 -0.432883 1.000000
-14.141796 18.993427 -0.437314 3.000000
-14.179571 19.169584 -0.440342 4.000000
-14.249535 19.391287 -0.444404 5.000000
-14.944078 20.425953 -0.467399 47.666668
-8.157065 20.466608 -0.406884 13.000000
-8.083917 20.469812 -0.406441 34.000000
-14.848801 20.543037 -0.468113 45.000000
-6.814816 20.594032 -0.400607 8.000000
-6.737633 20.577335 -0.399868 23.000000
-14.791436 20.668079 -0.469368 21.000000
-14.742659 20.737259 -0.469885 31.000000
-6.718562 20.739172 -0.402601 21.000000
-6.652158 20.756367 -0.402527 20.000000
-14.716652 20.839012 -0.471141 20.000000
-14.756767 21.035748 -0.474539 7.000000
-6.492822 21.170969 -0.408953 1.000000
-6.603128 21.291803 -0.411685 7.000000
-14.882667 21.357632 -0.480743 5.000000
-6.738641 21.333174 -0.413162 11.000000
-14.936136 21.578566 -0.484657 15.000000
-15.035946 21.869247 -0.490123 8.000000
7.073452 22.057610 -0.427786 17.000000
7.195895 22.081104 -0.428894 9.000000
-15.143086 22.173988 -0.495884 7.000000
7.555840 22.119053 -0.431664 6.000000
7.676342 22.130472 -0.432587 5.000000
7.803809 22.160030 -0.433880 3.500000
7.022364 22.258549 -0.431036 45.000000
7.375772 22.206261 -0.432129 23.799999
7.978729 22.210300 -0.435837 3.500000
8.147702 22.240467 -0.437425 6.000000
8.268414 22.244978 -0.438274 3.000000
8.397852 22.271217 -0.439567 6.500000
8.566298 22.292683 -0.441044 6.000000
6.976229 22.356855 -0.432513 1.000000
-6.499108 22.982681 -0.441081 3.000000
-6.699007 23.133465 -0.444774 6.000000
-6.628503 23.162085 -0.444921 10.000000
-6.322660 -19.610426 -0.380517 0.000000
-6.398762 -19.530998 -0.379557 43.500000
-6.455415 -19.394388 -0.377489 50.000000
-6.485714 -19.283037 -0.375716 50.000000
-6.523093 -19.194407 -0.374387 46.000000
-6.553493 -19.086821 -0.372688 51.000000
-6.603801 -18.942430 -0.370472 51.500000
-6.669077 -18.749842 -0.367518 54.500000
-6.716687 -18.605358 -0.365302 51.000000
-6.761586 -18.457081 -0.363013 26.000000
-6.813709 -18.331299 -0.361166 53.000000
-6.861856 -18.197948 -0.359172 37.000000
-7.888569 -18.030481 -0.363456 52.000000
-6.922263 -18.014481 -0.356402 37.500000
-7.770232 -17.990318 -0.361905 64.000000
-7.614076 -17.937546 -0.359874 66.500000
-7.459664 -17.885368 -0.357880 67.500000
-7.309235 -17.839365 -0.356033 65.500000
-7.016926 -17.841043 -0.354051 19.000000
-7.157425 -17.786625 -0.354076 70.000000
13.850713 -16.559389 -0.398686 46.000000
13.867931 -16.422112 -0.396951 71.500000
14.000748 -16.369595 -0.397800 59.500000
14.134750 -16.317574 -0.398686 57.000000
14.254133 -16.247990 -0.399166 31.500000
5.771126 -15.761821 -0.309983 1.000000
-10.301409 -14.105925 -0.322575 23.000000
-10.153923 -14.042568 -0.320027 35.000000
-10.006195 -13.976389 -0.317442 36.500000
-9.873112 -13.928822 -0.315300 40.000000
-9.790160 -13.904179 -0.314045 40.000000
-9.702879 -13.872601 -0.312641 41.000000
-9.579376 -13.834274 -0.310758 37.500000
-9.405403 -13.767058 -0.307915 37.500000
-9.277659 -13.718513 -0.305847 37.000000
-9.148425 -13.665655 -0.303705 38.500000
-9.028664 -13.625315 -0.301858 39.000000
-8.946239 -13.593480 -0.300529 39.000000
13.851320 -13.345335 -0.355213 47.200001
13.981101 -13.276814 -0.356070 32.000000
14.085503 -13.222555 -0.356784 52.666668
-13.679639 -12.451883 -0.341618 25.666666
-11.729692 -11.311406 -0.300935 4.500000
-6.953642 -8.498717 -0.393442 0.000000
-7.024381 -8.437298 -0.393360 54.714287
-7.256042 -8.325922 -0.395705 62.500000
-7.143226 -8.375410 -0.394409 62.000000
-17.484867 -6.778424 -0.346321 1.000000
-8.436113 -3.928504 -0.333430 42.400002
-8.469602 -3.868727 -0.333621 34.333332
3.634009 -3.548758 -0.358835 0.000000
3.654234 -3.171019 -0.302425 76.800003
-5.381142 -2.818488 -0.323353 10.400000
-5.445650 -2.733916 -0.324360 14.333334
-17.280376 -2.112576 -0.321504 31.000000
3.617167 -1.969898 -0.399097 102.550003
-16.985321 -1.806209 -0.315448 2.000000
-16.912697 -1.690953 -0.313897 1.000000
-18.671677 -1.512125 -0.345951 6.000000
-18.253685 -1.420570 -0.338123 29.000000
-16.801744 -1.413838 -0.311386 3.000000
-16.494423 -1.440174 -0.305773 5.000000
9.686888 -1.387275 -0.350617 3.000000
10.353403 -1.152173 -0.373247 10.000000
9.985996 -1.016101 -0.359641 2.000000
10.163931 -1.082635 -0.366229 8.500000
3.679403 -0.936341 -0.304236 17.727272
10.125334 -0.901956 -0.364224 7.500000
10.212006 -0.942079 -0.367446 16.500000
3.661175 -0.869532 -0.397834 1.666667
3.761564 -0.800098 -0.338829 0.666667
3.937567 -0.805778 -0.318517 0.500000
4.231063 -0.810087 -0.304338 1.000000
4.370080 -0.801217 -0.313875 1.000000
4.512547 -0.798054 -0.323741 2.000000
4.703038 -0.808975 -0.337130 4.000000
4.760637 -0.803492 -0.341076 2.000000
10.314113 -0.853411 -0.370812 0.000000
-17.670860 -0.706645 -0.326601 1.000000
3.952982 -0.744059 -0.354392 0.000000
4.085517 -0.722455 -0.365538 0.500000
4.238997 -0.701656 -0.378557 1.000000
9.147442 -0.699039 -0.328704 1.000000
9.457636 -0.677951 -0.339732 2.500000
7.482889 -0.464266 -0.399089 23.500000
9.003835 -0.432485 -0.322975 12.000000
9.192840 -0.412621 -0.329706 15.000000
7.467698 -0.322146 -0.397884 96.000000
10.648639 -0.310463 -0.381697 4.000000
-17.696579 -0.290348 -0.326859 11.000000
9.565795 -0.278893 -0.342883 8.000000
-17.736328 -0.151686 -0.327561 0.000000
7.459793 -0.165414 -0.397193 94.833328
-17.420986 -0.039524 -0.321726 5.000000
7.457213 -0.040367 -0.396962 100.800003
10.191289 -0.056879 -0.365155 10.000000
10.225288 0.055325 -0.366372 21.000000
10.396948 0.088918 -0.372531 10.000000
7.450985 0.123562 -0.396679 102.333336
9.880983 0.115550 -0.354055 10.000000
7.450323 0.261741 -0.396835 105.000000
7.452572 0.340352 -0.397122 102.750000
9.695197 0.357201 -0.347610 7.000000
10.016895 0.306044 -0.359068 2.000000
10.562052 0.389139 -0.378690 1.000000
7.471509 0.441300 -0.398408 90.599998
9.856394 0.448351 -0.353518 13.000000
7.472161 0.571036 -0.398911 84.833336
10.246385 0.554975 -0.367661 19.000000
9.580496 0.639676 -0.344029 12.000000
10.495073 0.618008 -0.376684 10.000000
10.652671 0.660877 -0.382413 8.000000
7.475277 0.725098 -0.399787 85.571426
9.491432 0.708591 -0.341021 3.000000
9.794435 0.731290 -0.351906 4.000000
10.307053 0.737010 -0.370239 1.000000
9.522009 1.684128 -0.346464 17.000000
9.092400 1.785505 -0.331998 2.000000
9.515170 1.744644 -0.346607 2.000000
9.339562 1.895064 -0.341451 4.000000
10.331037 1.860709 -0.376112 9.000000
9.804119 1.957277 -0.358208 12.000000
10.134143 1.957032 -0.369810 0.000000
10.246278 1.945316 -0.373677 10.000000
9.064168 2.017778 -0.332714 6.000000
9.253246 2.014112 -0.339302 4.000000
9.497235 2.020432 -0.347896 65.000000
9.933252 2.064266 -0.363508 7.000000
10.126158 2.287600 -0.371958 13.000000
-16.374586 2.397548 -0.305625 11.000000
-16.199926 2.320016 -0.302227 23.000000
10.302644 2.498183 -0.379835 10.000000
10.337315 2.558201 -0.381554 7.000000
10.068395 2.626387 -0.372817 0.500000
10.476308 2.645077 -0.387140 0.000000
10.381956 2.935841 -0.386567 3.000000
9.022779 3.017229 -0.340878 2.000000
9.121330 3.210339 -0.346464 4.000000
9.202560 3.304057 -0.350331 2.000000
10.165036 3.470363 -0.384848 2.000000
9.043979 3.571699 -0.348397 2.500000
10.211021 3.629958 -0.388286 16.000000
4.890742 3.763659 -0.328499 29.000000
7.501339 3.754698 -0.300560 21.750000
8.789464 3.729116 -0.342095 4.500000
8.969583 3.739188 -0.348182 2.000000
9.141039 3.726799 -0.353697 4.000000
10.065977 3.793581 -0.385421 3.000000
10.251900 3.717208 -0.390721 2.000000
9.192467 3.900077 -0.357779 4.000000
9.060533 3.953770 -0.354198 5.000000
7.613154 4.022455 -0.308509 0.000000
8.931416 4.057109 -0.351477 10.000000
9.289602 4.167168 -0.364797 5.500000
9.021395 4.252869 -0.357349 2.000000
9.623491 4.262535 -0.377114 5.000000
9.390148 4.336959 -0.370597 7.500000
9.406560 4.344448 -0.371242 9.000000
9.268716 4.458739 -0.368521 1.000000
7.539941 4.611435 -0.316673 5.000000
7.910945 4.669206 -0.329133 3.000000
7.399716 4.752357 -0.315097 0.000000
7.597857 4.745824 -0.320969 3.000000
7.710411 4.799331 -0.325410 8.500000
7.898600 4.729086 -0.329850 0.000000
7.613456 4.855914 -0.323548 2.000000
9.915690 4.846920 -0.395447 4.000000
7.402352 4.919981 -0.318463 3.000000
7.429349 5.005502 -0.320969 3.000000
9.857515 5.208277 -0.399457 2.000000
8.079113 5.592157 -0.352050 3.000000
9.280382 5.596076 -0.388286 8.000000
8.007819 5.617556 -0.350474 1.000000
8.357402 5.688218 -0.362219 1.000000
8.145041 5.790519 -0.358065 9.000000
9.018862 5.752291 -0.383273 0.000000
9.487163 5.802358 -0.398455 0.000000
9.537996 5.710633 -0.398312 2.000000
9.052842 5.935303 -0.387856 7.000000
8.837790 6.076316 -0.384275 2.000000
8.947708 6.028491 -0.386567 0.000000
9.058535 6.312272 -0.395590 4.000000
3.317849 6.466867 -0.386898 0.000000
3.297090 6.613164 -0.393348 0.000000
14.862834 6.695218 -0.301046 9.000000
3.296349 6.730435 -0.398929 0.000000
14.958248 6.794808 -0.303409 14.000000
15.042272 6.890066 -0.305551 5.000000
15.185553 7.042536 -0.309133 10.500000
15.284382 7.175998 -0.311829 5.000000
15.395512 7.287290 -0.314562 9.000000
15.516919 7.404516 -0.317516 15.000000
3.421185 7.687717 -0.301491 0.000000
15.755487 7.609828 -0.323129 10.000000
3.350516 7.791325 -0.303878 0.000000
3.482964 7.760812 -0.304785 0.000000
15.902759 7.773479 -0.326896 6.000000
3.071931 7.846688 -0.301920 1.000000
3.159091 7.867945 -0.303782 1.625000
16.028934 7.897641 -0.329998 14.000000
3.313596 7.909770 -0.307268 2.666667
16.125830 8.008441 -0.332509 17.000000
16.225763 8.121716 -0.335094 6.000000
16.360847 8.253710 -0.338418 17.000000
16.484568 8.381194 -0.341520 4.000000
16.604086 8.507714 -0.344548 7.000000
16.719419 8.633230 -0.347503 5.000000
16.837673 8.761403 -0.350531 8.000000
17.054569 9.010883 -0.356218 12.000000
13.878028 9.161304 -0.307102 2.000000
17.314802 9.288006 -0.362865 9.000000
13.390851 9.393801 -0.302080 2.000000
13.640269 9.378203 -0.305699 5.000000
17.429790 9.420321 -0.365893 10.000000
16.235752 9.582684 -0.348167 1.000000
17.544115 9.553450 -0.368921 5.000000
17.731405 9.727782 -0.373501 7.000000
14.416402 9.978668 -0.323794 1.000000
13.956430 10.054590 -0.317664 1.000000
17.994892 10.019941 -0.380369 6.000000
18.144701 10.178167 -0.384210 9.000000
18.304138 10.343336 -0.388272 7.000000
18.462713 10.509603 -0.392334 11.000000
15.035175 10.760159 -0.341446 1.000000
-14.573174 15.644236 -0.394846 2.000000
-14.400274 15.605444 -0.392150 0.000000
-14.245407 15.633504 -0.390599 1.500000
-14.090721 15.660270 -0.389048 1.500000
-14.819316 15.758923 -0.399499 9.500000
-13.927913 15.726029 -0.387952 1.666667
-13.761615 15.836452 -0.387460 2.666667
-13.635815 15.892329 -0.386721 1.000000
-13.676638 16.041605 -0.389306 2.000000
-13.612391 16.171070 -0.390365 54.666668
-13.460312 16.299603 -0.390389 15.333333
-6.364070 16.264244 -0.322538 16.000000
-6.285189 16.288437 -0.322428 9.500000
-13.398925 16.434559 -0.391596 1.000000
-13.435333 16.585342 -0.394181 1.000000
-7.196207 17.572355 -0.350678 0.000000
-7.513442 17.865036 -0.357917 0.000000
-8.049669 18.173676 -0.367075 41.000000
-7.942300 18.161915 -0.366078 41.000000
-8.139343 18.221331 -0.368552 17.000000
-7.865352 18.219358 -0.366484 41.000000
-7.811440 18.304855 -0.367543 23.333334
-7.443264 18.339735 -0.365524 15.000000
-7.293863 18.384579 -0.365265 11.500000
-7.406508 18.414972 -0.366558 15.000000
5.586237 -15.109665 -0.297501 2.000000
5.535775 -14.829766 -0.292331 30.000000
5.593231 -14.701210 -0.290484 87.000000
5.720404 -14.619274 -0.289918 106.000000
5.879539 -14.552360 -0.289856 110.750000
5.995973 -14.511369 -0.289967 109.000000
-6.319191 -14.443438 -0.291149 0.000000
6.065058 -14.484778 -0.290004 107.500000
6.179401 -14.438508 -0.290041 106.666664
-6.348391 -14.386925 -0.290410 32.000000
6.319504 -14.389388 -0.290238 106.000000
6.450278 -14.349149 -0.290539 69.000000
-6.380175 -14.276518 -0.288785 41.500000
6.622219 -14.279381 -0.290687 19.750000
6.790184 -14.229506 -0.291173 107.000000
6.885871 -14.199805 -0.291444 107.000000
7.464076 -14.235071 -0.296836 6.000000
-6.422583 -14.132386 -0.286680 38.500000
6.958869 -14.179749 -0.291703 105.000000
7.075088 -14.134755 -0.291912 103.333336
7.231133 -14.112509 -0.292848 86.000000
7.358397 -14.141375 -0.294399 34.000000
7.523294 -14.131351 -0.295654 51.000000
7.608137 -14.076824 -0.295506 11.000000
-6.460934 -13.982836 -0.284465 39.500000
-6.490363 -13.874350 -0.282877 41.000000
-6.523968 -13.776739 -0.281510 42.500000
-6.568776 -13.648989 -0.279738 46.000000
-8.834078 -13.561727 -0.298904 38.500000
-8.673048 -13.499189 -0.296319 33.500000
-6.614876 -13.526609 -0.278076 48.000000
-8.557801 -13.458960 -0.294546 40.000000
-8.481311 -13.431674 -0.293365 40.000000
-8.373460 -13.400217 -0.291813 40.500000
-8.221949 -13.343618 -0.289450 42.000000
-8.113146 -13.307132 -0.287825 43.000000
-6.674439 -13.381184 -0.276156 48.333332
-8.042304 -13.284657 -0.286791 32.000000
-7.935452 -13.248608 -0.285203 39.500000
-7.768641 -13.204194 -0.282926 42.666668
-6.748731 -13.216763 -0.274063 51.666668
-7.633992 -13.164027 -0.281030 31.000000
-7.560670 -13.132490 -0.279848 35.000000
-7.461122 -13.101908 -0.278445 41.500000
-6.791838 -13.097185 -0.272463 49.000000
-7.329723 -13.061337 -0.276599 45.500000
-7.169059 -13.013357 -0.274383 49.000000
-6.832092 -13.024298 -0.271613 46.500000
-7.014283 -12.972572 -0.272352 52.500000
-6.909127 -12.972269 -0.271429 35.000000
-6.967048 -8.515102 -0.203184 0.000000
-7.018349 -8.441599 -0.202741 53.750000
-7.253677 -8.323213 -0.203893 63.400002
-7.143343 -8.375555 -0.203295 64.000000
-12.995306 -6.839977 -0.271207 3.500000
-12.640671 -6.577515 -0.263157 6.000000
-14.198223 -6.422651 -0.287788 0.500000
-12.854442 -6.484799 -0.265889 37.000000
-12.643187 -6.465670 -0.262252 35.750000
-12.756732 -6.385313 -0.263452 59.000000
-12.828767 -6.221015 -0.263304 43.000000
-12.675254 -6.097466 -0.259759 37.000000
-12.461730 -6.140029 -0.256559 37.333332
-12.706738 -6.026804 -0.259722 35.000000
-13.545107 -5.797046 -0.272093 5.000000
-12.828116 -5.827193 -0.260202 19.000000
-14.481545 -5.771692 -0.287899 3.000000
-13.596386 -5.768525 -0.272758 13.000000
-12.842712 -5.785223 -0.260128 28.000000
-11.977146 -5.350111 -0.242255 66.000000
-14.132866 -5.275628 -0.278593 1.000000
-12.434746 -5.229637 -0.249123 43.000000
-11.948235 -5.247400 -0.240999 38.666668
-12.618660 -5.098269 -0.251339 35.500000
-12.461274 -5.103119 -0.248680 39.000000
-12.274581 -5.116986 -0.245593 29.600000
-12.118532 -5.186499 -0.243436 29.000000
-11.969993 -5.167484 -0.240778 34.000000
-14.502406 -5.040334 -0.283541 6.000000
-12.758509 -5.046356 -0.253383 30.666666
-12.636726 -4.944646 -0.250601 37.000000
-12.566799 -4.803886 -0.248459 41.500000
-14.864607 -4.763917 -0.288268 23.000000
-12.759624 -4.755369 -0.251475 43.833336
-12.806066 -4.666081 -0.251709 38.500000
-12.726357 -4.533293 -0.249493 37.200001
-13.578287 -4.408197 -0.263644 21.000000
-12.899317 -4.426435 -0.251856 23.000000
-13.060114 -4.378717 -0.254386 28.250000
-12.583738 -4.384582 -0.246095 17.000000
-13.289050 -4.197728 -0.257371 34.000000
-13.053667 -3.735681 -0.250748 0.000000
-13.031892 -3.641055 -0.249887 37.666668
-12.958023 -3.445570 -0.247622 43.166664
3.661880 -3.471424 -0.268596 59.466667
-12.921534 -3.305712 -0.246317 37.000000
3.656666 -3.311181 -0.298310 76.416664
-13.706156 -3.141650 -0.259685 13.000000
-12.848548 -3.158333 -0.244347 37.666668
-12.890851 -3.068637 -0.244717 33.666668
3.655313 -3.023307 -0.290988 79.199997
-14.240490 -2.982775 -0.268696 1.000000
-13.116637 -2.919902 -0.248163 1.000000
3.651213 -2.873451 -0.287752 83.312500
-11.752341 -2.732635 -0.222830 30.750000
3.648915 -2.721822 -0.284231 85.823532
14.378160 -2.732395 -0.270284 33.500000
-12.953287 -2.670712 -0.244249 18.000000
-12.807829 -2.682694 -0.241664 21.000000
-11.977244 -2.626792 -0.226449 39.000000
-11.801070 -2.627043 -0.223273 38.000000
-12.405052 -2.517071 -0.233761 31.000000
-12.095073 -2.592884 -0.228443 43.500000
3.650153 -2.573424 -0.274275 87.235291
14.388271 -2.570761 -0.269927 41.333332
-12.201114 -2.435809 -0.229773 62.000000
3.648006 -2.424870 -0.271286 90.944443
14.385572 -2.430593 -0.269434 25.666666
-13.196585 -2.312680 -0.247425 44.000000
-13.168025 -2.393028 -0.247166 82.000000
-12.032109 -2.362790 -0.226449 41.000000
-11.898109 -2.297675 -0.223790 40.000000
-13.628542 -2.278191 -0.255180 51.000000
-13.430406 -2.201723 -0.251339 41.000000
-13.376882 -2.279342 -0.250601 45.000000
-12.211102 -2.278626 -0.229403 88.000000
-11.885623 -2.256557 -0.223421 43.000000
3.649087 -2.275776 -0.268297 94.368423
14.369665 -2.288809 -0.268721 37.333332
-14.019729 -2.162850 -0.261975 25.000000
3.649059 -2.123163 -0.261420 96.949997
11.695185 -2.165463 -0.219654 0.000000
14.394584 -2.130738 -0.268733 45.000000
-13.445149 -2.030988 -0.251118 76.000000
-12.951421 -2.039719 -0.242132 29.000000
3.652002 -1.970140 -0.255245 98.809525
12.249617 -1.911668 -0.228960 4.000000
14.419165 -1.972616 -0.268770 19.666666
-14.817327 -1.858729 -0.275786 6.000000
-12.710270 -1.818269 -0.237122 72.000000
-5.944588 -1.808892 -0.276680 9.363636
3.652043 -1.817628 -0.254309 99.666664
12.219981 -1.867737 -0.228295 3.000000
14.405380 -1.832562 -0.268179 10.000000
-14.578523 -1.735803 -0.271133 34.000000
-13.036961 -1.718666 -0.242846 49.000000
-12.417455 -1.776203 -0.231656 34.500000
-5.972716 -1.730112 -0.276896 8.000000
11.925187 -1.784359 -0.222682 13.000000
-13.793330 -1.598385 -0.256435 32.000000
-13.117593 -1.655935 -0.244175 31.000000
-12.528151 -1.691646 -0.233466 79.000000
3.656684 -1.665778 -0.253329 100.869568
14.435538 -1.675360 -0.268382 19.000000
-13.754569 -1.550114 -0.255623 38.000000
-13.687810 -1.499060 -0.254294 31.000000
3.652796 -1.518537 -0.281345 92.441177
14.431585 -1.514258 -0.267982 38.000000
-13.927090 -1.480999 -0.258651 44.000000
-12.901318 -1.330946 -0.239522 17.000000
3.672518 -1.383184 -0.237708 63.157894
-12.951024 -1.202585 -0.240205 27.750000
-12.833805 -1.283249 -0.238192 41.000000
3.679572 -1.218358 -0.233258 57.500000
-13.884553 -1.168361 -0.257322 12.000000
3.706623 -1.194350 -0.275116 1.000000
7.519412 -1.125125 -0.272416 3.000000
-14.066442 -1.050251 -0.260498 77.000000
-13.309481 -1.035794 -0.246538 4.000000
-12.973858 -1.091794 -0.240445 5.500000
3.686446 -1.081101 -0.245809 44.809525
3.726432 -1.022207 -0.205689 55.200001
-14.329749 -0.934240 -0.265200 53.666668
-13.770487 -0.984665 -0.254958 106.000000
3.778784 -0.926209 -0.255192 15.071428
3.925006 -0.907635 -0.245486 11.444445
4.080261 -0.921625 -0.222667 15.250000
4.229776 -0.906683 -0.230268 9.666667
4.375642 -0.902122 -0.237816 7.000000
4.533998 -0.905067 -0.246108 5.500000
4.716070 -0.910691 -0.255676 2.500000
-14.307608 -0.806439 -0.264648 54.200001
4.074602 -0.826657 -0.293720 1.000000
-13.359262 -0.702469 -0.247055 1.000000
-13.321460 -0.658518 -0.246317 61.000000
-14.037231 -0.539323 -0.259427 31.000000
-12.852949 -0.574676 -0.237602 51.500000
-13.801812 -0.465086 -0.255032 15.000000
-13.679284 -0.417941 -0.252743 16.000000
-14.401305 -0.349445 -0.266037 26.000000
-13.676532 -0.374850 -0.252669 11.000000
8.300467 -0.320239 -0.297624 20.333334
-14.691878 -0.217975 -0.271355 13.000000
-12.958899 -0.273715 -0.239374 8.000000
-13.420794 -0.156949 -0.247868 22.000000
-13.133280 -0.112319 -0.242550 23.000000
-13.913608 -0.009663 -0.256952 14.000000
-12.423740 -0.008666 -0.229440 33.000000
7.906923 -0.006900 -0.283301 1.000000
-13.993502 0.056171 -0.258430 2.000000
-12.545856 0.010948 -0.231693 11.000000
-11.953656 0.085541 -0.220762 37.000000
7.527151 0.017079 -0.269695 0.000000
-14.792694 0.152330 -0.273201 6.000000
-14.160307 0.190315 -0.261532 23.000000
-13.109071 0.134993 -0.242107 13.000000
-12.564723 0.168870 -0.232062 12.000000
13.957109 0.119366 -0.257765 176.000000
14.426941 0.123453 -0.266443 132.000000
-12.445175 0.237636 -0.229876 40.400002
7.472397 0.204807 -0.267833 1.000000
14.516464 0.260985 -0.268130 33.666668
-12.600497 0.367373 -0.232801 33.000000
-12.577600 0.327158 -0.232358 0.000000
14.453280 0.350707 -0.266997 95.000000
-12.665834 0.448955 -0.234056 37.799999
14.470732 0.442108 -0.267366 45.000000
-14.416488 0.510990 -0.266406 4.000000
-12.702974 0.570292 -0.234832 27.500000
14.460594 0.578282 -0.267268 56.333332
-14.832555 0.619073 -0.274161 2.000000
-14.774603 0.663162 -0.273127 9.000000
-14.209192 0.682516 -0.262713 4.000000
-12.621325 0.645992 -0.233392 31.000000
7.486695 0.653684 -0.269265 8.000000
-12.534126 0.744113 -0.231885 30.400000
7.485575 0.736622 -0.269504 10.833333
14.467794 0.715149 -0.267514 24.500000
14.515797 0.717559 -0.268400 17.000000
-15.626285 0.849026 -0.289007 13.000000
-13.905360 0.887034 -0.257322 1.000000
-12.862236 0.901672 -0.238119 62.000000
-12.615757 0.871014 -0.233539 34.000000
7.483593 0.879154 -0.269981 32.166668
12.988810 0.805808 -0.240334 0.000000
13.453144 0.877049 -0.248976 2.000000
-15.891052 0.913488 -0.293955 6.000000
-12.123597 0.964794 -0.224603 10.000000
11.189452 0.906179 -0.207320 12.000000
-14.365353 1.075088 -0.266037 26.000000
-13.328175 1.102799 -0.246982 16.000000
7.483877 1.034513 -0.270697 57.625000
11.125944 1.006662 -0.206310 12.333333
-13.286146 1.193897 -0.246354 24.000000
7.491293 1.183571 -0.271744 67.000000
-15.727518 1.226771 -0.291333 4.000000
-13.468533 1.285011 -0.249862 27.000000
7.486322 1.295005 -0.272215 28.000000
-15.833079 1.335119 -0.293438 21.500000
-13.635465 1.358615 -0.253063 34.666668
-15.934188 1.419284 -0.295433 16.000000
-13.864038 1.542851 -0.257617 11.000000
11.445207 1.582046 -0.213376 8.000000
-15.044434 1.638255 -0.279479 11.000000
-13.929771 1.627814 -0.259002 50.500000
10.861634 1.675647 -0.202962 9.000000
-15.117142 1.778533 -0.281104 23.000000
-14.111840 1.795253 -0.262713 27.000000
10.742746 1.761118 -0.201042 31.000000
-15.376520 1.882606 -0.286089 28.000000
-14.141438 1.851698 -0.263390 39.666664
-13.153238 1.807865 -0.245194 30.799999
-13.671869 2.001819 -0.255180 9.000000
-13.472225 1.929378 -0.251339 4.000000
-13.353044 1.998010 -0.249345 30.000000
-13.310675 2.068669 -0.248769 29.200001
-13.212405 2.147041 -0.247203 38.000000
-14.277559 2.274117 -0.266997 2.000000
-13.286922 2.223523 -0.248791 36.000000
-13.446062 2.337072 -0.252041 9.000000
-13.655458 2.461955 -0.256251 4.000000
11.566973 2.422788 -0.218251 13.000000
-13.708612 2.538265 -0.257469 19.000000
-13.449039 2.533933 -0.252743 35.000000
11.400824 2.556741 -0.215777 14.000000
-15.260773 2.627769 -0.285979 9.000000
-13.617765 2.610046 -0.256066 26.000000
-13.487810 2.629092 -0.253777 36.000000
11.393444 2.686999 -0.216183 12.000000
14.282979 2.665248 -0.268327 65.000000
14.470467 2.629708 -0.271613 31.000000
-15.575057 2.757546 -0.292109 27.500000
-13.789401 2.732878 -0.259611 20.000000
11.346050 2.713476 -0.215444 12.000000
-15.378439 2.822533 -0.288748 9.500000
-13.748424 2.814552 -0.259168 9.000000
-13.620932 2.877828 -0.257100 38.000000
11.423220 2.808029 -0.217241 3.000000
14.535538 2.807018 -0.273398 40.666668
-13.640423 2.949193 -0.257728 22.500000
11.559009 2.957073 -0.220343 6.666667
14.554163 2.953164 -0.274260 28.333334
11.027568 3.006460 -0.211087 9.000000
11.324523 3.011106 -0.216404 8.000000
11.465616 3.087221 -0.219285 3.000000
11.654990 3.059803 -0.222535 3.000000
-15.770524 3.125511 -0.296910 3.000000
11.245523 3.103870 -0.215444 17.000000
14.551747 3.119555 -0.274845 38.000000
11.359879 3.251042 -0.218214 11.000000
11.682527 3.264018 -0.224012 14.000000
14.561131 3.289505 -0.275688 39.333332
11.114645 3.313380 -0.214189 13.000000
11.111921 3.446090 -0.214853 10.000000
11.382123 3.451644 -0.219654 3.000000
14.558009 3.433398 -0.276229 40.666668
10.694054 3.594738 -0.208354 10.000000
10.835978 3.548024 -0.210570 47.000000
11.185588 3.584840 -0.216921 89.000000
11.322374 3.550387 -0.219137 11.000000
14.548320 3.576120 -0.276673 64.333336
10.294710 3.696179 -0.202002 68.000000
10.779182 3.680033 -0.210348 5.000000
10.969058 3.629793 -0.213376 47.000000
11.799460 3.618720 -0.227926 41.000000
3.400461 3.791216 -0.271091 79.500000
3.471392 3.773458 -0.272934 55.666668
3.573673 3.800254 -0.277682 58.000000
4.692662 3.761835 -0.285414 25.333334
4.907856 3.775466 -0.221857 27.000000
5.308432 3.799062 -0.233888 0.000000
7.450908 3.788240 -0.299486 27.000000
10.494685 3.730799 -0.205695 1.000000
11.684772 3.704384 -0.226375 33.000000
14.563049 3.725621 -0.277608 51.666668
3.376721 3.873776 -0.273551 69.714287
3.650832 3.809546 -0.280872 60.200001
3.783159 3.813442 -0.285939 45.166668
3.934638 3.819332 -0.291892 28.166666
4.098192 3.826336 -0.265855 39.333332
4.233960 3.834213 -0.254421 40.900002
4.381915 3.839070 -0.254844 41.545456
4.533117 3.840763 -0.264523 47.200001
4.686788 3.846147 -0.269925 46.200001
4.845598 3.850619 -0.264936 42.400002
4.962617 3.849253 -0.279677 45.125000
5.139280 3.864862 -0.286306 51.125000
5.262282 3.842120 -0.290094 59.299999
7.438970 3.811630 -0.299486 2.000000
11.794430 3.820867 -0.228960 13.000000
14.219064 3.828611 -0.271946 72.000000
14.544088 3.867165 -0.277928 53.000000
10.816939 3.922084 -0.212490 8.000000
10.459598 4.054910 -0.207172 5.000000
11.789731 4.025037 -0.230068 3.000000
14.568601 4.021187 -0.279110 28.666666
10.703758 4.110932 -0.211751 22.000000
11.932351 4.199705 -0.233613 13.000000
14.577469 4.171907 -0.280021 20.666666
11.242081 4.236821 -0.221870 7.000000
12.215594 4.213322 -0.238636 11.000000
11.210299 4.386498 -0.222313 3.000000
11.566950 4.338316 -0.228148 9.000000
14.597605 4.326818 -0.281178 14.000000
12.051390 4.412568 -0.237011 17.000000
14.584205 4.472842 -0.281720 16.666666
11.198144 4.503896 -0.222904 2.000000
11.465576 4.653356 -0.228517 2.000000
11.702488 4.642823 -0.232505 2.500000
12.439319 4.643448 -0.245209 10.000000
14.610036 4.631810 -0.283049 8.333333
14.612606 4.784658 -0.283960 9.333333
3.350308 4.929026 -0.259584 49.666668
14.608106 4.910505 -0.284612 19.500000
14.621632 5.068933 -0.285794 18.000000
14.663626 5.161003 -0.287087 19.000000
3.340638 5.226798 -0.270201 48.666668
11.273228 5.292766 -0.229994 18.000000
14.610774 5.245844 -0.286693 4.333333
3.336391 5.378119 -0.281734 48.000000
11.271595 5.357049 -0.230474 3.000000
12.232376 5.326406 -0.246391 9.000000
12.453115 5.329696 -0.250158 24.000000
14.613577 5.376760 -0.287567 6.500000
12.312025 5.453367 -0.248680 22.000000
12.939802 5.442050 -0.259242 2.000000
3.331999 5.524841 -0.287188 50.375000
10.247822 5.580258 -0.215493 9.666667
11.569101 5.587639 -0.237269 6.000000
14.627621 5.512765 -0.288687 8.000000
3.330562 5.668717 -0.273508 44.666668
10.220726 5.649128 -0.215666 0.000000
12.711111 5.677969 -0.257100 7.000000
14.638407 5.674956 -0.289942 30.666666
9.323518 5.742599 -0.202224 0.000000
9.479057 5.756560 -0.204809 3.000000
10.113385 5.799025 -0.215296 6.000000
3.329070 5.846234 -0.241049 32.000000
9.634928 5.892731 -0.208575 32.000000
9.940965 5.825336 -0.212785 2.000000
11.357641 5.864624 -0.236063 6.666667
12.540596 5.839784 -0.255475 12.000000
14.628868 5.830395 -0.290829 42.000000
3.326070 5.993158 -0.245585 40.333332
9.151329 5.917995 -0.201263 11.000000
11.305883 5.928173 -0.235755 1.000000
14.611475 5.983762 -0.291592 61.000000
3.309510 6.098003 -0.248593 10.333333
9.060569 6.063232 -0.201337 1.000000
9.615509 6.090424 -0.210200 0.000000
14.645245 6.132260 -0.293217 33.000000
3.317597 6.229071 -0.252866 0.000000
11.003945 6.263818 -0.233835 3.000000
14.646893 6.241414 -0.294029 21.000000
14.660605 6.356356 -0.295100 13.000000
3.382297 6.423247 -0.260098 0.000000
9.622284 6.439126 -0.213819 1.000000
11.192940 6.464851 -0.238709 8.000000
12.309134 6.503604 -0.257100 5.000000
14.720217 6.464788 -0.296910 9.000000
3.309896 6.532636 -0.262390 0.000000
11.248626 6.544229 -0.240334 3.000000
12.316884 6.557279 -0.257691 0.000000
14.831473 6.569307 -0.299569 17.000000
12.468914 6.688574 -0.261310 10.000000
14.792506 6.607715 -0.299199 10.000000
3.347410 6.781918 -0.270984 0.000000
9.758426 6.799979 -0.219654 10.000000
11.130746 6.711846 -0.240039 8.000000
11.277239 6.728047 -0.242513 3.000000
12.113908 6.795228 -0.256509 4.000000
3.343810 6.876165 -0.273963 17.200001
9.970698 6.809202 -0.222978 0.000000
10.232191 6.893908 -0.227852 2.000000
10.506981 6.888566 -0.232025 3.500000
12.263794 6.879393 -0.259685 3.000000
9.761799 6.916883 -0.220947 6.500000
11.201862 6.948155 -0.243436 3.000000
3.282838 7.046806 -0.278539 26.750000
10.968097 7.289945 -0.243215 2.000000
11.287200 7.299223 -0.248237 0.000000
12.221212 7.265084 -0.262566 2.000000
13.041926 7.208443 -0.275195 0.000000
3.337483 7.313288 -0.288028 0.000000
10.654205 7.424186 -0.239817 5.000000
11.425066 7.490602 -0.252299 0.000000
3.317360 7.550043 -0.295475 1.500000
12.846806 8.193779 -0.281399 3.000000
12.275746 8.326939 -0.273940 6.000000
12.650105 8.522970 -0.281695 15.000000
-11.055123 9.701835 -0.271635 15.600000
-11.035405 9.870255 -0.273423 6.000000
-3.952526 10.690802 -0.210496 47.000000
-3.855228 10.684753 -0.209776 57.500000
-3.762870 10.691206 -0.209314 57.000000
-4.122247 10.800762 -0.213499 51.000000
-4.047138 10.789984 -0.212822 40.000000
-3.706868 10.747384 -0.209954 42.666668
-3.613681 10.783861 -0.210038 35.400002
-6.110875 10.934009 -0.231324 20.500000
-5.967313 10.958442 -0.230437 21.000000
-5.943721 11.080345 -0.232210 8.000000
-5.974658 11.222521 -0.234795 7.000000
-5.999160 11.354390 -0.237158 4.000000
-8.444216 -3.996973 -0.172533 0.000000
-8.425916 -3.917272 -0.171602 54.400002
-8.446507 -3.868895 -0.171572 52.000000
3.705203 -3.551921 -0.183902 3.000000
3.690414 -3.460902 -0.181276 60.166668
9.946512 -3.432701 -0.194321 6.500000
10.241724 -3.408953 -0.199343 3.000000
3.682757 -3.315027 -0.177539 74.571426
9.920131 -3.336566 -0.193287 38.000000
10.210598 -3.363000 -0.198531 6.000000
9.693763 -3.294363 -0.189077 24.000000
10.019581 -3.265229 -0.194616 4.000000
10.141446 -3.199532 -0.196389 1.000000
3.682913 -3.171408 -0.174142 77.428574
9.872250 -3.148739 -0.191366 2.000000
10.178171 -3.175995 -0.196906 0.000000
3.679389 -3.020391 -0.170564 80.000000
3.677692 -2.867361 -0.167091 82.500000
10.293398 -2.825612 -0.197127 0.000000
3.676698 -2.720822 -0.163886 85.125000
3.676197 -2.571483 -0.160747 85.222221
3.675820 -2.419403 -0.157676 88.222221
9.794378 -2.425677 -0.186344 0.000000
3.677798 -2.274303 -0.154939 89.444443
3.678646 -2.125798 -0.152235 89.599998
9.713234 -2.084111 -0.183464 4.000000
3.684586 -1.970078 -0.149710 86.909088
-5.945493 -1.808618 -0.114769 10.181818
3.687466 -1.817832 -0.147308 82.900002
9.721081 -1.799941 -0.182577 4.000000
-5.973192 -1.733761 -0.114864 8.600000
3.695229 -1.672508 -0.145335 81.000000
9.845382 -1.647571 -0.184350 15.000000
10.036575 -1.679652 -0.187932 10.000000
3.701315 -1.546142 -0.143727 76.833336
9.952822 -1.585277 -0.186122 12.000000
3.709692 -1.490626 -0.143250 73.166664
10.197513 -1.493109 -0.190332 4.000000
3.715291 -1.367824 -0.141859 66.727272
3.757310 -1.217746 -0.141528 34.142857
3.843917 -1.140073 -0.143656 11.000000
3.926530 -1.110908 -0.146210 10.333333
4.062942 -1.080944 -0.150638 8.000000
4.208567 -1.070305 -0.155591 7.000000
4.367933 -1.081859 -0.145316 5.800000
4.540638 -1.064105 -0.167097 4.333333
10.287332 -1.063149 -0.190997 12.000000
10.486584 -1.000508 -0.194542 4.000000
9.963997 -0.919070 -0.184793 9.000000
10.227179 -0.894674 -0.189594 12.000000
10.322958 -0.854143 -0.191293 1.000000
9.506682 -0.546487 -0.175856 6.000000
8.698942 -0.363073 -0.160789 2.000000
9.020796 -0.319743 -0.166698 3.000000
8.059549 -0.222327 -0.148898 7.000000
8.157443 -0.289204 -0.150744 4.500000
10.622595 -0.276307 -0.196241 2.000000
-0.502162 -0.110036 -0.128658 2.875000
-0.472309 -0.109783 -0.133585 14.088608
0.473065 -0.096590 -0.129924 2.000000
8.244439 -0.188532 -0.152295 1.000000
8.781295 -0.145613 -0.162192 0.000000
10.112885 -0.167693 -0.186787 9.000000
-0.504312 -0.013665 -0.126716 3.318182
-0.470382 -0.020435 -0.131463 24.860590
0.477543 -0.017106 -0.128042 26.563885
8.850021 -0.091136 -0.163448 1.000000
10.156097 -0.056751 -0.187563 8.500000
0.405154 0.070565 -0.118547 8.000000
10.218108 0.055286 -0.188708 3.000000
10.340221 0.007254 -0.190960 11.000000
-0.503730 0.138083 -0.130940 5.919355
-0.479563 0.130781 -0.135880 12.699074
0.471768 0.128214 -0.129142 11.842788
-0.500554 0.292457 -0.146267 8.328185
-0.486497 0.268031 -0.142822 7.679365
0.477963 0.276339 -0.138466 8.783306
-0.503080 0.388698 -0.144561 19.424000
9.774480 0.390674 -0.180657 6.500000
9.922376 0.396790 -0.183390 13.000000
-0.428619 0.416391 -0.142508 29.540501
-0.276832 0.415223 -0.134754 4.694175
-0.134730 0.437610 -0.129539 5.673401
0.193507 0.435161 -0.130927 6.787129
0.330382 0.433817 -0.139371 6.489170
0.458254 0.416951 -0.138746 36.689419
10.191350 0.471699 -0.188412 15.000000
-0.504740 0.537860 -0.125986 8.178572
-0.430730 0.563544 -0.139423 17.448980
-0.265418 0.569326 -0.140085 7.996016
-0.113939 0.567396 -0.137772 23.657051
0.049601 0.565278 -0.134085 35.406113
0.179668 0.582715 -0.140637 20.647058
0.330399 0.590247 -0.138629 12.081448
0.440837 0.571421 -0.129006 23.013334
9.623422 0.536348 -0.177998 3.000000
9.713514 0.571985 -0.179697 11.000000
10.204161 0.536563 -0.188708 18.000000
10.361579 0.512204 -0.191588 25.000000
-0.508459 0.702984 -0.120941 16.463158
0.454853 0.679596 -0.119226 5.200000
-0.430560 0.740953 -0.126867 14.970510
-0.263453 0.749091 -0.136498 20.612499
-0.115040 0.737934 -0.114122 55.165714
0.055868 0.731304 -0.102418 57.873932
0.171509 0.759293 -0.135533 37.163399
0.308180 0.766957 -0.132073 17.500000
9.498287 0.729236 -0.175930 6.666667
9.589365 0.746280 -0.177629 8.000000
10.362054 0.708231 -0.191810 5.000000
-0.441494 0.879917 -0.124668 28.571428
-0.269624 0.870748 -0.128797 33.152542
0.236700 0.864391 -0.126483 13.313725
0.327562 0.805708 -0.135277 19.000000
-0.151060 0.988879 -0.110513 46.400002
9.920829 0.991979 -0.184128 7.000000
-0.504606 1.035351 -0.124418 54.290321
-0.419958 1.041140 -0.130823 23.302469
-0.261271 1.062273 -0.126792 46.195946
0.028953 1.022270 -0.117483 106.866669
0.179673 1.051573 -0.132440 45.644146
0.314697 1.085810 -0.129599 33.661289
9.754558 1.006314 -0.181100 2.000000
-0.517987 1.259120 -0.119956 1.200000
9.788897 1.384451 -0.182577 12.000000
