# This PCD file was generated using the MATLAB® pcwrite function
# from Computer Vision Toolbox®.
# .PCD v.7 - Point Cloud Data file format
VERSION .7
FIELDS x y z intensity
SIZE 4 4 4 4
TYPE F F F F
COUNT 1 1 1 1
WIDTH 1221
HEIGHT 1
VIEWPOINT 0 0 0 1 0 0 0
POINTS 1221
DATA ascii
0.478070 0.274101 -0.138485 8.851501
-7.434160 0.357088 -0.137450 0.000000
-0.505333 0.341386 -0.142595 9.388301
-0.435525 0.413171 -0.142327 30.097765
-0.284546 0.415806 -0.136127 4.931707
-0.140495 0.432700 -0.128729 5.405594
-0.002621 0.452433 -0.100084 23.231579
0.188173 0.433094 -0.130307 6.852792
0.326253 0.433349 -0.138838 6.463327
0.459139 0.418722 -0.138101 35.085209
-0.509901 0.553156 -0.121353 4.769231
-0.434714 0.560797 -0.138705 17.473360
-0.270544 0.566631 -0.139595 7.884462
-0.120744 0.566531 -0.139406 22.734499
0.040407 0.563965 -0.131981 34.663757
0.174451 0.580994 -0.140556 21.145569
0.323730 0.591322 -0.138623 12.113208
0.439854 0.574877 -0.129767 21.855421
-0.513366 0.693070 -0.116671 10.031746
0.456928 0.678038 -0.118772 5.058824
-0.434595 0.738223 -0.126687 16.016867
-0.265847 0.749080 -0.136484 20.105263
-0.117832 0.737689 -0.115616 54.815094
0.054006 0.729290 -0.101073 58.101997
0.165864 0.757614 -0.135042 37.936508
0.305666 0.764057 -0.131366 17.342630
-0.449796 0.891489 -0.124077 33.178570
-0.268077 0.866308 -0.128120 33.403507
0.229916 0.862898 -0.126029 13.320000
0.308596 0.804780 -0.131484 17.750000
-7.637651 0.935074 -0.142103 0.000000
-7.715420 1.080214 -0.143876 0.000000
-7.690691 1.039819 -0.143322 0.000000
-0.509046 1.033102 -0.121767 63.272728
-0.426770 1.039270 -0.130542 23.694611
-0.272114 1.067616 -0.127287 44.313869
-0.170243 1.002208 -0.118705 52.954544
0.024077 1.024933 -0.116773 108.275864
0.173633 1.046303 -0.131550 46.669811
0.308805 1.084518 -0.129577 34.078125
-7.768936 1.150157 -0.145039 0.000000
10.054160 1.101110 -0.186787 1.000000
-0.508434 1.229895 -0.117253 1.000000
9.900721 1.273581 -0.184350 0.000000
-0.527442 1.304979 -0.124011 1.750000
10.197434 1.474894 -0.190283 0.333333
10.039018 1.564898 -0.187637 3.500000
10.461779 1.731997 -0.195835 12.000000
-10.002120 1.819498 -0.187747 0.000000
-9.854786 1.824697 -0.185088 0.000000
-9.600516 1.824379 -0.180472 0.500000
-9.251375 1.818360 -0.174121 0.500000
-9.194334 1.882318 -0.173320 8.666667
-9.299900 1.980125 -0.175598 1.000000
10.054648 1.908934 -0.189003 12.000000
10.175883 1.998273 -0.191514 12.000000
-9.268980 2.019269 -0.175191 0.000000
-9.147459 2.068165 -0.173197 0.000000
9.984195 2.058594 -0.188264 16.000000
10.019506 2.065823 -0.188929 13.000000
10.287213 2.053721 -0.193730 14.000000
-8.948202 2.156408 -0.169984 0.000000
-8.798854 2.208383 -0.167535 0.000000
-8.660261 2.260603 -0.165294 1.333333
-8.576361 2.296424 -0.163965 1.000000
10.230129 2.294099 -0.193619 10.000000
-8.551232 2.361935 -0.163836 1.000000
-8.339420 2.459184 -0.160568 0.000000
-8.196966 2.538831 -0.158475 0.000000
-8.071686 2.588377 -0.156542 0.000000
-7.933962 2.626869 -0.154345 1.250000
-7.544057 2.844515 -0.148898 1.000000
-7.488554 2.972534 -0.148795 0.200000
-7.509612 3.118383 -0.150168 0.000000
10.240997 3.175995 -0.198014 8.000000
-7.556528 3.221574 -0.151705 0.000000
-7.490377 3.333365 -0.151409 1.000000
-7.482518 3.414846 -0.151897 2.000000
-7.521325 3.547347 -0.153576 2.000000
-7.651987 3.697566 -0.156949 0.333333
-7.700466 3.780757 -0.158426 0.000000
-7.748070 3.864836 -0.159903 0.666667
-7.827159 3.965791 -0.162045 0.000000
6.547988 3.941354 -0.141143 28.250000
-7.900881 4.050112 -0.163965 1.500000
6.459386 4.014308 -0.140451 53.181820
6.453750 4.116245 -0.141364 1.000000
-8.811709 4.604693 -0.183611 0.000000
-8.671972 4.636073 -0.181602 3.000000
-8.691772 4.752692 -0.182947 2.000000
-8.563655 4.795896 -0.181264 0.000000
-8.490562 4.870478 -0.180768 0.000000
-8.387226 4.881449 -0.179217 0.000000
-8.237951 4.881556 -0.176841 0.000000
-8.068590 4.911437 -0.174445 0.888889
-7.904847 4.981405 -0.172554 1.714286
-7.774380 5.029398 -0.171000 3.500000
-7.622121 5.102396 -0.169394 3.000000
-7.461122 5.201002 -0.167966 4.666667
-7.435566 5.305694 -0.168692 11.000000
-7.360532 5.357669 -0.168131 2.400000
-8.925703 5.519084 -0.193804 0.000000
-8.874372 5.525957 -0.193065 0.000000
-7.431483 5.535285 -0.171129 1.000000
-7.472096 5.675816 -0.173290 0.250000
-7.445099 5.823128 -0.174556 0.600000
-7.466813 5.992880 -0.176816 6.333333
-7.534230 6.144842 -0.179549 0.000000
-7.603385 6.281211 -0.182134 3.000000
-7.737661 6.494968 -0.186566 1.000000
-7.678173 6.404027 -0.184645 1.000000
-7.753878 6.550217 -0.187452 0.000000
-7.503778 7.684027 -0.198346 90.000000
-7.438694 7.713748 -0.197903 90.500000
-7.325143 7.765000 -0.197142 93.199997
-7.139745 7.847749 -0.195936 95.750000
-7.019245 7.900357 -0.195170 94.750000
-6.880451 7.968179 -0.194424 95.199997
-6.713780 8.052372 -0.193619 135.666672
-6.628506 8.156416 -0.194099 42.000000
-6.667760 8.284136 -0.196389 11.000000
-18.232906 -39.934559 -0.049037 41.000000
-18.306421 -39.764442 -0.048898 55.000000
-18.379049 -39.594261 -0.048760 55.000000
-18.454168 -39.431263 -0.048630 56.000000
-18.526749 -39.264568 -0.048496 56.000000
-18.601902 -39.105034 -0.048371 57.000000
-18.669317 -38.930984 -0.048228 59.000000
-18.741045 -38.767704 -0.048098 56.000000
-18.813675 -38.607956 -0.047973 55.000000
-18.883732 -38.444538 -0.047844 58.000000
-18.958273 -38.291821 -0.047728 58.000000
-19.023109 -38.121120 -0.047589 57.000000
-19.094254 -37.964687 -0.047468 57.000000
-19.162785 -37.804619 -0.047343 57.000000
-19.232327 -37.648052 -0.047223 58.000000
-19.299242 -37.487865 -0.047098 57.000000
-19.367184 -37.331181 -0.046977 57.000000
-19.434326 -37.174450 -0.046856 57.000000
-19.500681 -37.017654 -0.046736 58.000000
-19.571873 -36.871418 -0.046628 60.000000
-19.640450 -36.721565 -0.046517 58.000000
-19.704485 -36.564610 -0.046396 57.000000
-19.771534 -36.414646 -0.046284 57.000000
-19.837847 -36.264622 -0.046173 60.000000
-19.903412 -36.114540 -0.046061 56.000000
-19.966290 -35.960907 -0.045945 58.000000
6.458937 -35.261307 -0.040043 50.000000
6.565285 -35.217247 -0.040016 69.000000
19.047928 -27.162880 -0.037058 3.000000
18.722548 -26.521242 -0.036263 5.000000
18.680651 -26.286224 -0.036021 138.000000
18.772444 -26.240423 -0.036039 127.000000
18.873489 -26.207287 -0.036075 128.000000
18.969816 -26.167292 -0.036102 125.000000
19.061361 -26.120491 -0.036120 125.000000
19.152802 -26.073376 -0.036138 121.000000
19.248882 -26.032377 -0.036164 43.000000
19.828793 -25.785433 -0.036334 71.000000
10.838712 -24.903557 -0.030338 1.000000
9.229555 -21.389677 -0.026022 3.000000
9.296928 -21.118843 -0.025775 7.666667
9.609581 -21.164566 -0.025964 4.000000
9.832257 -21.123827 -0.026026 4.000000
9.386723 -21.023640 -0.025718 9.000000
9.462573 -21.015932 -0.025745 16.000000
10.434458 -20.855309 -0.026049 3.000000
9.875919 -20.705294 -0.025624 13.000000
-16.479425 -20.394022 -0.029288 17.000000
9.641463 -20.378262 -0.025182 11.000000
-16.290062 -20.289740 -0.029065 20.000000
-16.183832 -20.287659 -0.028989 29.000000
-15.934780 -20.234959 -0.028770 10.000000
-15.640676 -20.251276 -0.028582 2.000000
-15.689491 -20.183090 -0.028555 28.000000
-15.836774 -19.981037 -0.028479 38.000000
-15.639440 -19.988787 -0.028350 20.000000
11.695336 -19.823086 -0.025709 1.000000
11.815551 -19.742346 -0.025700 21.000000
11.931205 -19.794197 -0.025816 0.000000
-16.683527 -19.616947 -0.028765 11.000000
-16.739872 -19.558359 -0.028756 2.000000
10.672624 -19.461679 -0.024793 19.000000
11.867558 -19.411695 -0.025414 8.000000
-15.748418 -19.364613 -0.027881 16.000000
10.673747 -19.319517 -0.024655 51.000000
10.732444 -19.282394 -0.024650 51.000000
10.800634 -19.191483 -0.024599 59.500000
10.981855 -19.159887 -0.024668 12.000000
-16.365274 -18.999546 -0.028010 7.000000
-17.017319 -18.899647 -0.028408 28.000000
-16.139048 -18.856373 -0.027724 9.000000
11.420437 -18.812897 -0.024583 0.000000
11.307594 -18.759611 -0.024467 24.000000
9.980267 -18.613117 -0.023591 27.000000
10.603118 -18.634563 -0.023949 67.000000
-15.292464 -18.564442 -0.026866 14.000000
9.672996 -18.502714 -0.023322 7.000000
10.057398 -18.546501 -0.023567 18.500000
-15.727295 -18.492584 -0.027117 20.000000
9.737963 -18.438478 -0.023292 9.000000
-15.202643 -18.337704 -0.026607 32.000000
10.538285 -18.385998 -0.023672 28.000000
-14.942712 -18.256428 -0.026353 1.000000
11.219654 -18.223030 -0.023904 30.000000
-16.903650 -18.190495 -0.027738 41.000000
-15.152549 -18.160854 -0.026420 22.000000
11.651897 -18.149694 -0.024092 28.000000
11.826799 -18.169992 -0.024217 15.000000
-15.268938 -18.068348 -0.026424 11.000000
10.794631 -18.036512 -0.023480 8.000000
13.315356 -18.007818 -0.025017 27.000000
14.005727 -18.036646 -0.025508 49.000000
-16.815914 -17.982454 -0.027501 37.000000
-16.289658 -17.977594 -0.027099 11.000000
-15.443766 -17.929705 -0.026433 12.000000
-15.106636 -17.990635 -0.026241 5.000000
10.365994 -17.954428 -0.023158 29.000000
10.410285 -17.901026 -0.023131 25.000000
11.152487 -17.987118 -0.023640 36.000000
11.202584 -17.941813 -0.023627 30.000000
14.119350 -17.968195 -0.025526 36.333332
-16.262508 -17.834705 -0.026960 6.000000
10.472340 -17.835396 -0.023103 34.000000
11.377632 -17.845556 -0.023640 11.000000
11.545996 -17.861055 -0.023757 39.000000
13.346196 -17.872740 -0.024916 50.500000
13.518637 -17.868225 -0.025028 49.000000
13.649992 -17.866375 -0.025115 46.000000
13.759699 -17.893162 -0.025213 8.000000
-16.669476 -17.713974 -0.027170 41.000000
10.576488 -17.798679 -0.023127 40.000000
10.826687 -17.771814 -0.023245 17.000000
-17.079632 -17.698833 -0.027474 3.000000
-15.262939 -17.551874 -0.025982 30.000000
11.088358 -17.553780 -0.023192 33.666668
12.243088 -17.576195 -0.023926 2.000000
-16.048311 -17.434162 -0.026469 19.000000
-15.458633 -17.497402 -0.026080 19.000000
-15.295390 -17.422638 -0.025897 28.000000
11.346642 -17.313093 -0.023122 27.000000
-16.054111 -17.276281 -0.026344 4.000000
-15.278038 -17.147814 -0.025654 31.000000
11.336399 -17.121031 -0.022937 52.000000
11.837312 -17.108007 -0.023238 38.000000
11.407007 -16.994637 -0.022863 54.000000
11.546219 -16.970562 -0.022928 64.500000
11.672495 -16.983582 -0.023019 44.000000
-17.914654 -16.577541 -0.027264 29.000000
-15.916516 -16.597588 -0.025687 23.000000
-17.559134 -16.454552 -0.026880 8.000000
-17.984217 -16.329988 -0.027134 15.000000
-15.525875 -16.395214 -0.025222 36.000000
-17.633932 -16.215231 -0.026759 33.000000
-15.513839 -16.279755 -0.025119 35.000000
-16.198359 -16.164465 -0.025562 20.000000
-17.756271 -16.021523 -0.026714 28.000000
-17.602108 -16.084202 -0.026634 32.000000
-16.432863 -16.092247 -0.025691 20.000000
-18.175430 -15.990005 -0.027041 1.000000
-16.851889 -15.991844 -0.025950 30.000000
-16.385870 -15.945694 -0.025539 40.000000
-16.438761 -15.896917 -0.025544 10.000000
-16.465996 -15.724255 -0.025432 31.000000
-16.384789 -15.745420 -0.025383 31.000000
-15.364944 -15.526693 -0.024400 34.000000
-14.864458 -15.500512 -0.023989 6.000000
-15.113322 -15.465584 -0.024154 42.000000
-15.000176 -15.478914 -0.024077 29.666666
-15.534696 -15.356816 -0.024400 31.000000
-15.348860 -15.364969 -0.024259 27.500000
-15.108547 -15.363839 -0.024069 38.000000
-15.569779 -15.247054 -0.024342 6.000000
-2.552780 -14.273509 -0.016197 13.000000
-2.492016 -14.190845 -0.016094 0.000000
6.862659 -14.158358 -0.017575 31.000000
7.009225 -14.119992 -0.017609 1.000000
-2.536700 -13.930920 -0.015817 1.000000
-2.527241 -13.635771 -0.015491 8.000000
-2.535967 -13.446951 -0.015285 13.000000
-4.876259 -12.624253 -0.015117 64.333336
-4.763758 -12.687076 -0.015138 14.000000
-4.623856 -12.676300 -0.015072 14.333333
-4.488613 -12.675323 -0.015020 13.666667
-4.330329 -12.669299 -0.014956 15.750000
-4.180000 -12.683585 -0.014917 44.000000
-4.024653 -12.679494 -0.014860 52.000000
-3.871259 -12.678073 -0.014807 71.000000
-3.714503 -12.661285 -0.014739 56.250000
-3.568424 -12.677991 -0.014712 72.666664
-3.416946 -12.672323 -0.014661 74.000000
-3.266132 -12.665602 -0.014610 74.333336
-3.118321 -12.666719 -0.014571 74.500000
-2.971010 -12.666856 -0.014533 73.000000
-2.823572 -12.662931 -0.014492 71.750000
-2.676579 -12.657377 -0.014451 76.666664
-2.572039 -12.653212 -0.014423 77.500000
-2.425211 -12.641460 -0.014378 14.000000
-2.466615 -12.537643 -0.014273 77.500000
-4.936570 -12.487626 -0.014999 22.000000
-4.940369 -12.326838 -0.014834 8.000000
-4.944128 -12.170023 -0.014673 6.000000
-4.943623 -12.006026 -0.014503 6.000000
-4.944487 -11.901781 -0.014396 7.000000
-4.947686 -11.753012 -0.014244 8.500000
-4.949758 -11.554402 -0.014041 7.000000
-4.955654 -11.419020 -0.013905 7.000000
-4.964252 -11.264166 -0.013750 8.200000
-11.141014 -9.863669 -0.016621 14.000000
-11.091525 -9.634898 -0.016411 11.333333
-10.808111 -9.660123 -0.016192 14.500000
19.715488 -9.302635 -0.024351 2.000000
19.688332 -9.176771 -0.024264 34.000000
19.656950 -9.049499 -0.024172 27.000000
19.536472 -8.870435 -0.023967 30.666666
19.500526 -8.755703 -0.023877 55.000000
19.428185 -8.613451 -0.023739 25.000000
19.346245 -8.432083 -0.023573 37.500000
19.244400 -8.244246 -0.023386 47.500000
19.202030 -8.119155 -0.023287 54.000000
19.132992 -7.983912 -0.023158 24.500000
19.055096 -7.811183 -0.023004 24.500000
18.977642 -7.640504 -0.022852 36.000000
18.885204 -7.500068 -0.022698 41.000000
18.908672 -7.440700 -0.022698 32.000000
18.808971 -7.333313 -0.022550 38.000000
18.839380 -7.277068 -0.022559 14.000000
18.624805 -6.859976 -0.022170 0.000000
18.616201 -6.790466 -0.022135 14.000000
18.492781 -6.614091 -0.021938 6.000000
10.872541 -6.399306 -0.014092 45.000000
10.775478 -6.319452 -0.013954 24.500000
10.909860 -6.375207 -0.014115 49.000000
10.982152 -6.233661 -0.014106 49.000000
10.869212 -6.187720 -0.013971 38.599998
10.833590 -6.029905 -0.013849 45.333332
10.933592 -5.958756 -0.013909 45.750000
10.694533 -5.698451 -0.013536 47.500000
10.779711 -5.678689 -0.013610 47.000000
10.813410 -5.609781 -0.013607 40.000000
10.903944 -5.656897 -0.013721 43.000000
10.636491 -5.433601 -0.013342 47.000000
10.770857 -5.438424 -0.013478 44.000000
11.090677 -5.318522 -0.013739 42.000000
10.632900 -5.285148 -0.013263 28.000000
10.833301 -5.293150 -0.013468 33.666668
10.952009 -5.209770 -0.013547 63.000000
10.647122 -5.188349 -0.013230 47.000000
10.921294 -5.153148 -0.013489 35.000000
10.846859 -5.076423 -0.013377 12.000000
10.840935 -4.990922 -0.013331 3.333333
11.469626 -4.359568 -0.013706 54.000000
12.013725 -4.382140 -0.014284 10.000000
11.523040 -4.271620 -0.013727 32.000000
11.769845 -4.209579 -0.013963 32.000000
11.850615 -4.280508 -0.014074 48.000000
11.645700 -4.062410 -0.013777 44.500000
11.686819 -3.973965 -0.013788 35.000000
11.551394 -3.887474 -0.013614 36.000000
11.398265 -3.756387 -0.013406 36.666668
11.344276 -3.659729 -0.013315 44.000000
11.435726 -3.629826 -0.013402 52.000000
11.126263 -3.473968 -0.013020 44.000000
11.264877 -3.459001 -0.013163 55.000000
11.128220 -3.302713 -0.012966 57.000000
11.223607 -3.388607 -0.013096 50.000000
11.102655 -3.219343 -0.012913 54.000000
11.018751 -3.120089 -0.012792 52.500000
10.967017 -3.012680 -0.012704 47.666668
-6.097161 -2.838024 -0.007512 7.000000
10.750077 -2.844307 -0.012421 55.000000
10.815720 -2.861845 -0.012497 55.000000
16.742203 -2.831731 -0.018967 1.000000
-6.117269 -2.754284 -0.007494 23.000000
10.753482 -2.719085 -0.012390 57.000000
16.681555 -2.703106 -0.018877 19.400000
10.797034 -2.568260 -0.012397 51.599998
16.624393 -2.570649 -0.018790 22.000000
10.828805 -2.432370 -0.012397 57.000000
16.553663 -2.426773 -0.018688 19.333334
10.930992 -2.365335 -0.012493 50.500000
10.994880 -2.288996 -0.012545 43.333332
11.061374 -2.230364 -0.012604 53.000000
16.464951 -2.242297 -0.018561 20.000000
11.131423 -2.171697 -0.012668 46.333332
16.417950 -2.117743 -0.018491 24.500000
11.240536 -2.083259 -0.012770 56.666668
11.399120 -2.038704 -0.012935 38.000000
11.603665 -2.018843 -0.013156 45.000000
11.689096 -1.958162 -0.013239 12.000000
16.347336 -1.978287 -0.018393 22.000000
16.259241 -1.812344 -0.018274 16.666666
16.243179 -1.681381 -0.018241 12.000000
16.364386 -1.616076 -0.018368 5.000000
16.511185 -1.552032 -0.018525 69.000000
16.669733 -1.487735 -0.018694 52.000000
16.796116 -1.419221 -0.018828 18.500000
17.008081 -1.329554 -0.019056 21.000000
17.149809 -1.259404 -0.019208 36.000000
17.321144 -1.189927 -0.019394 24.000000
17.480265 -1.118144 -0.019566 45.000000
17.643044 -1.045071 -0.019742 18.000000
17.809551 -0.970766 -0.019923 27.000000
17.983698 -0.895247 -0.020113 22.500000
18.141581 -0.817458 -0.020285 27.000000
18.291931 -0.766659 -0.020450 33.000000
18.430145 -0.714457 -0.020602 17.000000
-9.106822 -0.659231 -0.010199 2.000000
-9.003720 -0.604417 -0.010080 0.000000
18.476273 -0.658121 -0.020651 17.000000
18.638163 -0.605265 -0.020830 20.000000
-8.843924 -0.533221 -0.009897 0.000000
18.791908 -0.551164 -0.021000 33.000000
-8.669358 -0.468052 -0.009698 0.000000
-8.537643 -0.420547 -0.009548 0.000000
18.950226 -0.466418 -0.021174 18.000000
-8.463004 -0.390224 -0.009463 3.000000
-8.366821 -0.346319 -0.009354 0.000000
19.120203 -0.380481 -0.021362 33.000000
19.277283 -0.323024 -0.021536 29.000000
-8.222923 -0.288575 -0.009191 0.000000
19.442186 -0.264695 -0.021719 20.000000
19.546917 -0.204702 -0.021835 10.000000
-8.021668 -0.193243 -0.008963 0.000000
-7.937376 -0.141445 -0.008868 0.666667
19.627460 -0.143879 -0.021925 18.000000
-7.779696 -0.065264 -0.008690 0.333333
19.779814 -0.082855 -0.022094 25.000000
19.927977 -0.020868 -0.022260 31.000000
-7.643966 0.007926 -0.008538 0.000000
-7.563686 0.067315 -0.008449 0.500000
-7.539228 0.150053 -0.008423 5.800000
-7.569318 0.281573 -0.008461 4.166667
-0.160438 0.335024 -0.090948 1.000000
-7.613250 0.427068 -0.008518 1.166667
-0.071458 0.436224 -0.007003 56.545456
-7.661683 0.574858 -0.008582 0.000000
-0.084858 0.588190 -0.015701 77.046509
-7.682765 0.685694 -0.008616 0.000000
-0.100439 0.683443 -0.036613 72.723404
11.156607 0.690230 -0.012486 7.500000
-7.719747 0.762407 -0.008665 0.000000
0.071536 0.708255 -0.012757 40.349693
11.226231 0.729960 -0.012566 7.000000
-7.771030 0.878687 -0.008736 0.000000
-0.103020 0.874911 -0.090092 86.393440
0.066390 0.864728 -0.059486 60.599998
0.105788 0.817129 -0.005674 2.000000
11.303272 0.859774 -0.012662 5.000000
-0.169589 0.977306 -0.001108 12.333333
-7.878607 1.028975 -0.008875 0.000000
11.768694 1.100037 -0.013203 4.000000
-7.970063 1.117284 -0.008990 0.000000
11.610301 1.158862 -0.013033 1.000000
11.820920 1.142390 -0.013266 2.000000
11.666363 1.219993 -0.013103 7.000000
10.867249 1.779580 -0.012301 4.000000
11.545094 1.834776 -0.013058 8.500000
-9.514310 1.949549 -0.010848 0.000000
-9.436505 1.979949 -0.010770 1.000000
10.123010 1.986055 -0.011523 2.000000
11.250180 1.914946 -0.012747 1.000000
11.954473 1.996203 -0.013538 2.000000
13.847410 1.920502 -0.015616 93.599998
-9.378189 2.013935 -0.010714 0.000000
-9.286539 2.040080 -0.010621 1.500000
9.903297 2.023851 -0.011291 7.500000
10.073569 2.009241 -0.011474 6.000000
11.679093 2.063543 -0.013248 13.000000
13.884062 2.072583 -0.015681 100.000000
11.424801 2.185604 -0.012993 6.500000
12.316103 2.136216 -0.013963 11.000000
-8.946862 2.202531 -0.010292 0.000000
-8.808482 2.256586 -0.010157 0.000000
-8.692868 2.300003 -0.010044 1.000000
10.570990 2.212246 -0.012064 0.000000
10.610939 2.255424 -0.012117 2.000000
11.981571 2.233634 -0.013614 5.000000
12.171028 2.209615 -0.013817 3.000000
13.941456 2.238004 -0.015772 58.333332
-8.631721 2.327380 -0.009986 2.500000
-8.540985 2.389493 -0.009907 1.000000
13.891649 2.319680 -0.015732 74.000000
13.941647 2.395642 -0.015801 52.000000
11.194204 2.416183 -0.012792 0.000000
13.888960 2.499018 -0.015763 76.000000
-8.374293 2.557080 -0.009781 0.000000
-8.294211 2.504170 -0.009678 0.000000
11.303459 2.570171 -0.012948 5.000000
11.409172 2.537710 -0.013056 2.000000
13.909825 2.532850 -0.015793 55.666668
-8.454123 2.610523 -0.009883 0.000000
-8.050461 2.639054 -0.009463 0.000000
-7.938054 2.685283 -0.009361 1.500000
13.879958 2.677883 -0.015790 70.000000
13.919302 2.685475 -0.015835 53.000000
-7.811188 2.738439 -0.009246 0.000000
-7.738636 2.795171 -0.009191 0.666667
-7.651202 2.859095 -0.009124 1.000000
13.872191 2.834937 -0.015816 61.500000
-7.629376 2.974502 -0.009147 0.400000
13.845688 2.999868 -0.015825 77.250000
-7.636384 3.088491 -0.009201 0.000000
13.863140 3.129331 -0.015875 67.000000
-7.734106 3.222499 -0.009359 0.000000
-7.691715 3.223825 -0.009316 0.000000
13.814234 3.278327 -0.015859 78.750000
12.368092 3.327905 -0.014307 2.000000
13.810396 3.438198 -0.015897 77.000000
-7.754035 3.540257 -0.009521 0.000000
13.541218 3.507041 -0.015625 97.000000
13.800580 3.574252 -0.015924 76.500000
12.196245 3.675274 -0.014228 1.500000
-7.896522 3.771461 -0.009775 0.000000
11.284670 3.751717 -0.013283 3.000000
11.461905 3.750756 -0.013471 14.000000
12.063965 3.718276 -0.014101 2.000000
13.787146 3.709801 -0.015948 74.000000
-8.450169 3.826057 -0.010361 0.000000
-8.382997 3.882047 -0.010319 0.000000
-7.919002 3.874402 -0.009848 1.000000
11.762851 3.808368 -0.013811 5.000000
13.788244 3.873140 -0.015998 75.250000
-8.025246 3.989058 -0.010011 1.000000
6.564875 3.942990 -0.008554 26.000000
6.473197 4.007106 -0.008504 50.384617
13.782616 4.035563 -0.016042 74.333336
6.455565 4.115817 -0.008552 1.000000
13.791175 4.179617 -0.016097 66.000000
13.763488 4.322731 -0.016114 73.199997
13.780347 4.449689 -0.016175 61.000000
13.772753 4.578939 -0.016212 56.000000
-8.762083 4.651041 -0.011081 0.000000
-8.682214 4.678738 -0.011017 3.000000
11.768509 4.666605 -0.014141 6.500000
11.887070 4.627365 -0.014249 2.500000
13.747503 4.666658 -0.016217 73.500000
-8.642319 4.763086 -0.011023 2.333333
-8.556454 4.785958 -0.010951 0.000000
11.775988 4.776944 -0.014195 0.000000
11.835471 4.757830 -0.014249 11.000000
13.741245 4.785230 -0.016253 73.000000
-8.204783 4.898770 -0.010674 0.000000
11.890488 4.866950 -0.014351 7.000000
-8.637487 4.902822 -0.011094 0.000000
-8.569329 4.953447 -0.011056 0.000000
-8.438803 4.966866 -0.010938 0.000000
-8.080152 4.955262 -0.010588 0.666667
13.729419 4.926687 -0.016293 73.666664
-8.557971 5.000875 -0.011072 0.000000
-7.916343 5.028381 -0.010476 0.000000
-7.770276 5.080715 -0.010370 3.000000
13.723647 5.071122 -0.016343 73.666664
-7.664102 5.132583 -0.010303 3.000000
-7.589385 5.169327 -0.010257 3.666667
-7.495357 5.244404 -0.010218 3.200000
11.996056 5.243517 -0.014624 0.500000
13.716370 5.215876 -0.016392 73.666664
-7.505742 5.393520 -0.010324 2.666667
11.994425 5.377961 -0.014683 3.750000
13.724951 5.367776 -0.016462 57.666668
11.216715 5.480454 -0.013945 14.000000
11.890163 5.488991 -0.014628 2.000000
11.983724 5.486578 -0.014722 2.000000
-7.516962 5.509720 -0.010411 3.333333
11.189225 5.554379 -0.013954 9.000000
11.380169 5.560353 -0.014148 2.500000
13.719554 5.515221 -0.016517 49.666668
-10.064568 5.629505 -0.012881 1.000000
-8.924114 5.656867 -0.011802 0.000000
11.239723 5.645716 -0.014050 2.500000
11.993218 5.651249 -0.014809 2.500000
13.694960 5.665926 -0.016555 68.800003
11.930422 5.713527 -0.014776 5.500000
13.679762 5.826516 -0.016609 74.500000
13.676558 5.977995 -0.016672 70.000000
-8.131143 6.078445 -0.011340 0.000000
-7.705291 6.097376 -0.010976 0.250000
13.685773 6.110484 -0.016742 63.333332
-7.795680 6.279101 -0.011181 0.000000
13.671210 6.259196 -0.016795 63.000000
-7.820325 6.359937 -0.011259 1.000000
11.401916 6.393224 -0.014602 0.000000
13.654642 6.394923 -0.016842 67.750000
-10.348448 6.468902 -0.013632 0.000000
-7.862211 6.435147 -0.011349 2.000000
10.958852 6.465567 -0.014213 0.000000
11.318344 6.463716 -0.014559 6.000000
10.945363 6.504051 -0.014222 4.000000
13.652952 6.564863 -0.016922 58.000000
11.486810 6.680117 -0.014843 6.000000
11.500812 6.639996 -0.014834 14.000000
11.510636 6.742452 -0.014901 5.000000
13.661038 6.728016 -0.017010 39.666668
13.626444 6.884727 -0.017053 64.250000
-8.930964 7.078597 -0.012729 0.000000
-8.834349 7.092749 -0.012655 0.000000
13.608803 7.024078 -0.017107 36.000000
-8.751316 7.117072 -0.012600 0.000000
-8.657730 7.164389 -0.012553 79.000000
13.611705 7.134188 -0.017166 66.000000
-8.518727 7.221761 -0.012475 91.000000
-8.379766 7.286898 -0.012404 92.000000
13.595579 7.207627 -0.017189 73.500000
-8.220906 7.355375 -0.012322 92.199997
13.591298 7.342715 -0.017256 73.333336
-8.068139 7.426753 -0.012249 93.250000
-7.932725 7.488427 -0.012185 91.750000
13.577057 7.473329 -0.017311 73.500000
-7.830815 7.533118 -0.012137 90.500000
-7.744230 7.567798 -0.012095 90.666664
-7.630128 7.622060 -0.012047 92.750000
-7.498118 7.680848 -0.011990 94.000000
13.556633 7.601429 -0.017361 70.599998
-7.419553 7.720839 -0.011961 93.000000
-7.320637 7.762945 -0.011919 92.599998
13.569022 7.777488 -0.017470 40.000000
-7.176793 7.829288 -0.011864 95.500000
-7.030666 7.890940 -0.011805 94.000000
-6.876572 7.966493 -0.011755 94.599998
13.576853 7.952791 -0.017576 58.333332
-6.722343 8.039789 -0.011706 95.599998
13.559819 8.086491 -0.017635 39.000000
-6.631050 8.110201 -0.011702 216.000000
-6.638970 8.224874 -0.011807 49.500000
-6.691336 8.370098 -0.011970 22.000000
-6.742129 8.488177 -0.012108 18.000000
13.552006 8.580470 -0.017917 0.000000
-6.797206 8.612934 -0.012256 22.000000
13.521924 8.692980 -0.017956 69.400002
-6.851560 8.738123 -0.012403 21.000000
-6.910116 8.870045 -0.012560 20.000000
13.513049 8.825882 -0.018029 45.500000
13.505458 8.973069 -0.018112 71.333336
-6.972805 9.008747 -0.012725 22.000000
-7.022493 9.132077 -0.012868 17.000000
13.498686 9.122158 -0.018198 71.500000
-7.052052 9.230376 -0.012975 6.000000
13.490306 9.271711 -0.018285 45.666668
-7.151192 9.421352 -0.013212 18.000000
13.488159 9.427010 -0.018382 71.000000
-7.220304 9.574712 -0.013395 18.000000
13.474517 9.575918 -0.018465 47.000000
-7.319700 9.770214 -0.013636 48.000000
13.464867 9.729073 -0.018556 49.000000
-7.343086 9.887489 -0.013757 103.666664
13.458905 9.886642 -0.018654 54.000000
13.453018 10.045864 -0.018755 49.000000
13.451862 10.144070 -0.018819 69.000000
13.445416 10.205626 -0.018855 65.000000
13.440132 10.335441 -0.018939 59.000000
13.435287 10.500606 -0.019047 71.500000
13.427060 10.630751 -0.019130 72.000000
13.408365 10.753698 -0.019199 39.500000
13.405080 10.925241 -0.019317 51.333332
13.391834 11.090546 -0.019423 52.000000
5.816686 11.298638 -0.014195 87.000000
13.380115 11.223310 -0.019507 35.500000
5.719629 11.327831 -0.014175 102.000000
5.893905 11.317194 -0.014253 75.500000
6.029530 11.358833 -0.014365 72.000000
13.358488 11.385127 -0.019606 31.000000
5.624116 11.404621 -0.014204 92.000000
6.167050 11.400891 -0.014479 71.000000
6.279950 11.437304 -0.014575 70.000000
6.368708 11.470561 -0.014655 71.000000
5.562164 11.506063 -0.014275 47.000000
6.485220 11.509225 -0.014756 202.666672
6.632782 11.558021 -0.014885 255.000000
6.722279 11.587215 -0.014963 255.000000
13.336732 11.548620 -0.019706 61.000000
5.513637 11.637959 -0.014385 2.000000
6.815284 11.620931 -0.015048 255.000000
6.943385 11.670695 -0.015169 255.000000
13.328570 11.688885 -0.019802 66.500000
5.481656 11.712724 -0.014445 3.000000
7.074445 11.722731 -0.015294 255.000000
7.209560 11.778695 -0.015426 255.000000
5.422282 11.827201 -0.014533 1.750000
7.339333 11.823221 -0.015544 255.000000
7.456581 11.886807 -0.015674 118.000000
13.319164 11.829510 -0.019898 52.500000
5.364179 11.946991 -0.014628 1.000000
13.312976 11.974487 -0.020001 67.000000
5.333736 12.030637 -0.014700 1.000000
5.291597 12.140919 -0.014794 1.000000
7.686148 12.167686 -0.016076 4.000000
7.809910 12.193254 -0.016174 4.000000
13.309917 12.123899 -0.020111 67.000000
-9.077465 12.276448 -0.017055 26.000000
5.233153 12.269179 -0.014899 1.000000
7.762979 12.204228 -0.016156 5.000000
-8.978140 12.303024 -0.017013 67.333336
-8.889753 12.344106 -0.016992 76.000000
-8.798876 12.381189 -0.016967 76.000000
13.324924 12.349897 -0.020294 76.500000
-8.668081 12.443871 -0.016940 77.666664
-8.579920 12.483854 -0.016920 74.000000
5.165872 12.434933 -0.015041 1.000000
13.273032 12.464219 -0.020339 61.333332
-8.497550 12.531953 -0.016913 76.666664
-8.362836 12.587048 -0.016880 77.333336
5.109028 12.575796 -0.015162 1.000000
-8.274828 12.626012 -0.016862 73.000000
-8.193861 12.675472 -0.016859 66.333336
5.064734 12.694960 -0.015267 1.000000
-8.066906 12.740866 -0.016845 63.666668
-7.982476 12.784560 -0.016836 62.000000
-7.897779 12.827603 -0.016827 60.333332
-7.771022 12.892335 -0.016815 60.000000
5.021945 12.880934 -0.015443 1.000000
-7.647455 12.962086 -0.016811 59.500000
-7.479023 13.048527 -0.016800 61.000000
-7.394936 13.091827 -0.016795 61.000000
4.977231 13.068233 -0.015620 1.000000
-7.304096 13.122835 -0.016776 71.666664
-7.178803 13.188757 -0.016773 79.333336
4.912463 13.146108 -0.015676 55.500000
-7.069754 13.259996 -0.016785 69.500000
4.882998 13.257318 -0.015781 15.000000
-7.039483 13.431021 -0.016938 14.000000
-7.189214 13.822131 -0.017403 7.000000
11.491945 14.546182 -0.020707 0.500000
11.609056 14.552831 -0.020794 0.000000
11.710033 14.553912 -0.020866 2.666667
11.308133 14.641575 -0.020665 7.000000
11.431084 14.657517 -0.020763 4.000000
11.185784 14.865619 -0.020781 8.000000
11.348330 14.837673 -0.020866 5.000000
11.132704 14.990199 -0.020857 0.000000
11.291177 14.973085 -0.020948 2.666667
13.200397 15.471984 -0.022718 42.000000
13.111447 15.548308 -0.022719 40.666668
13.391909 15.547562 -0.022921 37.000000
-8.466961 18.963648 -0.023198 37.000000
-8.357763 19.039619 -0.023226 47.666668
12.965837 19.035742 -0.025727 54.000000
13.041410 19.018005 -0.025758 62.000000
-8.214014 19.168543 -0.023295 38.599998
12.953041 19.145952 -0.025821 48.000000
13.212447 19.138237 -0.025977 58.000000
13.375744 19.180691 -0.026120 57.000000
12.964219 19.292793 -0.025964 46.000000
13.532743 19.212347 -0.026250 56.000000
13.646248 19.244783 -0.026353 57.000000
13.806696 19.277760 -0.026487 56.000000
13.977057 19.322742 -0.026638 56.000000
14.091846 19.353107 -0.026741 55.000000
14.206963 19.382946 -0.026844 51.000000
12.970161 19.433239 -0.026098 48.000000
14.320031 19.409029 -0.026942 34.000000
14.440557 19.444227 -0.027054 13.000000
14.554261 19.469250 -0.027152 1.000000
12.964340 19.624329 -0.026272 47.500000
12.950617 19.805700 -0.026433 48.000000
16.057068 19.871340 -0.028537 3.000000
16.221376 19.882156 -0.028662 50.500000
12.944974 19.933510 -0.026549 47.000000
16.416574 19.929068 -0.028841 50.000000
16.553137 19.966696 -0.028971 49.000000
16.679848 19.991377 -0.029082 49.000000
12.942990 20.068201 -0.026674 47.000000
16.819736 20.030777 -0.029217 47.000000
12.920872 20.172762 -0.026759 19.000000
17.409481 20.211830 -0.029797 1.000000
17.576763 20.212486 -0.029920 46.500000
17.786562 20.260279 -0.030115 46.000000
17.924280 20.288235 -0.030240 47.000000
18.070320 20.324495 -0.030378 47.000000
18.216764 20.360035 -0.030517 47.000000
18.360933 20.391882 -0.030651 47.000000
18.508165 20.425987 -0.030789 47.000000
18.661186 20.465281 -0.030937 37.000000
7.313473 23.684538 -0.027688 7.000000
7.538799 23.622179 -0.027697 2.000000
7.685431 23.822981 -0.027961 2.000000
7.881286 23.914785 -0.028126 13.000000
8.486701 23.965702 -0.028399 1.000000
8.056728 24.065113 -0.028347 5.500000
7.239807 24.254520 -0.028274 6.000000
7.313656 24.223999 -0.028265 3.000000
8.418578 24.256624 -0.028680 9.000000
2.903943 24.317175 -0.027356 4.500000
3.060440 24.328213 -0.027389 23.000000
3.179185 24.345282 -0.027425 29.000000
3.311297 24.362625 -0.027464 47.000000
3.458484 24.391989 -0.027519 68.000000
7.448129 24.392183 -0.028488 14.000000
7.607203 24.363995 -0.028511 8.000000
8.266005 24.309038 -0.028680 4.000000
3.578597 24.411074 -0.027559 65.000000
5.136922 24.418819 -0.027873 46.666668
5.242275 24.411449 -0.027890 47.000000
5.907714 24.664299 -0.028330 13.000000
7.938418 24.607182 -0.028881 10.000000
7.813756 24.751936 -0.028993 7.000000
8.062808 24.726633 -0.029051 16.000000
-7.155203 24.871170 -0.028908 25.000000
-7.293672 24.910149 -0.028993 10.000000
-7.045527 24.931589 -0.028940 9.000000
7.348097 24.902491 -0.029002 10.000000
7.260176 25.186464 -0.029279 4.000000
8.326996 25.267235 -0.029717 2.000000
7.382946 25.313292 -0.029453 9.000000
7.924318 25.379639 -0.029699 3.000000
8.674285 26.045504 -0.030664 3.000000
7.456070 26.174736 -0.030401 2.000000
9.526390 26.116795 -0.031053 2.000000
9.521751 26.361032 -0.031308 3.000000
9.257004 26.404305 -0.031254 6.000000
9.395990 26.533457 -0.031442 1.000000
6.897617 27.099949 -0.031236 1.000000
7.524791 27.393267 -0.031732 5.000000
7.462786 27.505560 -0.031835 6.000000
5.660751 27.625984 -0.031500 14.000000
7.317442 27.656315 -0.031955 4.000000
8.719280 27.620399 -0.032353 3.000000
5.626115 27.902422 -0.031795 25.000000
7.213447 27.972876 -0.032268 3.000000
7.301290 27.950075 -0.032268 1.000000
5.584350 28.151449 -0.032058 27.000000
6.409087 28.118822 -0.032215 4.000000
6.927446 28.139790 -0.032371 2.000000
7.551300 28.181835 -0.032590 10.000000
7.828356 28.151806 -0.032639 7.000000
6.169356 28.295223 -0.032349 7.000000
7.957941 28.273390 -0.032809 7.000000
6.280692 28.377245 -0.032465 4.000000
5.552564 28.459375 -0.032389 24.000000
8.338293 28.588812 -0.033265 6.000000
5.535479 28.853800 -0.032818 11.000000
8.608062 29.172474 -0.033975 2.000000
5.513744 29.236603 -0.033233 11.000000
8.236464 29.262939 -0.033957 1.000000
7.534992 29.800085 -0.034335 4.500000
7.694876 29.839800 -0.034422 12.000000
6.889991 30.228708 -0.034632 1.000000
7.219935 30.353111 -0.034851 1.000000
8.229488 30.331394 -0.035105 7.000000
7.156512 30.511946 -0.035007 1.000000
8.010997 30.666906 -0.035405 2.000000
8.413738 30.629389 -0.035481 1.000000
8.199382 30.989613 -0.035807 2.000000
5.224312 32.113808 -0.036343 13.000000
5.336959 32.168262 -0.036423 17.000000
7.569370 32.272175 -0.037027 2.000000
8.003173 32.290981 -0.037161 1.000000
9.361894 32.477585 -0.037755 7.000000
7.335890 32.658203 -0.037389 6.000000
5.579412 32.987461 -0.037371 2.000000
5.685056 32.981598 -0.037384 2.000000
5.194705 33.248623 -0.037590 6.000000
5.314250 33.326939 -0.037697 5.000000
5.886856 34.152332 -0.038711 3.000000
5.149852 34.376373 -0.038827 4.000000
-13.854460 36.781200 -0.043903 43.000000
-13.740244 36.828285 -0.043907 47.000000
6.340544 37.487545 -0.042469 3.000000
-0.047364 0.271387 0.041955 7.830284
-0.005447 0.432041 0.006015 109.421356
0.031522 0.574963 0.001810 88.329414
0.102943 0.731121 0.011053 1.333333
10.539761 -5.808664 0.195355 13.000000
10.554449 -5.773604 0.195290 2.000000
10.887991 -5.735730 0.199769 17.000000
10.753550 -5.621819 0.196978 43.000000
10.712391 -5.536211 0.195744 43.500000
10.708468 -5.456256 0.195095 35.666668
10.806470 -5.350281 0.195744 27.000000
10.516501 -5.268595 0.190940 40.000000
10.678875 -5.224571 0.192985 24.000000
10.698003 -5.143899 0.192693 23.666666
10.833705 -5.125703 0.194554 25.666666
11.004821 -5.150351 0.197237 57.000000
11.173311 -5.186478 0.199964 59.000000
11.192248 -4.941037 0.198601 11.000000
11.213206 -4.992442 0.199250 34.000000
11.489378 -4.455331 0.200040 57.916664
11.541855 -4.361277 0.200289 33.000000
11.538879 -3.863131 0.197529 52.500000
11.443218 -3.751283 0.195484 46.000000
11.308470 -3.608927 0.192693 50.000000
11.499014 -3.669804 0.195939 55.000000
11.266059 -3.517617 0.191589 51.000000
11.078340 -3.420846 0.188213 60.000000
11.123959 -3.339431 0.188538 50.500000
11.007562 -3.173112 0.185962 49.000000
10.902865 -3.068763 0.183863 47.000000
10.843501 -2.978564 0.182543 44.333332
-6.098068 -2.838444 0.167518 6.666667
10.767962 -2.849052 0.180812 55.000000
-6.120978 -2.755960 0.167166 15.000000
10.834662 -2.721433 0.181344 54.200001
10.836283 -2.559546 0.180747 54.750000
10.922380 -2.471488 0.181786 50.500000
10.869335 -2.387786 0.180649 50.500000
10.969640 -2.283606 0.181889 50.000000
11.047259 -2.191424 0.182824 53.000000
11.124945 -2.134184 0.183885 53.000000
11.289550 -2.073987 0.186330 44.000000
11.476365 -2.052519 0.189252 40.000000
11.683655 -2.051735 0.192563 38.000000
11.705290 -1.987368 0.192732 48.000000
-8.665426 -0.358671 0.140786 0.500000
-8.509334 -0.267447 0.138200 4.000000
-8.374718 -0.188759 0.135982 3.750000
-8.270021 -0.121254 0.134262 3.000000
-8.198605 -0.068753 0.133093 4.000000
-8.126898 0.008469 0.131924 5.000000
-8.059228 0.122281 0.130842 4.666667
-8.008856 0.272646 0.130085 5.166667
-8.002123 0.427784 0.130085 6.333333
-7.987822 0.418557 0.129847 6.000000
-8.033224 0.589981 0.130756 6.000000
-7.982632 0.510617 0.129847 7.000000
-8.147188 0.746703 0.132809 4.250000
-8.217734 0.857929 0.134125 3.777778
11.443019 1.855373 0.188180 3.000000
9.831848 1.977095 0.162795 5.000000
9.832228 2.025421 0.162958 1.000000
11.989535 2.196191 0.197865 0.666667
12.098978 2.137732 0.199445 2.000000
-9.128983 2.201707 0.152440 0.333333
-8.995331 2.259418 0.150557 1.666667
11.330476 2.222950 0.187434 8.000000
-8.938373 2.304964 0.149843 0.000000
-8.830915 2.336427 0.148285 0.000000
-8.667828 2.395517 0.145980 1.000000
-8.573756 2.442298 0.144714 1.000000
-8.495745 2.492332 0.143724 0.750000
-8.371059 2.570368 0.142150 0.000000
-8.211483 2.634704 0.139991 0.750000
-8.063944 2.699608 0.138043 0.750000
-7.992389 2.745761 0.137183 1.000000
-7.895268 2.823690 0.136117 0.285714
-7.797719 2.969818 0.135452 1.333333
-7.787801 3.121290 0.136196 1.200000
-7.807331 3.257968 0.137329 2.750000
-7.850562 3.348549 0.138547 10.000000
-7.879847 3.434536 0.139537 44.250000
-7.947246 3.583474 0.141517 7.500000
-8.055693 3.724009 0.144065 1.000000
-8.135889 3.807665 0.145818 1.000000
6.564805 3.947629 0.124350 30.333334
6.479666 4.011124 0.123709 45.538460
6.451346 4.113127 0.124198 1.000000
-9.204317 4.557054 0.166723 1.000000
-9.114758 4.584177 0.165620 2.333333
-9.017786 4.642464 0.164646 2.666667
-9.073529 4.743527 0.166204 1.000000
-8.644777 4.781931 0.160372 1.833333
-8.493135 4.838536 0.158673 0.000000
-8.384336 4.884158 0.157513 0.000000
-9.275528 4.905033 0.170327 1.000000
-8.215294 4.969389 0.155859 1.166667
-8.138115 4.998775 0.155037 2.000000
-9.363460 5.008025 0.172372 0.000000
-8.057897 5.019427 0.154106 3.666667
-7.927258 5.077348 0.152817 3.400000
-7.814781 5.127481 0.151726 3.000000
-7.745435 5.169429 0.151163 3.000000
-7.667980 5.240592 0.150768 3.500000
-7.686644 5.378305 0.152289 0.333333
-7.731621 5.500744 0.154031 0.500000
-9.706450 5.692422 0.182662 0.500000
-7.796353 5.676983 0.156556 0.600000
-9.610332 5.717526 0.181526 2.000000
-9.566149 5.752465 0.181201 0.000000
-7.836519 5.839062 0.158640 0.500000
-7.932127 5.988211 0.161335 1.000000
-7.959104 6.118670 0.162967 1.714286
-8.044316 6.345204 0.166318 1.500000
-8.992973 7.036166 0.185356 2.000000
-8.853045 7.071299 0.183928 90.400002
-8.772203 7.111186 0.183311 92.000000
-8.662400 7.158429 0.182419 93.500000
-8.520660 7.223399 0.181331 93.500000
-8.377913 7.285285 0.180227 93.750000
-8.221015 7.355483 0.179072 94.199997
-8.068554 7.427131 0.178020 95.000000
-7.934596 7.490188 0.177127 93.250000
-7.832670 7.534903 0.176429 94.000000
-7.748936 7.572396 0.175877 93.333336
-7.630536 7.622480 0.175082 94.500000
-7.512452 7.671434 0.174298 95.666664
-7.433470 7.711029 0.173865 93.000000
-7.320239 7.762497 0.173203 96.400002
-7.175857 7.828258 0.172388 98.500000
-7.032391 7.892903 0.171606 97.800003
-6.877765 7.967867 0.170865 99.000000
-6.718931 8.035638 0.170034 97.599998
-6.602251 8.100932 0.169645 116.333336
-6.558764 8.151629 0.169840 54.000000
-6.697951 8.378373 0.174125 20.000000
-6.753683 8.502723 0.176267 20.000000
-6.834618 8.688534 0.179448 20.500000
-6.916583 8.878347 0.182694 19.000000
-6.971889 9.007565 0.184902 21.000000
-7.033762 9.146731 0.187304 16.000000
-7.089976 9.280015 0.189576 17.000000
-7.155091 9.426488 0.192108 17.000000
-7.224173 9.579843 0.194770 16.000000
-7.309148 9.756129 0.197887 33.000000
-7.322604 9.870794 0.199510 12.000000
-2.528352 -14.397761 0.237295 2.000000
-2.557374 -14.299196 0.235802 4.000000
-2.355887 -14.200001 0.233659 1.000000
6.832077 -14.208695 0.255928 10.000000
6.903051 -14.128310 0.255257 41.333332
-2.230124 -14.079823 0.231409 0.000000
-2.191702 -14.027948 0.230478 3.000000
-2.547115 -13.988114 0.230803 2.000000
-2.531282 -13.657578 0.225479 0.000000
-2.520070 -13.362654 0.220740 0.000000
-4.745975 -12.700410 0.220090 74.500000
-4.677774 -12.700136 0.219701 72.000000
-4.452571 -12.700335 0.218467 66.000000
-2.411114 -12.784916 0.211196 0.000000
-4.850080 -12.657847 0.220044 71.285713
-4.607642 -12.693824 0.219214 46.500000
-4.479640 -12.692116 0.218489 52.000000
-4.315965 -12.692453 0.217623 75.666664
-4.183620 -12.694585 0.216974 73.666664
-4.027773 -12.689261 0.216114 72.000000
-3.874649 -12.689158 0.215373 75.000000
-3.723549 -12.692256 0.214718 70.000000
-3.570854 -12.686592 0.213944 75.666664
-3.418315 -12.677420 0.213144 76.250000
-3.268034 -12.672976 0.212451 77.000000
-3.120299 -12.674768 0.211894 77.000000
-2.971830 -12.670388 0.211261 77.333336
-2.824289 -12.666151 0.210660 73.250000
-2.677883 -12.663544 0.210114 74.666664
-2.545351 -12.622855 0.209032 78.000000
-2.431035 -12.565290 0.207755 51.000000
-11.080394 -9.748081 0.239567 11.000000
-10.977849 -9.719212 0.238009 15.000000
-11.153582 -9.658119 0.239502 8.500000
10.986712 -6.630227 0.208307 25.500000
10.976116 -6.448636 0.206651 25.250000
11.002412 -6.359880 0.206294 40.000000
11.111740 -6.261143 0.207041 6.000000
10.917168 -6.174337 0.203600 6.000000
10.961469 -5.929266 0.202301 7.500000
11.231028 -5.976721 0.206521 48.000000
11.410313 -5.231231 0.203762 16.500000
11.567818 -5.237661 0.206132 15.000000
11.500299 -5.163615 0.204639 40.000000
11.839441 -5.138111 0.209508 10.000000
11.497159 -5.032547 0.203730 13.000000
11.535901 -4.963371 0.203859 10.000000
11.944518 -4.356896 0.206391 1.000000
12.032662 -4.324869 0.207560 3.500000
12.133141 -4.275144 0.208826 17.500000
12.059559 -4.164294 0.207106 31.500000
11.912480 -4.050699 0.204249 30.000000
16.695158 -2.705316 0.274548 16.200001
16.632092 -2.571849 0.273198 20.500000
16.560726 -2.427817 0.271704 18.666666
16.482489 -2.257880 0.270060 19.000000
16.423729 -2.118494 0.268815 21.000000
16.358431 -1.979605 0.267484 19.333334
16.266384 -1.813136 0.265688 16.333334
16.258951 -1.683017 0.265342 10.000000
16.374180 -1.617044 0.267095 5.000000
16.536896 -1.554442 0.269627 48.500000
16.687466 -1.489317 0.271964 53.000000
16.827785 -1.421926 0.274139 18.000000
16.999771 -1.355825 0.276833 33.000000
17.063765 -1.306993 0.277807 7.000000
17.167503 -1.260703 0.279430 32.000000
17.318996 -1.217137 0.281832 31.000000
17.354660 -1.164866 0.282352 11.000000
17.493937 -1.119019 0.284559 42.000000
17.658695 -1.046002 0.287156 16.500000
17.827183 -0.971727 0.289818 21.000000
18.013296 -0.896689 0.292772 19.000000
18.155184 -0.818071 0.295012 20.000000
18.309513 -0.767396 0.297479 31.000000
18.447710 -0.715138 0.299686 17.000000
18.481842 -0.658320 0.300206 13.000000
-7.893780 0.529838 0.265632 2.000000
13.862638 1.913737 0.227167 78.666664
13.878300 2.071631 0.227784 99.500000
13.868301 2.215182 0.227979 101.250000
13.837465 2.368165 0.227890 75.000000
13.837211 2.534619 0.228357 66.333336
13.837422 2.660704 0.228738 65.599998
13.825572 2.838986 0.229115 57.200001
13.806803 2.980109 0.229288 98.333336
13.797608 3.114504 0.229612 95.000000
13.546206 3.282179 0.226258 91.000000
13.806563 3.253609 0.230262 87.666664
-8.095627 3.333470 0.293954 0.000000
13.596108 3.430246 0.227621 91.000000
13.678262 3.496717 0.229180 76.000000
13.825643 3.418946 0.231192 77.000000
13.802867 3.597986 0.231549 77.000000
13.718208 3.691184 0.230608 80.000000
13.797316 3.712463 0.231939 77.500000
13.796063 3.875333 0.232621 77.750000
13.787207 4.036908 0.233205 77.333336
13.782994 4.177112 0.233789 77.333336
13.772275 4.315991 0.234287 76.333336
13.760386 4.479035 0.234909 77.500000
13.751221 4.655896 0.235672 77.250000
13.753901 4.765420 0.236289 76.500000
13.748291 4.836143 0.236581 77.000000
13.736403 4.929189 0.236905 76.333336
13.728099 5.072767 0.237576 76.666664
13.714575 5.215184 0.238182 76.666664
12.043556 5.354593 0.213955 3.500000
13.704542 5.359754 0.238875 75.666664
13.691770 5.504078 0.239546 76.000000
13.686110 5.652215 0.240368 76.000000
13.677048 5.825361 0.241320 74.750000
13.663769 5.972411 0.242067 74.500000
13.662421 6.143038 0.243171 70.500000
13.652332 6.276506 0.243917 73.500000
13.639995 6.401098 0.244588 73.666664
13.630721 6.554211 0.245519 72.666664
13.620969 6.708301 0.246471 73.666664
13.608324 6.862191 0.247401 73.000000
13.608592 6.996883 0.248397 73.000000
13.596781 7.072005 0.248786 74.000000
13.592093 7.178481 0.249522 73.333336
13.583652 7.338583 0.250626 73.333336
13.578777 7.474283 0.251611 73.500000
13.572522 7.610378 0.252595 73.000000
13.567285 7.776396 0.253850 74.000000
13.556652 7.940992 0.255041 74.000000
13.548530 8.070147 0.255993 57.666668
13.550228 8.579345 0.260343 0.000000
13.515437 8.688817 0.260823 69.800003
13.507924 8.822542 0.261901 71.500000
13.503684 8.971896 0.263178 70.666664
13.491943 9.117605 0.264336 70.000000
13.489640 9.271244 0.265710 68.666664
13.478193 9.420048 0.266933 68.000000
13.472748 9.574665 0.268307 68.333336
13.466339 9.730145 0.269692 67.500000
13.461412 9.855908 0.270828 67.500000
13.456792 10.015871 0.272310 67.000000
13.446873 10.173519 0.273717 66.500000
13.444590 10.305244 0.274983 66.000000
13.437325 10.468298 0.276509 66.333336
13.411175 10.652473 0.278024 66.666664
13.368095 10.790583 0.278878 86.500000
13.358860 10.922462 0.280112 81.000000
13.353119 11.058475 0.281443 75.000000
5.769487 11.294002 0.205872 104.000000
5.836423 11.293316 0.206359 87.500000
13.347398 11.231695 0.283174 85.000000
5.698981 11.331190 0.205894 103.666664
5.914585 11.313557 0.207235 73.000000
6.021243 11.343211 0.208469 71.000000
6.186408 11.393744 0.210460 68.666664
5.625147 11.406713 0.206456 88.500000
6.333416 11.449266 0.212397 59.000000
13.340403 11.405904 0.284916 69.000000
5.568970 11.520161 0.207712 11.333333
6.487006 11.512351 0.214507 61.666668
6.639881 11.570377 0.216552 64.500000
13.390992 11.558794 0.287156 60.000000
5.489079 11.680847 0.209508 1.000000
5.530359 11.625956 0.208988 1.000000
6.761749 11.613111 0.218143 58.500000
6.918743 11.670823 0.220242 49.000000
13.386086 11.665136 0.288227 62.500000
7.078681 11.729755 0.222395 62.000000
7.209661 11.778854 0.224180 60.000000
5.436138 11.808363 0.211023 1.000000
7.343636 11.830171 0.226031 58.000000
13.378508 11.807225 0.289656 65.500000
5.373760 11.968525 0.212970 1.000000
7.466229 11.902189 0.228076 17.000000
13.371137 11.951036 0.291117 65.000000
13.365471 12.097879 0.292642 65.000000
5.307223 12.124894 0.214853 1.000000
7.679652 12.115112 0.232848 4.000000
7.813019 12.169982 0.234763 4.666667
5.239785 12.284740 0.216801 1.000000
13.356998 12.243780 0.294135 64.000000
13.332598 12.376408 0.295304 68.000000
-8.702767 12.493708 0.247163 1.000000
5.185825 12.427630 0.218597 1.000000
13.293111 12.456891 0.295726 72.000000
-8.629034 12.513159 0.246741 74.500000
-8.520378 12.565619 0.246449 76.333336
5.128804 12.567950 0.220350 1.000000
-8.420334 12.630511 0.246417 42.000000
-8.334209 12.673148 0.246222 51.000000
-8.226089 12.725304 0.245973 50.666668
-8.119111 12.778860 0.245768 38.000000
5.075921 12.723016 0.222363 1.000000
-8.033341 12.821154 0.245605 31.500000
-7.926802 12.874735 0.245432 42.000000
5.014041 12.860605 0.224072 0.666667
-7.821657 12.930349 0.245313 44.000000
-7.734110 12.968937 0.245118 53.000000
-7.624928 13.017171 0.244891 59.000000
-7.520472 13.073219 0.244826 51.000000
4.968687 13.045986 0.226615 0.500000
-7.438176 13.120216 0.244826 44.500000
-7.332299 13.173541 0.244740 49.333332
4.921630 13.170605 0.228238 46.000000
-7.223516 13.221388 0.244566 75.500000
-7.141236 13.268280 0.244599 78.000000
4.892034 13.281851 0.229764 11.000000
-7.067078 13.330564 0.244924 49.500000
-7.201945 13.740991 0.251838 5.000000
-7.358059 14.146755 0.258850 0.000000
9.651448 -21.080591 0.376361 2.000000
10.346187 -20.842258 0.377724 2.000000
9.780457 -20.672041 0.371232 16.000000
10.599982 -20.696363 0.377465 1.000000
-13.334365 -20.253378 0.393631 12.000000
-13.416948 -20.102665 0.392332 30.000000
-13.373620 -20.174717 0.392916 30.000000
-13.189684 -20.171316 0.391228 10.000000
10.015422 -20.175936 0.365649 2.000000
