# This PCD file was generated using the MATLAB® pcwrite function
# from Computer Vision Toolbox®.
# .PCD v.7 - Point Cloud Data file format
VERSION .7
FIELDS x y z intensity
SIZE 4 4 4 4
TYPE F F F F
COUNT 1 1 1 1
WIDTH 1231
HEIGHT 1
VIEWPOINT 0 0 0 1 0 0 0
POINTS 1231
DATA ascii
-10.272964 26.026136 0.939444 3.000000
-10.152371 26.079811 0.939646 3.000000
-9.947944 26.160646 0.939713 4.000000
-9.837168 26.240894 0.940921 1.500000
-9.714807 26.290739 0.941055 0.000000
4.230772 29.505424 1.000786 2.000000
4.322865 29.488031 1.000651 4.000000
-13.464246 -29.820093 1.098547 29.333334
-13.547026 -29.671324 1.095146 45.000000
-13.603395 -29.548723 1.092193 44.000000
-13.667545 -29.444197 1.089911 43.000000
13.570660 -29.396538 1.087093 4.000000
-13.937567 -29.299639 1.089374 44.000000
-14.022633 -29.241287 1.088838 37.000000
-13.761042 -29.283562 1.086354 45.000000
14.178685 -29.019180 1.084408 20.000000
13.445323 -28.886213 1.069777 11.000000
13.502109 -28.693342 1.064722 32.666668
14.174404 -28.780828 1.077160 22.000000
13.651565 -28.621099 1.064677 11.000000
13.872977 -28.621096 1.067898 35.000000
14.531322 -28.593313 1.076891 22.000000
14.188318 -28.582182 1.071388 38.000000
14.617435 -28.540403 1.076623 36.000000
14.772491 -28.401888 1.074878 29.000000
14.167138 -28.315800 1.063066 37.000000
14.342147 -27.787397 1.049912 21.000000
16.334602 -27.686436 1.079308 14.000000
14.156369 -27.640177 1.042664 2.000000
14.383256 -27.653536 1.046556 7.000000
15.249575 -27.601778 1.058771 40.000000
16.549299 -27.651863 1.081992 39.000000
17.126953 -27.622946 1.091254 11.000000
17.255997 -27.636824 1.093938 20.000000
14.654508 -27.537928 1.047362 40.000000
15.085894 -27.509342 1.053402 43.000000
16.041752 -27.584627 1.071388 16.000000
16.122265 -27.523748 1.070986 27.000000
16.376574 -27.559374 1.076355 28.000000
16.574179 -27.497021 1.077965 2.000000
17.429298 -27.527857 1.093938 15.000000
14.727725 -27.467089 1.046422 32.000000
14.812045 -27.417168 1.046288 38.000000
15.291496 -27.473394 1.055684 39.000000
15.728955 -27.442087 1.061992 35.000000
15.853069 -27.458317 1.064543 14.000000
14.368156 -27.205582 1.033000 42.000000
14.821650 -27.230049 1.040919 42.000000
14.243642 -27.176229 1.030181 18.000000
16.555922 -26.890232 1.060247 19.000000
18.499735 -26.917276 1.096623 9.000000
18.723330 -26.879238 1.099844 49.000000
18.773252 -26.771185 1.097831 39.000000
18.424974 -26.628902 1.087227 38.000000
18.769655 -26.587969 1.092730 13.000000
14.980135 -26.520489 1.022664 35.000000
18.686352 -26.294247 1.083066 32.000000
14.950686 -26.275242 1.015013 18.000000
18.743275 -26.199650 1.081589 20.000000
15.761052 -26.148020 1.025080 35.000000
14.949578 -25.893425 1.003873 7.000000
15.067028 -25.908537 1.006289 2.000000
15.726941 -25.907005 1.017564 41.000000
15.812425 -25.864292 1.017832 40.000000
16.140179 -25.849754 1.023201 7.000000
15.834915 -25.719168 1.014074 6.000000
15.928278 -25.689680 1.014879 4.000000
16.108522 -25.619553 1.016087 7.000000
16.314310 -25.588623 1.018906 11.000000
-15.663600 -25.500689 1.004812 45.000000
-15.712089 -25.400356 1.002799 45.000000
16.126911 -25.470867 1.012195 11.000000
16.334148 -25.443048 1.015148 13.000000
19.781006 -8.695684 1.101040 46.000000
19.700880 -8.549839 1.094323 45.000000
19.650583 -8.454748 1.090048 48.000000
19.599884 -8.360060 1.085773 46.000000
19.556143 -8.268884 1.081906 49.000000
19.476866 -8.127454 1.075392 48.000000
19.374155 -7.942028 1.066944 48.500000
19.298456 -7.804919 1.060736 48.000000
19.229229 -7.671748 1.054935 49.000000
19.212601 -7.490591 1.050762 51.333332
19.397797 -7.387855 1.057683 52.000000
19.514681 -7.327312 1.062161 52.000000
19.590023 -7.285465 1.065011 52.000000
19.661545 -7.241833 1.067657 51.000000
19.791199 -7.183805 1.072847 51.500000
19.948856 -7.099488 1.078954 51.500000
10.695875 -6.996520 1.097513 1.000000
10.504610 -6.638173 1.067055 4.000000
10.846382 -6.664844 1.093178 16.666666
10.961047 -6.361566 1.088273 18.000000
11.087432 -5.887848 1.078006 22.000000
11.285685 -5.947749 1.095460 1.000000
11.192430 -5.764482 1.081086 11.000000
11.210485 -5.729291 1.081086 0.000000
-15.337554 -3.433969 1.074805 28.500000
-15.304226 -3.325698 1.070984 6.500000
-15.041966 -2.948394 1.048197 5.000000
10.267553 -2.787708 1.100212 0.000000
-14.653874 -2.681560 1.018724 39.000000
10.268665 -2.512726 1.093217 6.000000
10.278446 -2.463833 1.093011 4.000000
10.370766 -1.923853 1.090748 10.500000
9.748947 -1.872059 1.026563 1.000000
10.316098 -1.846866 1.083754 56.000000
11.822057 -1.811141 1.027015 18.000000
10.193571 -1.750665 1.069559 8.750000
10.313034 -1.546814 1.078405 103.000000
10.335599 -1.417639 1.078816 89.000000
10.502732 -1.239363 1.093629 18.000000
10.439255 -1.182043 1.086428 52.000000
-15.285171 -1.063459 1.047788 19.000000
10.400808 -1.074379 1.081285 52.875000
12.052340 -1.020575 1.038650 18.500000
-15.513154 -0.908063 1.062661 1.000000
10.453545 -0.943022 1.085400 62.250000
11.965145 -0.937497 1.030608 14.000000
10.457301 -0.802809 1.084577 3.000000
-15.915625 -0.781187 1.089678 3.000000
11.839178 -0.740768 1.018630 3.500000
10.558579 -0.666131 1.094040 31.000000
9.770060 -0.272800 1.010722 6.500000
10.159073 -0.235863 1.050838 7.000000
9.997730 -0.137859 1.033969 8.000000
10.088747 -0.170815 1.043432 1.000000
9.964630 0.066092 1.030471 30.500000
10.456222 0.020074 1.081285 70.000000
9.746995 0.141207 1.008047 16.000000
10.018550 0.176648 1.036190 40.799999
-14.914158 0.299390 1.020089 35.000000
-14.794696 0.281656 1.011902 38.333332
10.085468 0.279119 1.043350 38.200001
-15.003736 0.395505 1.026366 18.000000
10.094804 0.384305 1.044666 12.000000
-15.086186 0.445114 1.032096 38.000000
9.874262 0.422487 1.022037 21.000000
-15.711371 0.611810 1.075214 20.000000
-15.254582 0.546027 1.043831 23.000000
8.577381 0.583243 1.041135 2.000000
9.900286 0.610731 1.025740 7.000000
10.053091 0.588460 1.041375 14.000000
-14.848147 0.624916 1.016268 31.000000
8.427025 0.626236 1.023342 3.000000
-14.723117 0.735577 1.008081 40.250000
-14.845680 0.905402 1.017087 9.000000
-14.657219 0.847695 1.003988 37.000000
10.496153 0.979236 1.090131 36.000000
9.730001 1.062171 1.012162 0.000000
9.896634 1.111835 1.029854 109.000000
10.337753 1.046409 1.074496 65.000000
-15.509716 1.141682 1.063480 72.000000
-15.163862 1.164136 1.040010 0.000000
-14.603449 1.213450 1.002078 11.000000
9.738946 1.125112 1.013808 0.000000
-15.856279 1.267410 1.087767 37.000000
-14.794277 1.322955 1.015723 63.000000
8.802884 1.383217 1.079126 1.000000
-15.572538 1.466640 1.069620 37.000000
11.709251 1.464767 1.013326 20.000000
-15.654836 1.548761 1.075760 25.000000
-14.894704 1.568123 1.024182 21.000000
9.617760 1.604255 1.008322 7.333333
-14.913507 1.617494 1.025820 3.000000
-4.434195 3.013479 1.033490 3.500000
-4.471810 3.090657 1.047876 2.000000
-4.341241 3.195856 1.039169 0.000000
-5.022399 3.219373 1.042244 2.000000
-4.963111 3.264042 1.091445 4.000000
-4.637921 3.292432 1.096441 1.857143
-2.974127 3.268170 1.097123 2.200000
-2.820819 3.302433 1.078328 3.000000
-4.490509 3.360551 1.081190 0.000000
-2.714514 3.344960 1.069525 4.000000
-3.272085 3.462292 1.094240 1.750000
-3.128326 3.481466 1.075100 1.000000
-3.032864 3.495066 1.062899 1.000000
-2.818384 3.506616 1.033349 1.000000
-2.641453 3.414875 1.084437 4.769231
-2.581203 3.466183 1.093354 3.750000
-4.733198 3.576440 1.089989 3.250000
-3.422787 3.588005 1.046601 2.000000
-3.072036 3.517822 1.072749 0.000000
-2.972848 3.536442 1.061208 0.333333
-2.882793 3.552307 1.050811 1.000000
-2.676255 3.568523 1.024693 0.666667
-2.591404 3.580049 1.067103 32.210526
-2.545866 3.712934 1.072770 3.500000
-2.367759 3.685765 1.006262 3.625000
6.886951 3.689656 1.084844 1.000000
-2.607214 3.714035 1.042304 0.000000
-2.291283 3.725940 1.004695 2.333333
6.798440 3.738979 1.077326 43.666668
6.789775 3.841470 1.083194 16.000000
-4.769074 4.216212 1.095693 1.714286
-4.762107 4.353372 1.077440 1.714286
-4.767320 4.510227 1.083627 2.400000
-4.657095 4.559815 1.091793 2.800000
-4.138742 4.604518 1.081655 3.000000
-2.649359 4.540654 1.049508 24.125000
-4.033888 4.646897 1.075091 1.428571
-3.930288 4.688955 1.068920 0.000000
-3.386643 4.668136 1.059615 0.500000
-2.650003 4.638923 1.071679 38.857143
-3.877243 4.773236 1.074392 0.000000
-2.670787 4.769243 1.086710 24.666666
-4.419627 4.840110 1.086091 0.000000
-3.845009 4.891433 1.086990 0.000000
-4.543913 4.929336 1.050801 0.000000
-4.124682 4.961907 1.011346 0.000000
-4.043624 4.980906 1.005585 0.000000
-2.707629 4.925338 1.083462 41.000000
-2.768572 5.110755 1.067961 87.750000
-2.536339 5.096171 1.097342 71.166664
-2.682940 5.115197 1.065299 81.923080
-2.529928 5.219174 1.058185 25.714285
19.684658 8.863159 1.100022 48.000000
19.651752 8.959925 1.100531 41.500000
19.592999 9.044938 1.099615 34.000000
19.562817 9.143045 1.100328 48.500000
19.506771 9.266669 1.100429 27.500000
19.437710 9.346382 1.099005 60.000000
19.404217 9.443081 1.099615 46.500000
19.340895 9.563093 1.099412 36.500000
19.274214 9.643394 1.098190 58.000000
19.237457 9.738588 1.098699 37.000000
19.186522 9.864798 1.099310 51.500000
19.116821 9.943107 1.097987 53.000000
19.087400 10.042381 1.099005 29.500000
19.021017 10.147772 1.098530 41.000000
18.766674 10.678291 1.100226 36.000000
18.705307 10.721303 1.098597 46.000000
18.671822 10.819359 1.099615 33.500000
18.600029 10.934438 1.099412 46.000000
18.551767 11.023996 1.099615 27.000000
18.514982 11.120565 1.100531 49.000000
18.436228 11.231464 1.100022 37.000000
18.349895 11.417398 1.101244 46.500000
18.272743 11.529253 1.100938 36.000000
10.661523 11.987277 1.097046 27.000000
10.393766 12.178200 1.094863 7.500000
10.344032 12.236177 1.095681 28.000000
9.387046 13.058646 1.099775 17.000000
-6.862012 14.569265 1.101276 7.000000
-6.794108 14.603278 1.101412 5.000000
11.899814 29.159605 1.057429 22.000000
11.997451 29.136860 1.057966 91.000000
12.102732 29.132254 1.059174 19.000000
4.429106 29.565239 1.003739 18.000000
4.527408 29.586742 1.004947 46.000000
4.680211 29.649937 1.007832 50.000000
4.833012 29.708488 1.010584 66.000000
4.935480 29.748371 1.012463 74.000000
5.038247 29.787903 1.014342 77.000000
5.141989 29.831022 1.016356 81.000000
5.244670 29.865910 1.018101 83.000000
5.350435 29.916185 1.020383 85.000000
5.454420 29.954292 1.022262 84.000000
5.561610 30.007765 1.024678 86.000000
5.666227 30.045141 1.026557 83.000000
11.871696 30.030334 1.084207 58.500000
12.031657 30.020491 1.085885 4.000000
5.780925 30.133198 1.030181 79.000000
5.890874 30.193363 1.032866 1.000000
12.977807 -31.992514 1.159172 8.000000
12.795223 -31.829119 1.151789 36.000000
14.688282 -31.817513 1.176621 3.000000
15.319633 -31.860296 1.186956 8.000000
-12.494220 -31.750933 1.145615 38.000000
12.649301 -31.754026 1.147628 8.000000
12.996475 -31.751795 1.151924 10.000000
14.510035 -31.692663 1.170312 4.000000
15.135130 -31.731459 1.180379 9.000000
-12.555544 -31.614922 1.142125 41.000000
-12.623573 -31.497395 1.139306 40.000000
14.690323 -31.560997 1.168836 7.000000
13.452727 -31.448172 1.148434 4.000000
13.689936 -31.454668 1.151789 19.000000
-12.689488 -31.376043 1.136353 43.000000
-12.750236 -31.243490 1.132998 42.000000
12.997363 -31.193468 1.134608 20.000000
13.129380 -31.233561 1.137561 38.000000
13.650494 -31.096693 1.140246 3.000000
-12.845284 -31.057446 1.128434 42.000000
13.933112 -30.944792 1.139441 1.000000
-12.937497 -30.867535 1.123736 44.000000
12.604248 -30.793539 1.117159 19.000000
13.086971 -30.860914 1.125481 25.000000
-13.001712 -30.749411 1.120917 44.000000
12.707025 -30.768574 1.117696 17.000000
13.274276 -30.763397 1.124944 8.000000
-13.059039 -30.616482 1.117562 45.000000
13.114679 -30.657925 1.119575 20.000000
-13.157104 -30.448170 1.113669 41.000000
19.669737 -29.605328 1.193399 4.000000
19.243721 -29.564911 1.184406 44.000000
18.445004 -29.335571 1.163467 6.000000
19.255430 -29.380596 1.179440 27.000000
18.502159 -29.020216 1.155548 11.000000
18.537088 -28.874479 1.152058 16.000000
16.797140 -28.675886 1.115817 4.000000
19.187632 -28.489719 1.153266 2.000000
18.778172 -28.263416 1.139306 20.000000
18.200159 -28.154699 1.125615 3.000000
18.284151 -28.090685 1.125347 4.000000
18.599010 -28.185465 1.133803 17.000000
18.757950 -28.041468 1.132729 50.000000
18.678465 -27.733709 1.122662 19.000000
19.095259 -27.783768 1.131924 23.000000
19.680670 -27.509956 1.135682 5.000000
19.865122 -27.584246 1.141320 11.000000
18.599474 -27.430040 1.112730 48.000000
19.380630 -27.453442 1.128300 14.000000
19.895369 -27.444017 1.138098 41.000000
19.438992 -27.353315 1.126689 9.000000
18.521017 -27.130444 1.102931 42.000000
-5.294930 -12.090845 1.133446 7.000000
-5.361620 -12.057018 1.133104 7.400000
19.938524 -8.990107 1.114475 45.500000
19.860291 -8.842373 1.107758 46.000000
11.282727 -8.003406 1.187860 5.000000
10.865555 -7.836505 1.150387 3.000000
10.910494 -7.791002 1.151242 3.000000
11.131892 -7.843962 1.169380 1.000000
11.211986 -7.847802 1.175198 1.000000
10.894905 -7.373633 1.129682 1.000000
10.944477 -7.357156 1.132420 0.000000
11.070201 -7.341105 1.140633 8.000000
11.540269 -7.343504 1.174599 3.250000
11.595508 -7.276669 1.175540 4.000000
10.830273 -7.133117 1.113598 30.000000
11.841233 -6.972236 1.179989 7.000000
10.914786 -6.801787 1.104357 26.000000
11.338301 -6.796597 1.135158 5.000000
12.185794 -6.869143 1.201207 9.000000
11.125512 -6.740503 1.117020 1.000000
11.755216 -6.675179 1.160824 13.000000
11.692714 -6.446735 1.146565 11.000000
12.215440 -6.388792 1.183753 11.000000
11.633801 -6.319267 1.136869 29.000000
11.772869 -6.346989 1.148504 8.000000
12.337410 -6.256418 1.187860 1.000000
12.261620 -6.145554 1.177765 23.500000
11.411264 -5.922618 1.104015 5.000000
12.159832 -5.939885 1.162108 15.500000
11.957540 -5.191843 1.119415 5.000000
10.674673 -3.895825 1.175095 57.000000
10.726093 -3.787782 1.176330 19.333334
13.593179 -2.521800 1.187176 38.000000
13.679177 -2.582235 1.195389 37.000000
-16.384079 -2.416472 1.132522 15.000000
13.369454 -2.393501 1.166300 28.000000
13.573589 -2.474082 1.184780 15.000000
13.258556 -2.287767 1.155349 13.000000
9.513239 -2.201552 1.182518 0.000000
13.175302 -2.230800 1.147478 20.000000
9.516236 -2.170771 1.182037 3.000000
10.652295 -2.184665 1.124487 6.000000
10.902807 -2.129167 1.148763 7.000000
13.065705 -2.148987 1.137040 14.000000
9.704442 -1.895142 1.197426 5.000000
10.617252 -1.969708 1.116670 15.000000
11.165128 -1.734479 1.168443 59.166664
9.303041 -1.665501 1.144528 6.000000
10.668200 -1.565831 1.115024 89.000000
10.910297 -1.531400 1.139299 60.000000
-16.287790 -1.467971 1.118332 3.000000
-13.581668 -1.439473 1.172802 52.000000
-13.161090 -1.436726 1.136869 13.000000
10.988859 -1.425220 1.145882 33.666668
-16.627228 -1.288155 1.140436 3.000000
-13.431511 -1.380904 1.159456 49.000000
9.675357 -1.327117 1.182678 5.666667
-16.727821 -1.190228 1.146804 17.000000
9.506834 -1.197690 1.160397 7.000000
9.690104 -1.267124 1.183480 5.000000
-13.878516 -1.031349 1.195047 32.000000
9.450731 -1.009989 1.151020 92.000000
9.514942 -1.062227 1.159435 104.000000
9.358611 -0.955564 1.139238 0.000000
10.670132 -0.886620 1.107206 75.000000
11.212258 -0.896208 1.163163 10.000000
10.666862 -0.717843 1.105561 26.000000
10.815375 -0.761975 1.121196 19.000000
10.942243 -0.615570 1.133333 8.000000
10.895365 -0.561469 1.128190 46.000000
10.936004 -0.471762 1.131962 15.833333
9.866617 -0.322137 1.195502 8.000000
12.903446 -0.360407 1.108464 2.500000
11.245817 -0.066738 1.162958 5.000000
-13.560801 0.186991 1.164589 7.000000
-13.512329 0.228781 1.160482 16.000000
-16.589905 0.333029 1.134706 0.000000
9.249229 0.327842 1.120803 29.000000
9.712090 0.415548 1.177228 72.000000
13.962117 0.465548 1.199610 14.000000
-13.860676 0.583356 1.191282 36.000000
13.503971 0.620218 1.160824 32.000000
9.515338 0.767274 1.156069 16.666666
11.498407 0.745584 1.191553 54.000000
11.534629 0.759991 1.195393 51.666668
9.518273 0.827719 1.157031 4.000000
11.537395 0.850172 1.196326 44.599998
10.854727 1.012695 1.127367 27.000000
-17.371078 1.059420 1.190104 17.000000
10.729618 1.171319 1.116155 60.750000
-16.162584 1.240808 1.108508 37.000000
10.654535 1.298696 1.109949 21.666666
-16.066826 1.360486 1.102640 11.000000
10.758007 1.380041 1.121607 84.000000
-17.036074 1.847705 1.171820 53.000000
-16.466059 1.864447 1.133205 20.000000
-16.293545 1.948643 1.122152 15.000000
-3.851429 3.165775 1.145169 6.625000
-3.794818 3.210278 1.141699 6.000000
-3.584733 3.160237 1.186470 31.166666
-3.437779 3.175937 1.194398 31.272728
-3.359855 3.165062 1.145989 36.000000
-3.276489 3.174878 1.132736 29.500000
-3.182942 3.192958 1.119323 13.666667
-3.734041 3.276752 1.164192 7.305555
-3.122433 3.242141 1.117556 2.250000
-3.005984 3.241402 1.181501 43.500000
-4.424431 3.343721 1.170508 0.500000
-4.348381 3.340192 1.157291 1.000000
-4.276618 3.349697 1.146552 1.000000
-4.176287 3.380886 1.134110 0.125000
-3.701613 3.410920 1.156175 1.000000
-4.070683 3.465693 1.128379 0.000000
-3.584206 3.440476 1.141187 1.000000
-3.423973 3.445372 1.115731 1.125000
-2.815888 3.414513 1.182878 23.666666
-2.656896 3.429639 1.159518 8.857142
-2.573114 3.460915 1.152583 2.000000
-4.108847 3.565474 1.148204 0.000000
-2.602274 3.570480 1.180813 4.000000
-2.583047 3.567043 1.177026 4.333333
-4.124416 3.653503 1.162935 0.583333
-4.046814 3.659102 1.151509 0.000000
-2.594422 3.843532 1.151290 32.000000
-2.620630 4.033358 1.201208 2.384615
-2.599346 4.286965 1.151549 10.000000
-2.646192 4.474713 1.194083 2.500000
-4.593028 4.596292 1.115707 1.500000
-4.146117 4.599833 1.193751 3.333333
-4.012938 4.598298 1.201113 3.777778
-3.729328 4.639842 1.147534 4.000000
-3.619079 4.650553 1.135956 3.000000
-3.313733 4.683611 1.105986 1.250000
-3.134812 4.662396 1.194531 1.333333
-4.713893 4.786854 1.173729 0.000000
-4.622455 4.793302 1.163403 0.000000
-4.587576 4.717508 1.149635 0.000000
-2.679278 4.801960 1.160595 25.500000
-4.511029 4.909147 1.164780 0.000000
-2.688805 4.872772 1.174638 14.000000
-4.608808 4.921545 1.177997 0.000000
-3.326456 4.936160 1.147439 0.000000
19.946861 8.421797 1.103279 42.000000
19.867867 8.535909 1.101854 38.000000
19.801405 8.692173 1.101922 39.666668
19.756180 8.820820 1.102465 25.000000
18.413740 11.337071 1.101854 27.000000
18.180059 11.711777 1.101956 33.000000
18.256973 11.639935 1.103279 47.000000
18.092558 11.857486 1.102261 45.000000
18.156506 11.818024 1.103890 27.000000
18.040943 11.986348 1.103686 36.000000
10.878184 12.077208 1.111509 1.000000
10.585869 12.207738 1.104960 21.000000
10.661651 12.178734 1.106870 10.500000
11.776776 12.199469 1.159539 2.000000
11.851754 12.123733 1.159403 7.000000
17.962835 12.138876 1.104704 36.500000
10.560490 12.256050 1.106324 4.000000
10.835231 12.259930 1.118878 23.000000
11.567840 12.288378 1.154081 1.000000
11.695255 12.268376 1.159084 12.666667
17.883364 12.290875 1.105722 31.000000
10.338548 12.386714 1.103323 16.000000
11.597334 12.397517 1.160904 1.000000
12.316457 12.402654 1.195289 19.000000
10.241572 12.508304 1.105506 3.000000
10.480082 12.476402 1.114238 71.000000
17.763510 12.456633 1.105518 36.000000
17.832058 12.421316 1.107350 45.000000
10.367800 12.541372 1.112737 11.000000
11.518211 12.587578 1.166771 5.500000
17.720646 12.593423 1.107757 30.666666
10.160582 12.623718 1.108144 12.333333
10.350816 12.723059 1.121607 5.000000
17.643917 12.748584 1.109182 31.000000
17.556061 12.896235 1.109997 33.666668
10.055528 12.972824 1.122425 16.000000
10.266966 13.004953 1.133068 72.333336
10.329967 13.112914 1.141528 51.000000
11.141155 13.053943 1.173593 8.000000
11.242987 13.048128 1.177823 17.000000
11.361483 13.019324 1.181644 5.000000
17.452991 13.075518 1.111218 23.000000
17.506802 13.030166 1.112032 28.000000
9.616493 13.158463 1.114511 7.500000
9.958955 13.187401 1.130066 8.500000
10.042956 13.126056 1.130203 5.000000
11.028978 13.213925 1.177005 10.000000
11.568228 13.172474 1.198836 9.000000
17.408653 13.170897 1.112338 36.500000
9.327367 13.219578 1.106379 16.200001
9.927868 13.275684 1.133614 3.000000
10.563993 13.238023 1.158175 64.000000
17.351204 13.256403 1.112643 38.000000
9.190181 13.396827 1.110964 13.000000
9.261121 13.364858 1.111919 24.000000
11.037097 13.393832 1.186829 1.000000
17.320145 13.362417 1.114678 23.000000
9.105825 13.454306 1.110964 16.000000
17.249990 13.482071 1.115594 36.500000
9.898256 13.678930 1.154627 12.000000
17.163857 13.633270 1.116918 25.333334
17.081169 13.787738 1.118546 35.000000
10.735374 13.894961 1.200747 2.000000
17.009689 13.907403 1.119564 25.000000
10.004403 14.103613 1.182463 5.000000
16.937780 14.072045 1.122074 29.333334
9.964643 14.141497 1.183008 5.000000
9.539782 14.239747 1.172093 27.000000
16.839508 14.215385 1.122923 24.500000
9.387083 14.350432 1.172638 5.000000
9.471630 14.380861 1.177550 31.000000
9.807650 14.345168 1.188330 8.500000
16.745644 14.408662 1.125671 31.000000
16.813400 14.329578 1.125671 31.000000
9.611600 14.494047 1.189285 13.000000
16.672871 14.529314 1.126892 24.000000
16.582199 14.681012 1.128520 33.000000
16.652233 14.649955 1.130149 26.000000
16.529228 14.820422 1.131234 24.666666
16.449783 14.983870 1.133813 28.500000
16.359888 15.138813 1.135781 25.000000
16.306278 15.280512 1.138698 22.000000
16.246567 15.320701 1.137884 29.000000
16.216135 15.437000 1.140836 25.000000
16.119684 15.588427 1.142634 23.000000
16.042904 15.759794 1.145924 26.000000
15.973277 15.889894 1.148062 20.000000
15.866936 16.059254 1.150352 22.750000
15.812325 16.231819 1.154677 6.000000
15.733541 16.355345 1.156408 12.000000
15.655226 16.479950 1.158240 23.500000
15.586911 16.615856 1.160886 8.000000
15.554713 16.738865 1.164346 0.000000
15.462737 16.850985 1.165364 3.000000
5.475895 22.093992 1.159868 56.000000
5.350081 22.182331 1.162718 3.000000
5.408356 22.118847 1.160275 55.000000
5.557931 22.127048 1.162514 21.000000
13.298504 -34.971786 1.256217 14.000000
13.396845 -34.899979 1.255143 4.000000
13.539643 -34.943455 1.258230 23.000000
13.637707 -34.870960 1.257156 25.000000
13.789520 -34.828362 1.257693 23.333334
13.974691 -34.763138 1.257962 2.000000
14.041759 -34.615337 1.254203 3.000000
7.555255 -17.219517 1.285891 44.000000
7.598011 -17.170151 1.283980 60.000000
7.677493 -17.155138 1.285254 44.333332
10.444387 -7.020983 1.301410 2.000000
12.277308 -7.022748 1.214554 3.000000
12.339473 -6.904778 1.214211 11.000000
10.075932 -6.727435 1.252859 7.000000
10.333170 -6.713003 1.274254 14.000000
10.494071 -6.631513 1.283718 21.000000
10.612586 -6.659844 1.295650 9.000000
10.569794 -6.494956 1.282895 28.000000
10.691564 -6.386106 1.287832 3.000000
10.188742 -6.334491 1.240653 8.666667
10.593034 -6.372488 1.278369 19.000000
10.312297 -6.262614 1.247647 2.666667
10.716711 -6.255815 1.283224 23.600000
10.563022 -6.086281 1.260676 8.000000
10.799237 -5.983634 1.276723 7.333333
11.085768 -5.931688 1.300175 0.000000
-14.203016 -2.599056 1.239878 24.000000
-14.764962 -2.510560 1.286078 13.000000
-14.666386 -2.399088 1.276154 31.000000
-14.210640 -2.370398 1.237140 71.000000
-13.952820 -2.192441 1.212842 41.000000
-14.237023 -2.099805 1.235772 57.000000
-13.850691 -2.109567 1.203089 15.000000
-14.364377 -2.026454 1.245696 51.000000
-14.118873 -2.006875 1.224592 34.000000
-14.617756 -1.968605 1.266572 83.000000
10.379896 -1.891962 1.277735 75.000000
-14.150238 -1.830294 1.225220 38.333336
10.364202 -1.821894 1.274369 57.000000
10.459877 -1.804855 1.285429 86.000000
-14.326313 -1.700702 1.238852 30.000000
-17.844652 -1.664824 1.225580 2.000000
-14.245286 -1.660840 1.231551 20.000000
-13.947356 -1.389676 1.203602 55.000000
10.290533 -1.477389 1.258980 52.000000
-14.328767 -1.336819 1.235772 35.333332
-14.610886 -1.270579 1.259385 11.000000
-14.547146 -1.188361 1.253339 25.333334
10.359822 -1.206030 1.263068 50.500000
-14.034144 -1.087262 1.208736 34.000000
-14.203685 -1.010658 1.222767 42.000000
10.279066 -1.049547 1.251286 55.000000
10.317481 -1.004351 1.255374 57.000000
-14.311663 -0.950599 1.231665 31.500000
10.345227 -0.908712 1.257658 60.500000
-18.778921 -0.803483 1.285345 1.000000
-14.237082 -0.833265 1.224649 37.500000
-14.139671 -0.827666 1.216265 38.000000
10.406535 -0.831806 1.264270 36.000000
-14.470104 -0.733065 1.244156 31.500000
-14.545115 -0.622334 1.250145 37.000000
-14.447541 -0.663641 1.241932 37.000000
-14.638589 -0.580269 1.258016 20.000000
-14.337656 -0.523235 1.232007 48.000000
-14.270240 -0.430966 1.225961 42.000000
10.049614 -0.422961 1.218104 6.000000
-14.370988 -0.343690 1.234403 37.000000
14.400220 -0.311744 1.236855 39.333332
-14.238947 -0.273424 1.222938 46.000000
10.256632 -0.221981 1.242389 50.000000
10.324951 -0.272172 1.250805 70.000000
-14.318822 -0.117460 1.229612 58.000000
-14.236399 -0.183850 1.222596 47.000000
-14.912927 -0.075484 1.280603 20.000000
10.209122 -0.076620 1.236378 9.000000
-14.474593 0.063161 1.242958 16.000000
10.312954 0.079258 1.248962 31.833334
14.673810 0.074272 1.260069 37.000000
-14.521938 0.131900 1.247065 39.000000
10.065346 0.145856 1.219066 6.000000
14.306379 0.162312 1.228585 26.666666
-14.017579 0.281392 1.203945 13.000000
10.258098 0.245328 1.242630 18.000000
10.312850 0.279057 1.249362 0.000000
14.304262 0.297134 1.228585 22.000000
-14.355289 0.333288 1.233034 28.000000
-14.286443 0.376597 1.227216 42.000000
10.344239 0.410042 1.253690 14.000000
-17.840124 0.470273 1.220395 3.000000
-14.643713 0.432059 1.258016 48.000000
-14.566603 0.475588 1.251514 39.000000
10.083617 0.463186 1.222432 56.000000
10.296288 0.505374 1.248401 62.000000
-14.521227 0.519777 1.247749 31.000000
-14.037795 0.590832 1.206511 39.500000
10.247366 0.599740 1.243111 69.199997
11.682623 0.591866 1.209657 6.000000
-17.978472 0.643527 1.230220 2.000000
-17.665323 0.687898 1.208934 7.000000
11.642924 0.663197 1.205954 15.000000
-14.072094 0.725114 1.209991 43.000000
10.171757 0.723711 1.234936 46.250000
-14.889438 0.908071 1.280945 39.000000
-14.330980 0.896548 1.233034 41.000000
-14.950147 0.958922 1.286421 99.000000
-14.377965 1.058458 1.237996 67.000000
-14.141555 1.040971 1.217634 32.000000
10.097652 1.046349 1.229405 78.500000
-14.837984 1.209471 1.278378 24.000000
10.102176 1.134926 1.231088 78.000000
10.250511 1.200613 1.249843 75.500000
-14.834123 1.279558 1.278550 38.000000
-14.591860 1.304854 1.258016 51.000000
-14.393093 1.355489 1.241418 61.500000
-14.452003 1.429762 1.247065 53.000000
-14.643294 1.518359 1.264176 46.500000
-14.560179 1.602281 1.257845 44.000000
11.597814 1.524821 1.209657 40.000000
11.616624 1.564436 1.212126 0.000000
-14.405334 1.676920 1.245354 38.000000
-14.462686 1.768116 1.251172 54.666668
-17.445036 2.197642 1.202384 29.500000
-17.462208 2.283438 1.204294 25.000000
-17.512524 2.374027 1.208524 6.000000
-4.592667 3.163512 1.280941 1.000000
-4.471317 3.152777 1.256675 2.200000
-4.310059 3.121028 1.222289 14.000000
-4.175355 3.132260 1.211072 12.875000
-4.022188 3.151700 1.228040 13.000000
-3.896324 3.144949 1.211961 25.000000
-3.778554 3.145911 1.220686 36.000000
-3.300146 3.207991 1.230042 40.750000
-4.898723 3.310447 1.247881 1.666667
-4.752089 3.284457 1.219244 3.600000
-4.634354 3.311767 1.202228 1.400000
-3.990815 3.269936 1.280925 17.000000
-3.882613 3.276034 1.261263 16.600000
-3.517559 3.231164 1.276517 13.000000
-3.401693 3.286106 1.264124 16.333334
-3.294998 3.257346 1.238304 26.666666
-3.119146 3.258571 1.205631 23.636364
-3.078569 3.372453 1.220403 25.000000
-2.964426 3.394308 1.204452 26.888889
-4.703332 3.473933 1.234113 2.000000
-4.625274 3.416456 1.213669 1.500000
-2.609116 3.712590 1.212743 2.500000
6.854084 3.699808 1.220824 36.000000
6.800850 3.754277 1.217603 45.400002
-2.639303 3.892497 1.227189 12.166667
6.793455 3.834166 1.222682 25.000000
-2.641088 4.190811 1.229842 1.000000
-4.746478 4.224478 1.224894 2.000000
-4.730202 4.331629 1.236403 1.750000
-2.664886 4.333657 1.231447 11.666667
-4.747247 4.486218 1.259117 2.666667
-4.636762 4.549991 1.252303 2.666667
-4.544831 4.559134 1.240946 4.000000
-4.469612 4.597575 1.236078 0.142857
-4.133533 4.557015 1.298545 2.333333
-4.045529 4.559701 1.286567 2.750000
-3.870179 4.603958 1.214330 3.714286
-3.723474 4.602804 1.249572 3.714286
-4.326093 4.650441 1.224397 0.000000
-3.591532 4.615075 1.234278 2.400000
-3.376657 4.662954 1.215114 0.000000
-3.280740 4.642035 1.223129 0.888889
-2.686959 4.642847 1.232139 1.000000
-2.802627 4.895645 1.295716 9.000000
-2.519765 5.003431 1.286762 64.666664
-2.685220 5.052037 1.207588 89.333336
-2.529242 5.075078 1.220130 63.333332
-2.509207 5.197519 1.218143 20.666666
12.451019 12.420632 1.202657 16.000000
12.095983 13.094526 1.219031 11.000000
12.104454 13.021386 1.215756 12.000000
11.899456 13.294801 1.220122 31.000000
11.911785 13.224735 1.217121 1.000000
12.081917 13.329171 1.230220 0.000000
11.270185 13.589474 1.207296 17.000000
11.197217 13.675456 1.208661 2.000000
10.862266 13.968276 1.210025 7.000000
10.791296 14.058410 1.211936 5.000000
10.814274 14.556124 1.240044 4.000000
11.088348 14.634862 1.255599 0.000000
-10.329617 36.118778 1.261317 2.000000
-10.217172 36.154900 1.261452 2.000000
-10.126121 36.267673 1.264270 2.000000
-12.540226 -39.724163 1.398630 53.000000
-12.624853 -39.558887 1.394201 55.000000
-12.711022 -39.401085 1.390040 51.000000
-12.792596 -39.231731 1.385476 55.000000
-12.873241 -39.062256 1.380912 51.000000
-12.958000 -38.907833 1.376886 53.000000
-13.036817 -38.738110 1.372322 50.000000
-13.119843 -38.583412 1.368295 52.000000
-13.202017 -38.428585 1.364268 53.000000
-13.283358 -38.273613 1.360242 33.000000
-13.648873 -38.161777 1.360778 3.000000
-13.504895 -38.136639 1.358362 21.000000
-13.363853 -38.118515 1.356215 21.000000
-13.670555 -37.478111 1.339437 55.000000
-13.752305 -37.337448 1.335947 55.000000
-13.829126 -37.185390 1.332054 52.000000
-13.903715 -37.029488 1.328027 51.000000
-13.980303 -36.880955 1.324269 52.000000
-14.056095 -36.732307 1.320511 52.000000
-14.132532 -36.587280 1.316887 51.000000
-14.208197 -36.442131 1.313263 54.000000
-14.291864 -36.319199 1.310444 6.000000
-14.363105 -36.166370 1.306551 3.000000
-18.186724 -20.585287 1.399658 30.000000
-18.241117 -20.387255 1.393959 58.000000
-18.195559 -20.465361 1.395384 55.000000
-18.304815 -20.265488 1.391516 56.000000
-18.417007 -20.133814 1.390396 48.000000
-18.910564 -19.596144 1.387648 1.000000
-18.949770 -19.513710 1.386020 2.000000
-19.007921 -19.389950 1.383577 3.500000
-19.081520 -19.221952 1.380117 7.000000
-19.156078 -19.076012 1.377538 34.666668
-5.272047 -12.142262 1.368887 0.000000
-5.346272 -12.053185 1.363538 9.500000
-5.292611 -12.085549 1.364361 8.000000
13.255857 -8.031194 1.330910 3.000000
10.920187 -7.746238 1.384522 4.000000
10.509224 -7.306822 1.323628 1.000000
10.496116 -7.248899 1.319102 7.000000
11.055037 -7.281152 1.368887 7.000000
10.442812 -7.115595 1.306759 0.000000
10.461820 -7.080522 1.306347 6.000000
10.962690 -7.073098 1.349138 7.000000
10.819538 -6.900766 1.327057 5.000000
11.023009 -6.821243 1.340497 7.000000
11.184525 -6.824385 1.354898 4.000000
11.570951 -6.618719 1.378488 9.333333
11.569607 -6.521798 1.373413 14.000000
11.401404 -6.193034 1.341732 14.000000
11.017134 -6.164839 1.305524 80.000000
11.587442 -6.106781 1.354487 0.000000
11.280715 -6.081659 1.325274 8.000000
11.546305 -6.007965 1.345983 50.000000
11.713871 -6.079676 1.364773 16.000000
11.721813 -5.898021 1.356955 18.000000
11.547371 -5.697033 1.331548 53.250000
11.952702 -5.780735 1.373002 37.000000
11.805705 -5.147987 1.331857 10.500000
11.760417 -5.062402 1.324039 8.000000
11.673797 -4.981705 1.312519 5.000000
10.528464 -3.767662 1.354197 1.000000
10.736456 -3.690571 1.374876 0.000000
10.702949 -3.596561 1.367374 42.200001
10.747435 -3.441255 1.366640 45.250000
10.779220 -3.349103 1.366941 2.500000
-15.263919 -3.174874 1.338781 37.666668
-15.364799 -2.986613 1.344085 20.500000
-15.174884 -3.073574 1.329541 40.000000
-15.368933 -2.912328 1.343230 33.000000
-15.481992 -2.782864 1.350759 47.000000
9.664095 -2.690992 1.392914 6.000000
-15.066998 -2.635090 1.313456 38.500000
9.661695 -2.625025 1.390163 1.000000
9.740194 -2.450182 1.394564 1.000000
-15.554478 -2.344064 1.350759 18.000000
9.102816 -2.320279 1.304344 4.000000
10.748230 -2.239422 1.329592 1.666667
-15.266867 -2.104872 1.323381 6.000000
10.981663 -2.108773 1.354197 15.000000
11.073437 -2.072312 1.364296 23.500000
11.108925 -1.988804 1.366701 30.000000
10.825700 -1.832973 1.329672 69.000000
11.039022 -1.833437 1.355159 59.000000
9.753554 -1.747912 1.375860 4.000000
11.097343 -1.771556 1.360930 57.000000
10.751101 -1.647071 1.317168 60.000000
11.078240 -1.661585 1.356602 55.000000
10.743423 -1.507977 1.313802 60.000000
10.819785 -1.553179 1.323741 46.000000
10.937668 -1.465226 1.336404 13.000000
-15.893708 -1.231327 1.368897 9.000000
9.371321 -1.272037 1.313146 5.000000
9.615286 -1.187546 1.345237 51.666668
9.750424 -1.276743 1.365408 5.000000
9.514494 -1.185092 1.331300 13.000000
9.606349 -1.094527 1.342486 66.666664
-13.431145 -0.998104 1.392751 46.000000
9.754076 -1.043906 1.362107 76.000000
9.661030 -0.942166 1.347804 67.500000
9.731865 -0.887347 1.356881 63.500000
-13.495541 -0.875081 1.398511 36.000000
11.276192 -0.865675 1.369586 1.000000
9.965210 -0.766964 1.387779 47.000000
11.107086 -0.782448 1.348426 10.666667
9.753557 -0.535036 1.356331 6.000000
10.891590 -0.526971 1.320535 21.000000
9.947601 -0.420407 1.382462 1.000000
10.004298 -0.391321 1.390163 20.000000
10.982567 -0.444796 1.331114 12.000000
11.054389 -0.326156 1.339290 22.000000
9.957719 -0.232927 1.383012 13.000000
11.121141 -0.188295 1.346984 31.000000
13.117303 -0.139659 1.356544 6.000000
-16.303968 -0.031299 1.400039 45.000000
-16.096556 -0.081475 1.382244 7.000000
13.181697 -0.016104 1.363127 14.000000
9.509171 0.063894 1.320389 31.666666
9.888114 0.141526 1.373109 37.000000
9.777746 0.293613 1.358256 7.000000
9.858615 0.234052 1.369259 5.000000
9.883430 0.436754 1.373660 12.500000
9.384949 0.562500 1.305444 42.500000
10.670477 1.300719 1.301780 34.000000
11.440549 1.485901 1.397117 59.250000
11.463021 1.580431 1.401325 54.000000
-15.839213 1.970074 1.370608 42.000000
-16.025391 2.069898 1.387548 32.000000
-15.731661 2.132637 1.363250 32.000000
-15.857619 2.225824 1.375057 31.000000
-15.779541 2.265434 1.368897 16.000000
-15.906797 2.385838 1.381217 0.500000
-15.932899 2.517840 1.385152 7.500000
-4.559658 3.193892 1.382126 0.000000
-4.469658 3.183309 1.362368 1.250000
-4.333289 3.165532 1.332329 6.333333
-4.236999 3.150117 1.310803 29.000000
-4.428854 3.249748 1.363814 2.000000
-4.321547 3.255245 1.343252 3.333333
-3.886039 3.308279 1.363959 4.000000
-3.713275 3.259790 1.320583 3.166667
-3.634600 3.276138 1.307759 4.500000
-4.020806 3.358266 1.400107 8.000000
6.875118 3.701845 1.364187 26.666666
6.800481 3.754087 1.357120 46.400002
6.811542 3.844374 1.366482 22.000000
-4.649288 4.199678 1.322363 1.666667
-4.665061 4.339822 1.344803 3.600000
-4.633873 4.490457 1.361944 3.875000
-2.765712 4.497359 1.310803 18.000000
-4.480274 4.536720 1.345767 2.166667
-4.321041 4.544942 1.323627 2.181818
-4.206409 4.550425 1.307907 2.000000
-3.286197 4.629255 1.303999 0.500000
-2.507855 4.893962 1.365296 49.461540
-2.671578 4.932519 1.392728 53.125000
-2.812888 5.059814 1.329743 60.142857
-2.666391 5.074163 1.316647 61.500000
10.754237 11.864432 1.375057 15.000000
10.571812 12.037878 1.375741 15.000000
10.670280 12.073290 1.383612 19.000000
10.733202 12.017292 1.383612 20.333334
10.375981 12.157319 1.372490 24.500000
10.509027 12.119046 1.377452 18.333334
10.873507 12.148548 1.400039 34.000000
10.430517 12.338483 1.387377 18.000000
10.251046 12.493053 1.387719 24.000000
10.338660 12.439722 1.388974 18.000000
9.718810 12.661224 1.370608 27.000000
10.237720 12.692341 1.400267 22.000000
9.741301 13.068927 1.399697 15.000000
9.333849 13.158305 1.385324 34.000000
9.463646 13.165130 1.392282 8.666667
9.226648 13.359817 1.394221 28.000000
9.367870 13.339146 1.399697 21.000000
-6.862167 14.569571 1.382928 5.500000
-6.795092 14.605392 1.383270 6.000000
-12.457068 -39.896923 1.403328 53.000000
-16.099529 -24.621416 1.498994 43.000000
-16.171288 -24.478601 1.494923 34.500000
-16.272528 -24.298513 1.490139 33.500000
-16.338778 -24.150431 1.485763 35.000000
-16.385334 -24.056059 1.483117 34.000000
-16.438236 -23.971518 1.481081 34.000000
-16.486225 -23.880310 1.478639 31.000000
-16.553968 -23.738447 1.474669 32.500000
-16.649769 -23.558933 1.469987 32.500000
-16.720030 -23.423323 1.466425 34.000000
-16.790459 -23.289177 1.462965 31.500000
-16.843636 -23.132294 1.458079 47.000000
-16.890247 -23.043821 1.455840 50.000000
-16.931725 -22.948860 1.453194 47.000000
-16.982300 -22.866690 1.451362 48.000000
-17.025352 -22.774828 1.448919 52.000000
-17.095131 -22.644918 1.445764 49.500000
-17.159315 -22.508522 1.442202 52.000000
-17.226154 -22.376759 1.438945 50.000000
-18.571617 -22.187746 1.474364 21.500000
-17.294687 -22.248026 1.435892 48.000000
-17.339880 -22.162121 1.433856 50.000000
-18.683489 -22.038662 1.472226 28.500000
-18.306232 -22.081308 1.461540 9.000000
-17.403221 -22.028431 1.430497 48.500000
-18.746923 -21.903337 1.469071 27.000000
-18.048813 -21.910540 1.446476 9.000000
-17.473242 -21.904030 1.427749 47.000000
-18.794781 -21.820122 1.467443 26.000000
-18.842306 -21.736818 1.465814 25.000000
-17.797712 -21.744558 1.431820 56.000000
-17.534878 -21.770102 1.424391 53.000000
-18.907661 -21.605684 1.462965 20.500000
-17.618408 -21.663996 1.422864 43.000000
-19.001369 -21.507374 1.462354 7.000000
-18.113821 -21.298725 1.424696 1.000000
-18.041662 -21.349426 1.424289 1.000000
-18.173592 -21.166157 1.421541 2.500000
-18.214315 -21.012358 1.416961 4.000000
-18.270985 -20.878195 1.413704 6.500000
-19.044487 -20.429817 1.423169 3.000000
-19.172037 -20.373344 1.425510 2.000000
-18.683764 -20.233227 1.403322 5.000000
19.949049 -8.999035 1.496567 45.500000
19.870989 -8.851292 1.487561 45.000000
19.788225 -8.702980 1.478283 45.500000
19.722914 -8.563491 1.470369 47.000000
19.641956 -8.418628 1.461363 46.000000
11.449595 -8.230400 1.458171 0.000000
19.563848 -8.276167 1.452631 45.000000
11.362067 -8.113462 1.443771 10.000000
19.492104 -8.137814 1.444444 46.500000
11.476191 -7.979131 1.445417 1.000000
11.514297 -7.952082 1.447062 5.000000
19.393312 -7.953855 1.433391 45.500000
11.824617 -7.841390 1.467223 7.000000
19.321499 -7.818163 1.425341 46.000000
19.245037 -7.681956 1.417018 46.000000
19.219898 -7.497305 1.410786 48.000000
11.808988 -7.410636 1.441713 3.000000
19.395061 -7.390697 1.419337 48.500000
19.553253 -7.310616 1.427524 48.500000
19.669876 -7.248800 1.433528 49.000000
19.788204 -7.186633 1.439668 48.000000
19.947634 -7.102979 1.447991 48.500000
11.965049 -6.596891 1.412912 0.000000
11.922890 -6.524887 1.405506 1.000000
10.411951 -6.375400 1.478508 8.000000
10.585891 -6.368190 1.496061 11.000000
12.153895 -6.163356 1.409209 1.000000
12.927750 -6.102640 1.478332 5.000000
12.592357 -5.992764 1.442125 2.000000
12.444326 -5.970334 1.427313 13.000000
12.745712 -5.919065 1.453234 1.000000
-16.614044 -3.967220 1.466773 4.000000
-16.388826 -3.480559 1.438710 33.000000
-16.360918 -3.260327 1.432550 13.000000
-16.560192 -3.165015 1.447779 19.500000
-13.536027 -3.097675 1.435953 26.000000
-13.530168 -3.051636 1.434307 14.000000
-13.739900 -2.940622 1.453028 60.000000
-13.546310 -2.788053 1.430193 39.000000
-16.179382 -2.751060 1.409279 14.000000
-13.637644 -2.717710 1.438010 55.666668
9.775644 -2.688989 1.407767 117.000000
-16.377733 -2.626219 1.424337 11.000000
-13.585688 -2.589048 1.430193 36.000000
-13.921462 -2.502361 1.462697 27.000000
-13.545431 -2.566784 1.425667 44.000000
9.172525 -2.569384 1.493048 6.000000
-14.107944 -2.414051 1.480115 30.333334
-13.929255 -2.458610 1.462697 32.000000
-14.218678 -2.371739 1.490676 35.000000
-14.199818 -2.277107 1.487178 40.000000
-14.135085 -2.266603 1.480390 43.000000
-17.353806 -2.143056 1.501509 13.000000
-13.978699 -2.106632 1.461874 52.000000
-13.848939 -2.087039 1.448297 43.000000
8.870448 -2.064224 1.427495 25.000000
-13.773396 -1.943066 1.438422 50.000000
10.307212 -1.914051 1.455628 9.000000
-14.389982 -1.811349 1.499830 30.500000
-13.600046 -1.831548 1.419084 93.000000
10.165063 -1.854637 1.434723 3.000000
-13.447940 -1.768070 1.402626 1.000000
-14.335630 -1.656115 1.492321 44.000000
-14.244788 -1.645662 1.482858 46.000000
10.341546 -1.619443 1.453428 54.000000
10.521494 -1.647484 1.478733 57.750000
-14.364441 -1.522483 1.493762 38.500000
10.356350 -1.521905 1.453428 54.000000
10.506556 -1.493518 1.473507 49.500000
-16.521084 -1.384414 1.423653 38.000000
-14.384677 -1.296449 1.493556 41.000000
-14.205907 -1.370331 1.475864 51.000000
-14.440208 -1.255736 1.498905 24.000000
-14.082950 -1.135560 1.461052 71.000000
-13.606453 -1.054128 1.411266 47.000000
10.201025 -1.075772 1.424271 51.000000
-13.667879 -0.950961 1.416821 35.000000
9.414373 -0.933042 1.482828 82.000000
-14.046188 -0.800090 1.454880 41.000000
-13.549849 -0.835867 1.403860 51.000000
10.116860 -0.874436 1.409968 73.000000
10.238007 -0.852512 1.426471 70.000000
-14.351798 -0.749637 1.486150 36.000000
10.287633 -0.759070 1.432340 44.333332
-16.510227 -0.654460 1.418862 8.000000
9.547361 -0.674314 1.500171 1.000000
11.730549 -0.678434 1.422965 9.000000
14.496354 -0.427710 1.499728 36.000000
10.146150 -0.301131 1.409418 0.000000
10.202496 -0.356298 1.417486 50.333332
14.498191 -0.359398 1.499728 25.000000
14.503719 -0.291148 1.500139 13.000000
-14.368696 -0.275868 1.486150 66.000000
-14.386574 -0.140584 1.487796 74.500000
10.585817 -0.114554 1.469931 4.000000
10.219749 -0.062452 1.419045 0.000000
-16.531149 0.020196 1.419546 41.000000
-16.391520 0.071526 1.407568 9.000000
-14.374454 0.153182 1.486561 49.000000
-14.290977 0.152153 1.477921 46.000000
14.322845 0.139975 1.481212 4.750000
-17.274778 0.238204 1.483542 14.000000
-14.099882 0.283147 1.458377 54.000000
-13.970671 0.280450 1.445005 31.000000
10.348940 0.278227 1.437474 3.000000
-14.207276 0.374510 1.469692 53.000000
-13.889114 0.453477 1.437050 39.333332
14.102632 0.455355 1.459131 7.000000
-14.054345 0.547284 1.454468 20.000000
10.553427 0.566027 1.467456 1.500000
-14.168829 0.663216 1.466812 21.000000
10.611815 0.686235 1.476533 103.000000
13.565281 0.623114 1.404272 3.000000
10.453517 0.763990 1.455353 6.666667
-13.820314 0.908233 1.432250 49.500000
10.142858 0.960603 1.414644 19.000000
-13.811251 1.025274 1.432168 24.000000
10.500874 1.077668 1.465714 50.666668
10.456525 1.189561 1.461267 53.750000
10.508873 1.279158 1.469931 43.000000
-16.353359 1.333002 1.408937 5.000000
-14.341566 1.373357 1.489853 67.000000
-13.984789 1.383540 1.453234 32.000000
-14.316115 1.507209 1.488618 77.000000
-13.915750 1.509279 1.447474 58.000000
11.513048 1.624201 1.408057 16.000000
-4.138284 3.373357 1.426890 5.000000
-4.090501 3.373148 1.416975 7.000000
-4.434121 3.428216 1.497945 8.200000
-4.365127 3.474565 1.491077 5.500000
6.804786 3.754920 1.498220 46.200001
-3.109398 4.679951 1.501663 36.833332
-2.978389 4.692928 1.485526 75.750000
-2.845064 4.708724 1.470336 86.500000
-2.741850 4.720280 1.458932 88.125000
-2.637038 4.726095 1.446410 88.500000
-2.516830 4.753408 1.437528 76.099998
-2.942289 4.861369 1.410800 39.750000
-2.823957 4.914726 1.407306 45.750000
19.957083 8.422021 1.481285 36.000000
19.879948 8.536986 1.479511 29.500000
19.815300 8.694157 1.479738 34.666668
19.694931 8.863650 1.476918 43.000000
19.759121 8.817998 1.479647 20.000000
19.649685 8.992147 1.477737 32.000000
19.542439 9.166827 1.476100 48.000000
19.610941 9.123906 1.479102 34.000000
19.518833 9.268206 1.477601 21.000000
19.447981 9.347143 1.475554 51.000000
19.412680 9.443013 1.476236 42.000000
19.358311 9.567493 1.476645 27.000000
19.288055 9.646111 1.474735 50.000000
19.254835 9.743172 1.475690 28.000000
19.194992 9.864908 1.475827 41.500000
19.119999 9.940521 1.473644 47.000000
19.104698 10.047238 1.476100 20.500000
19.030081 10.148348 1.474826 36.666668
18.780317 10.681716 1.477464 25.000000
18.715506 10.722810 1.475008 42.000000
18.687178 10.823891 1.476782 24.000000
18.608475 10.935037 1.475963 39.500000
18.561924 11.025647 1.476373 22.000000
18.525118 11.122255 1.477601 43.500000
18.449764 11.235304 1.477191 31.000000
18.434032 11.345127 1.480193 21.000000
18.358294 11.418190 1.478419 39.500000
18.282833 11.531153 1.478147 28.000000
18.263653 11.639710 1.481012 43.000000
18.195141 11.717010 1.479920 29.000000
18.099253 11.857360 1.479647 41.000000
18.166521 11.820028 1.482103 21.000000
18.108551 11.944925 1.483468 34.000000
18.030449 12.015736 1.481694 27.000000
11.945168 12.142767 1.462666 22.000000
17.943808 12.162578 1.482376 42.000000
18.005102 12.121746 1.484287 22.000000
11.835732 12.260541 1.463351 15.000000
12.329942 12.299850 1.495520 5.000000
17.893303 12.293098 1.484560 26.000000
11.667581 12.316572 1.456848 7.000000
11.878321 12.421318 1.475842 19.500000
17.786497 12.468123 1.485378 33.000000
17.848505 12.428147 1.487288 42.000000
11.602964 12.600471 1.470880 29.500000
17.732693 12.597310 1.487471 25.000000
10.399536 12.701228 1.409621 17.000000
10.632656 12.658040 1.419546 26.000000
11.610620 12.728630 1.479435 5.000000
17.656975 12.753344 1.489472 26.500000
11.615959 12.855631 1.487820 10.500000
17.569077 12.901075 1.490563 27.000000
9.853107 13.089769 1.406884 0.000000
10.257742 13.105721 1.429128 23.000000
17.462749 13.078072 1.491928 21.000000
17.526161 13.039822 1.493838 24.000000
9.722204 13.172432 1.405857 16.000000
10.218966 13.141028 1.429470 6.000000
17.406656 13.207609 1.494202 29.333334
10.036373 13.217652 1.425135 13.333333
10.609499 13.295050 1.460613 49.000000
17.329823 13.365046 1.496567 19.000000
9.238895 13.513369 1.405686 19.000000
10.629478 13.449644 1.472077 68.500000
17.262777 13.487211 1.498068 31.000000
8.951235 13.684111 1.404146 18.500000
17.173460 13.636010 1.499569 21.000000
8.862952 13.736808 1.403804 2.000000
8.970903 13.714202 1.407226 7.000000
9.328171 13.782831 1.429128 51.000000
9.559780 13.749600 1.438026 22.000000
10.119095 13.800704 1.469511 5.000000
10.700924 13.760798 1.496889 7.000000
9.997139 13.815580 1.464377 18.000000
10.101500 13.867861 1.473275 4.000000
10.063028 14.045578 1.483713 15.000000
9.491599 14.119664 1.460955 2.000000
9.509967 14.291943 1.474131 14.000000
13.365417 -28.249233 1.592427 40.000000
13.643262 -28.147175 1.593852 9.000000
13.765128 -27.949802 1.587541 6.000000
-14.455986 -27.864611 1.599551 43.000000
-14.723576 -27.737719 1.600162 43.000000
-14.504583 -27.744717 1.595277 43.000000
-14.580504 -27.677805 1.594055 43.000000
13.833223 -27.648405 1.575328 39.000000
13.650376 -27.498505 1.564336 41.000000
15.087713 -27.308809 1.589781 46.000000
15.227833 -27.359013 1.595480 18.000000
14.158883 -27.222153 1.563522 4.000000
14.194259 -27.082006 1.558026 13.000000
14.271808 -27.023149 1.557212 35.000000
15.364488 -27.002483 1.583063 48.000000
14.420619 -26.962116 1.558026 34.000000
15.238321 -26.977575 1.578789 42.000000
15.419447 -26.902092 1.580010 21.000000
15.910556 -26.967697 1.595480 20.000000
14.487885 -26.817146 1.553140 36.000000
15.726817 -26.848644 1.585506 9.000000
16.304146 -26.857836 1.600976 39.000000
14.572056 -26.771502 1.553140 20.000000
15.817657 -26.618797 1.577771 32.000000
15.938131 -26.630676 1.581435 20.000000
-15.149352 -26.495134 1.555176 44.000000
16.250917 -26.581533 1.587541 41.000000
-15.200616 -26.392023 1.551919 44.000000
16.350796 -26.463833 1.585099 33.000000
16.439363 -26.328922 1.581638 5.000000
16.534752 -26.297441 1.582860 2.000000
16.887613 -26.305161 1.592834 37.000000
17.039572 -26.359331 1.599348 50.000000
-15.278521 -26.240690 1.547237 44.000000
16.640793 -26.282490 1.585099 3.000000
17.107037 -26.282236 1.597923 36.000000
-15.351411 -26.082340 1.542148 45.000000
-15.430182 -25.935883 1.537772 45.500000
-15.505967 -25.785864 1.533192 44.000000
-15.553783 -25.682354 1.529935 45.000000
-15.631830 -25.538914 1.525762 44.500000
-15.727726 -25.336672 1.519553 46.500000
-15.804544 -25.194605 1.515482 45.000000
-15.875986 -25.045610 1.511004 45.500000
-15.950800 -24.903246 1.506933 43.000000
-16.020168 -24.754017 1.502455 45.000000
-5.284416 -12.101356 1.599133 4.666667
-5.348683 -12.058607 1.597530 8.500000
13.122816 -7.894337 1.583663 1.000000
