# This PCD file was generated using the MATLAB® pcwrite function
# from Computer Vision Toolbox®.
# .PCD v.7 - Point Cloud Data file format
VERSION .7
FIELDS x y z intensity
SIZE 4 4 4 4
TYPE F F F F
COUNT 1 1 1 1
WIDTH 1212
HEIGHT 1
VIEWPOINT 0 0 0 1 0 0 0
POINTS 1212
DATA ascii
-12.432137 -10.020745 1.371178 34.666668
12.353582 -10.050229 1.367528 44.000000
12.534562 -10.067243 1.380532 37.000000
-12.476089 -9.906206 1.367984 51.333332
12.369599 -9.998842 1.365817 44.000000
12.573611 -9.947900 1.376768 38.666668
12.744770 -9.942920 1.388061 32.500000
12.892001 -9.895956 1.395590 41.000000
-12.542700 -9.767773 1.365132 63.333332
16.605785 -9.707526 1.315363 6.000000
-12.614147 -9.633800 1.362965 67.666664
16.608589 -9.639283 1.313180 34.000000
16.559259 -9.541238 1.306904 1.000000
-12.697977 -9.478610 1.360683 67.000000
12.690752 -9.428421 1.357603 45.000000
-12.770733 -9.346786 1.358972 74.500000
12.311419 -9.388978 1.329541 8.000000
13.181060 -9.349988 1.387719 26.000000
-12.804983 -9.279481 1.357946 78.000000
12.239204 -9.273237 1.318590 102.000000
13.138695 -9.258033 1.380190 27.000000
13.414978 -9.202627 1.396959 34.200001
-12.859526 -9.165868 1.356063 75.250000
12.112255 -9.117302 1.301821 57.000000
12.281268 -9.184221 1.316879 87.000000
12.630651 -9.139708 1.338781 23.000000
12.820804 -9.155122 1.352812 51.000000
17.058388 -9.127472 1.323004 5.000000
-12.927448 -9.031734 1.354181 76.000000
12.277292 -9.002082 1.307296 15.000000
12.597817 -9.055784 1.332279 43.000000
13.478013 -9.060264 1.394564 1.000000
17.104601 -9.083194 1.324369 22.000000
-12.963324 -8.966196 1.353497 73.000000
12.188026 -8.995642 1.300794 32.000000
13.423549 -8.962551 1.386008 25.000000
13.535477 -8.945271 1.393195 2.500000
-13.011671 -8.879313 1.352698 77.000000
-13.068906 -8.768712 1.351443 76.000000
-13.117101 -8.682019 1.350759 75.500000
13.526103 -8.696936 1.380875 26.000000
-13.170377 -8.569302 1.349276 73.666664
-13.231705 -8.462036 1.348706 74.000000
-13.277872 -8.374479 1.348021 74.000000
-13.336432 -8.265722 1.347337 76.000000
-13.416309 -8.112411 1.346310 73.000000
-13.384751 -8.179706 1.346994 77.000000
12.980476 -8.117407 1.314654 7.500000
13.564469 -8.160024 1.359314 10.000000
12.995600 -8.013733 1.311061 22.500000
-13.486094 -7.982025 1.345711 80.750000
13.029840 -7.950327 1.310719 9.000000
13.499968 -7.948915 1.345283 46.000000
-13.551405 -7.834951 1.344171 76.500000
13.124717 -7.839436 1.312772 5.000000
13.501259 -7.835999 1.340492 36.500000
13.771756 -7.877587 1.362394 79.000000
-13.643595 -7.675233 1.344257 77.000000
-13.732042 -7.499392 1.343572 80.000000
-13.696565 -7.564031 1.343572 79.000000
17.533157 -7.503875 1.304175 24.666666
13.631115 -7.459725 1.334332 52.000000
-13.802920 -7.370074 1.343658 75.500000
13.314448 -7.340878 1.305585 16.000000
-13.882282 -7.217413 1.343572 81.000000
14.121731 -7.161264 1.359657 43.000000
-13.947320 -7.085053 1.343344 77.666664
-14.038823 -6.910995 1.343686 80.666664
-13.993978 -6.998502 1.343572 81.000000
13.770352 -6.928776 1.323723 59.000000
13.917180 -6.893419 1.333648 49.000000
-14.110516 -6.781831 1.344371 77.000000
13.663549 -6.767802 1.309350 39.500000
13.852750 -6.753445 1.323381 51.000000
-14.192019 -6.629896 1.345112 78.250000
13.762677 -6.656101 1.312772 53.000000
14.156975 -6.601509 1.341348 41.500000
13.947331 -6.583941 1.324408 53.000000
-14.300760 -6.436023 1.346652 73.000000
-14.259379 -6.498366 1.345625 75.000000
13.990665 -6.443862 1.322696 46.000000
14.690084 -6.433211 1.377110 42.000000
-14.357168 -6.326264 1.347251 73.500000
13.883963 -6.341924 1.310719 35.000000
14.166146 -6.336844 1.332621 36.000000
14.443775 -6.379500 1.355892 32.000000
14.673666 -6.371158 1.373688 52.000000
13.903817 -6.298275 1.310719 41.000000
-14.443565 -6.162186 1.348449 78.000000
-14.519496 -6.020098 1.349732 76.250000
13.980091 -5.991776 1.306099 43.500000
-14.618046 -5.820183 1.351101 79.000000
-14.584896 -5.886755 1.350588 79.000000
-14.669130 -5.733994 1.352470 74.666664
-14.723047 -5.622180 1.353326 74.500000
14.097013 -5.652678 1.304216 38.000000
15.052608 -5.601007 1.379164 21.000000
15.201014 -5.601922 1.391141 54.000000
18.213879 -5.627687 1.303629 13.000000
-14.774878 -5.535848 1.354866 74.500000
-14.834090 -5.425552 1.356349 78.000000
18.949385 -5.465877 1.348657 0.000000
-14.881683 -5.337211 1.357603 80.000000
18.709328 -5.333023 1.330373 29.000000
-14.928671 -5.248403 1.358858 81.333336
14.193527 -5.281346 1.300452 11.000000
18.476311 -5.203897 1.312634 46.000000
-15.000100 -5.115204 1.360911 81.666664
18.739521 -5.151168 1.329008 14.000000
-15.044589 -5.025093 1.362052 84.000000
18.667030 -5.068222 1.322732 41.000000
-15.079444 -4.957861 1.363079 84.500000
-15.152019 -4.823930 1.365474 75.500000
14.420223 -4.729916 1.303190 45.000000
-15.234664 -4.666411 1.368212 78.000000
15.105223 -4.667181 1.357603 44.000000
-15.308537 -4.531675 1.370950 78.000000
-15.393822 -4.373386 1.374201 81.000000
14.541374 -4.343263 1.303190 69.000000
15.140728 -4.367285 1.353154 65.000000
-15.474984 -4.213141 1.377224 82.000000
15.039394 -4.286922 1.342888 43.000000
15.195425 -4.238569 1.354660 37.599998
15.145922 -4.112218 1.347679 15.000000
-15.548702 -4.076199 1.380304 82.666664
15.093327 -4.047068 1.341861 20.000000
-15.623782 -3.938900 1.383612 83.333336
15.257264 -3.988441 1.354181 12.000000
15.441050 -3.881388 1.367186 12.000000
15.596288 -3.868359 1.379848 33.000000
15.654818 -3.830709 1.383955 25.000000
-15.706793 -3.776624 1.387206 82.750000
15.709389 -3.791795 1.387719 10.000000
-15.778656 -3.636968 1.390457 81.000000
15.486609 -3.660847 1.366501 20.500000
-15.811185 -3.566104 1.391826 71.000000
15.577276 -3.579091 1.372490 20.500000
-15.869567 -3.474614 1.395020 76.000000
15.644186 -3.491138 1.376426 10.000000
-15.924345 -3.355774 1.397472 81.000000
-15.965371 -3.285935 1.399697 86.000000
-18.918655 2.262639 1.302947 65.500000
-18.987209 2.391946 1.308677 69.000000
-19.058842 2.522715 1.314681 69.500000
-19.123650 2.653658 1.320276 70.000000
-19.215357 2.820437 1.328099 70.333336
-19.302425 2.988215 1.335694 58.000000
-19.367973 3.123089 1.341562 71.500000
-19.440460 3.260229 1.347975 69.000000
-19.510017 3.398063 1.354251 76.500000
-19.606340 3.573787 1.362847 67.333336
-19.712959 3.785414 1.372672 69.000000
-19.685539 3.716067 1.369943 62.000000
-19.773182 3.893719 1.378130 58.000000
-19.821146 4.000243 1.382769 63.000000
-19.867119 4.074525 1.386862 63.000000
-19.921871 4.183716 1.392047 69.000000
-19.976095 4.293448 1.397233 67.000000
-6.212784 9.483285 1.372952 0.000000
-6.180792 9.499430 1.372471 8.000000
-6.133794 9.525105 1.371990 10.000000
10.526885 15.874273 1.302537 2.000000
-19.779669 18.150150 1.367903 32.000000
-19.401724 18.605591 1.369735 35.000000
-19.357555 18.680319 1.370753 29.000000
-19.630711 18.707140 1.381745 38.000000
-19.536644 18.972029 1.387648 9.000000
-19.422272 19.219948 1.392330 36.000000
-18.314001 19.298939 1.355690 8.000000
-19.377323 19.417940 1.397826 14.000000
-18.328968 19.559368 1.365868 40.000000
-16.858273 19.654995 1.319457 16.000000
-16.796446 19.707857 1.319457 10.000000
-18.176050 19.891367 1.372992 7.000000
-16.713438 19.861910 1.322714 4.000000
-18.053387 20.008146 1.373196 13.000000
-17.958443 20.029068 1.370753 13.000000
-17.884794 20.073460 1.369939 28.000000
-17.842831 20.153473 1.371567 17.000000
-15.580857 20.527031 1.313147 15.000000
-16.106464 20.944906 1.346326 4.000000
-14.903294 21.395195 1.328617 2.000000
-14.939740 21.884428 1.350194 34.000000
-14.848498 21.898188 1.348158 38.000000
13.167307 21.896761 1.301951 42.000000
-14.795243 21.967926 1.349583 13.000000
12.847388 22.065147 1.301035 46.500000
13.002904 22.092182 1.306226 5.000000
12.746265 22.130667 1.301340 26.000000
13.235662 22.167826 1.315589 4.000000
12.537125 22.249813 1.301340 13.000000
-15.672289 22.349117 1.390905 6.000000
-15.540156 22.611057 1.398030 4.000000
5.870681 25.388277 1.327803 52.000000
5.954972 25.389154 1.328820 34.000000
5.800658 25.449438 1.330042 12.000000
15.973772 35.576466 1.309370 1.000000
15.769217 36.025734 1.320377 19.000000
15.698934 36.174114 1.324001 17.000000
15.624712 36.315063 1.327356 17.000000
15.545053 36.444866 1.330309 12.000000
15.464733 36.574532 1.333262 10.000000
15.386845 36.711422 1.336484 11.000000
15.308246 36.848183 1.339705 15.000000
15.230461 36.988510 1.343061 20.000000
15.154968 37.136116 1.346685 15.000000
15.078696 37.283607 1.350309 30.000000
15.007596 37.445831 1.354470 23.000000
14.928246 37.589394 1.357960 22.000000
14.852535 37.743988 1.361852 17.000000
14.765834 37.872406 1.364805 15.000000
14.688556 38.026756 1.368698 11.000000
14.558195 38.224419 1.373328 11.500000
14.433504 38.440453 1.378630 13.000000
14.348901 38.583031 1.382120 15.000000
14.274595 38.755463 1.386684 3.000000
-17.358906 -39.999096 1.463998 58.000000
16.343271 -39.928379 1.448562 10.000000
-17.436390 -39.834496 1.459971 59.000000
17.614426 -39.786694 1.460911 36.000000
-17.516243 -39.677116 1.456213 57.000000
15.806448 -39.679535 1.434066 3.000000
-17.600157 -39.530590 1.452857 64.000000
16.032911 -39.523865 1.432052 16.000000
16.326704 -39.533203 1.436079 16.000000
17.365612 -39.559971 1.450575 40.000000
17.667622 -39.570541 1.455005 25.000000
15.856474 -39.444218 1.427354 10.000000
-17.680038 -39.376637 1.449233 65.000000
16.848928 -39.387402 1.438361 24.000000
17.698286 -39.307068 1.447354 29.000000
-17.757488 -39.218925 1.445475 58.000000
17.841518 -39.294952 1.448965 3.000000
16.894966 -39.154415 1.431784 56.000000
17.049801 -39.174458 1.434468 24.000000
-17.839102 -39.072029 1.442119 62.000000
-17.918299 -38.921375 1.438629 64.000000
-17.998407 -38.774239 1.435274 65.000000
-18.076063 -38.623363 1.431784 63.000000
-18.154667 -38.475998 1.428428 65.000000
-18.229088 -38.321301 1.424804 62.000000
-18.311359 -38.184536 1.421851 65.000000
-18.385994 -38.033241 1.418361 73.000000
-18.461597 -37.885452 1.415006 76.000000
-18.539991 -37.744732 1.411918 67.000000
-18.614136 -37.596737 1.408563 77.000000
-18.724762 -37.376339 1.403596 77.500000
9.821617 -26.409561 1.435756 28.666666
10.543707 -26.468273 1.451769 6.000000
10.631279 -26.446136 1.452380 3.000000
9.343831 -26.386086 1.426324 30.333334
9.462358 -26.369312 1.427546 36.000000
9.611820 -26.393829 1.431311 11.000000
10.263964 -26.003345 1.424492 8.000000
10.148760 -25.949890 1.419811 12.000000
12.926976 -25.837093 1.472125 47.000000
13.199210 -25.705038 1.472396 20.666666
9.945946 -25.668749 1.402712 4.000000
14.377849 -25.641989 1.497976 17.000000
12.989512 -25.559490 1.460929 35.000000
14.235050 -25.575335 1.491463 9.000000
14.452435 -25.586262 1.497366 10.000000
11.670693 -25.491005 1.428563 39.000000
11.863953 -25.419235 1.429378 9.666667
11.680396 -25.301880 1.420014 38.000000
12.071369 -25.308151 1.428767 8.000000
12.797636 -25.379017 1.448308 39.000000
11.952506 -25.262896 1.424085 28.000000
15.699306 -24.286011 1.473550 26.000000
15.766804 -24.223181 1.472735 35.000000
15.866915 -24.210281 1.474974 8.000000
14.994573 -24.183767 1.449937 1.000000
15.294485 -24.156132 1.456858 5.000000
15.044157 -23.926748 1.440166 2.000000
15.359635 -23.925089 1.448716 13.000000
15.692069 -23.780205 1.451769 4.000000
15.720277 -23.660915 1.447494 3.000000
8.179047 -19.639238 1.454814 61.000000
8.267461 -19.619480 1.455905 49.333332
-13.392378 -17.333965 1.497931 53.000000
-13.444427 -17.232895 1.494657 54.500000
-13.512840 -17.097992 1.490290 50.000000
-13.583843 -16.967575 1.486333 54.000000
-13.649967 -16.832298 1.481967 52.500000
-13.737267 -16.670675 1.477191 55.333332
-13.821716 -16.507204 1.472279 52.500000
-13.891611 -16.380465 1.468732 54.000000
-13.957861 -16.250471 1.464911 52.000000
-14.005554 -16.151360 1.461909 51.000000
-14.059134 -16.059654 1.459589 51.000000
-14.125346 -15.932180 1.456042 57.500000
-14.212149 -15.778733 1.452176 56.666668
-14.275239 -15.649828 1.448537 54.000000
-14.310839 -15.590206 1.447173 54.000000
-14.373110 -15.461963 1.443625 57.000000
-14.439969 -15.339404 1.440623 59.000000
-14.468874 -15.273686 1.438713 51.000000
-14.518593 -15.182255 1.436530 53.500000
-14.562293 -15.084963 1.433801 58.000000
-14.616474 -14.999020 1.432163 58.500000
-14.678198 -14.874214 1.429025 54.000000
-15.913046 -14.720174 1.482376 9.000000
-14.729846 -14.786512 1.427251 54.000000
-14.773867 -14.691601 1.424795 54.500000
-14.841684 -14.574717 1.422475 57.500000
-14.883053 -14.478190 1.419883 60.000000
-15.416182 -14.395968 1.442397 31.500000
-15.187034 -14.316541 1.427251 29.000000
-14.932402 -14.389894 1.418109 56.000000
-14.995064 -14.269646 1.415517 56.000000
16.960800 -13.710093 1.491382 2.000000
16.840736 -13.438972 1.473371 21.000000
16.677092 -13.394351 1.462728 35.000000
16.699137 -13.155088 1.453722 15.000000
17.212072 -11.570394 1.418246 4.000000
17.554525 -11.326133 1.428616 12.000000
13.731113 -10.471670 1.482857 25.000000
13.027996 -10.065550 1.413728 42.000000
13.733212 -10.069606 1.462324 13.000000
13.648809 -9.941943 1.450004 13.000000
14.124360 -9.886311 1.480462 25.000000
14.175747 -9.561682 1.468313 41.000000
14.235487 -9.440137 1.466773 34.000000
13.399480 -9.316350 1.401408 42.000000
14.472290 -9.050367 1.465746 29.500000
14.587976 -8.901045 1.467457 20.000000
14.393187 -8.875574 1.452057 8.500000
14.343184 -8.689962 1.440079 37.000000
14.791368 -8.276782 1.455479 20.000000
14.194977 -8.060593 1.401750 38.000000
14.286194 -8.053141 1.408252 33.000000
14.799978 -7.681412 1.431866 12.000000
14.891354 -7.669553 1.438368 12.000000
12.622764 -7.132826 1.499316 57.000000
12.644485 -6.971496 1.493145 1.000000
15.560975 -5.845886 1.427417 5.000000
15.794374 -5.708131 1.442133 44.000000
15.454395 -5.640218 1.412701 21.000000
15.908813 -5.636732 1.449319 47.000000
16.167126 -5.671151 1.471222 50.000000
16.223629 -5.519815 1.471564 90.000000
15.833757 -5.304048 1.433919 22.500000
15.924014 -4.865421 1.429813 7.000000
-16.013016 -3.190969 1.402092 80.000000
-16.074800 -3.072239 1.405344 82.500000
-16.127098 -2.977323 1.408252 77.500000
-16.191818 -2.857932 1.411903 75.666664
-16.238316 -2.761081 1.414412 74.000000
-16.276688 -2.688731 1.416637 69.000000
-16.339922 -2.567499 1.420344 66.333336
-16.389935 -2.469968 1.423310 61.000000
-16.434895 -2.397577 1.426219 65.500000
-16.501221 -2.275020 1.430383 66.333336
-16.569996 -2.138791 1.434689 61.500000
-16.655939 -1.977202 1.440307 64.666664
-16.734583 -1.826772 1.445555 63.333332
-16.793352 -1.726538 1.449662 67.000000
-16.829044 -1.650091 1.452057 63.500000
-16.894379 -1.522590 1.456620 71.666664
-17.006269 -1.317520 1.464720 68.000000
-16.964104 -1.394679 1.461639 67.500000
-17.059212 -1.213787 1.468598 73.666664
-17.149940 -1.044381 1.475414 66.250000
-17.219606 -0.926529 1.480804 73.000000
-17.276840 -0.820774 1.485253 62.500000
-17.312389 -0.740736 1.487991 60.000000
-17.371077 -0.633874 1.492668 53.333332
-17.435852 -0.526623 1.497915 53.000000
6.893988 4.308022 1.420284 43.307693
6.877232 4.421887 1.428439 20.666666
9.306289 18.788548 1.433801 5.000000
9.254506 18.982958 1.444171 6.000000
9.440133 18.909176 1.445262 0.000000
8.696610 19.038923 1.431345 3.000000
9.702180 19.282255 1.476100 1.000000
9.888520 19.348839 1.485924 5.000000
9.356005 19.501278 1.479102 15.000000
-19.501869 19.665941 1.411261 26.000000
9.519735 19.683750 1.495203 4.000000
-19.580194 19.869377 1.421439 35.000000
-19.604317 20.019278 1.427749 37.000000
-19.141283 20.298037 1.421643 9.000000
-17.996885 21.251261 1.418996 3.000000
-18.195719 21.349672 1.429378 12.000000
-18.924641 21.924417 1.475789 2.000000
-18.349871 21.946211 1.457672 17.000000
-18.706808 22.230789 1.480471 26.000000
-17.039675 22.448954 1.436095 2.000000
-15.281446 22.844397 1.400473 1.000000
10.278874 -29.516909 1.592630 19.000000
11.413172 -29.182930 1.596702 20.000000
12.416224 -28.774845 1.596905 17.000000
8.885109 -28.667728 1.529324 1.000000
8.965572 -28.609179 1.527696 8.000000
10.382203 -28.649277 1.552733 29.000000
10.502360 -28.699051 1.557212 11.000000
9.718709 -28.193213 1.519553 18.000000
11.436606 -28.193190 1.550291 40.000000
14.598001 -27.225157 1.574107 2.000000
12.133515 -27.175688 1.516500 6.000000
15.338521 -27.154966 1.589170 14.000000
11.680271 -27.069260 1.502251 15.000000
14.596117 -27.017485 1.564743 42.000000
12.193151 -26.967102 1.508052 34.500000
13.138860 -26.890995 1.525049 37.000000
13.221512 -26.846003 1.524846 33.000000
14.068152 -26.841404 1.544184 1.000000
12.951515 -26.720045 1.513040 35.000000
13.282695 -26.757816 1.522200 17.000000
13.781968 -26.702072 1.531156 1.000000
13.915559 -26.754333 1.536652 3.000000
14.694509 -26.795645 1.557212 13.000000
14.732107 -25.702900 1.509579 16.000000
17.728174 -25.794647 1.594870 4.000000
14.597942 -25.655310 1.504083 26.000000
17.446590 -25.556578 1.576753 4.000000
17.005047 -25.421034 1.558433 4.000000
17.143681 -25.368696 1.560163 6.500000
17.627308 -25.305788 1.571460 2.000000
17.372698 -25.108089 1.555787 31.000000
18.499552 -25.018974 1.585506 5.000000
18.282732 -24.403496 1.553751 17.000000
18.354500 -24.339560 1.553344 49.000000
18.430874 -24.281775 1.553344 36.000000
18.859753 -24.208977 1.563725 1.000000
18.041414 -23.614275 1.514261 1.000000
19.679794 -23.687593 1.569221 65.000000
19.774616 -23.650167 1.570850 40.000000
18.185467 -23.571621 1.517009 13.500000
-5.823373 -22.468723 1.587260 6.333333
-12.516162 -19.003401 1.556059 61.000000
-12.469506 -19.062664 1.557696 0.000000
-12.574578 -18.897690 1.552238 61.500000
-12.648438 -18.752140 1.546780 62.500000
-12.726601 -18.614643 1.542004 59.000000
-12.779068 -18.503574 1.537774 55.000000
-12.816628 -18.433849 1.535318 57.000000
-12.870066 -18.325882 1.531361 54.000000
-12.925146 -18.221098 1.527677 60.000000
-12.961452 -18.151178 1.525221 58.000000
-13.015289 -18.046194 1.521537 55.000000
-13.068506 -17.941118 1.517853 54.000000
-13.123302 -17.839153 1.514442 53.000000
-13.198170 -17.706745 1.510212 53.000000
-13.247901 -17.599724 1.506391 52.000000
-13.288669 -17.538931 1.504754 54.000000
-13.338396 -17.433323 1.501070 54.000000
-17.421415 -15.516461 1.595356 19.000000
-17.509274 -15.447385 1.596720 26.500000
-17.578899 -15.313480 1.594264 26.500000
-17.149704 -15.371349 1.574888 9.000000
-16.890932 -15.235378 1.555513 11.000000
-17.644520 -15.176699 1.591535 28.000000
-16.636145 -15.100612 1.536410 10.000000
-17.719013 -15.032152 1.588988 30.333334
-16.388262 -14.969784 1.517853 10.000000
-17.806599 -14.864386 1.586186 30.799999
-16.153120 -14.848353 1.500388 10.000000
-17.870737 -14.747218 1.584440 31.000000
-17.904633 -14.680884 1.583348 31.000000
-17.956558 -14.582493 1.581847 28.000000
13.718699 -12.124477 1.572178 35.000000
13.838710 -12.153279 1.581555 55.599998
14.163338 -12.049686 1.596818 31.000000
13.775149 -11.945038 1.565676 37.000000
13.989186 -11.977480 1.581418 12.000000
13.670708 -11.779434 1.549591 39.000000
19.488323 -11.723657 1.555240 3.000000
13.817638 -11.680945 1.553698 26.000000
14.257600 -11.377620 1.566360 6.000000
13.532743 -11.151568 1.505786 1.000000
14.163333 -10.942720 1.536929 0.000000
14.525827 -9.964670 1.512631 5.000000
15.555318 -9.932680 1.584840 7.000000
14.785790 -9.872084 1.526662 7.000000
14.861264 -9.743533 1.525978 33.666668
14.913803 -9.655588 1.525635 9.000000
15.130278 -9.561269 1.536929 22.000000
12.267470 -9.113950 1.580371 45.000000
15.370538 -9.115477 1.534533 2.000000
12.235219 -9.030474 1.572554 45.000000
12.350163 -9.055513 1.583663 42.000000
12.455166 -9.012725 1.589835 39.000000
15.014647 -9.000269 1.503220 18.000000
12.022105 -8.990413 1.552393 50.000000
12.175939 -8.869087 1.557742 60.000000
12.350298 -8.848516 1.571114 34.500000
16.005329 -8.890169 1.572178 15.000000
12.377295 -8.779838 1.569262 34.000000
12.470592 -8.758017 1.575845 58.000000
15.467794 -8.528119 1.516738 7.000000
15.873729 -8.557844 1.548564 2.000000
15.464806 -8.274790 1.506129 1.000000
12.545987 -8.038926 1.540872 18.000000
12.644784 -7.935133 1.543753 1.000000
12.548087 -7.819614 1.528940 4.000000
12.699804 -7.694304 1.535524 9.000000
13.258936 -7.639633 1.582429 53.000000
12.621864 -7.512155 1.518929 31.500000
12.848057 -7.483680 1.537581 47.000000
13.526011 -7.457522 1.597241 43.000000
12.764820 -7.301609 1.520712 43.000000
13.469096 -7.371060 1.587777 56.000000
13.079623 -7.104612 1.539227 60.000000
12.722687 -7.092988 1.506311 62.000000
13.521981 -7.018112 1.575434 41.000000
12.969577 -6.939727 1.521123 40.000000
13.136189 -6.922997 1.535524 53.000000
13.080309 -6.841126 1.526472 67.000000
13.207975 -6.750139 1.533878 52.000000
13.346951 -6.610979 1.540255 45.000000
12.945229 -6.564649 1.500962 42.000000
13.061753 -6.572234 1.512071 39.000000
13.063569 -6.470611 1.507545 44.000000
13.225566 -6.447682 1.521534 47.000000
13.206356 -6.387045 1.517008 47.000000
13.729153 -6.323414 1.563091 116.000000
13.473898 -6.154614 1.531821 45.000000
13.682287 -6.171976 1.552187 42.500000
13.778451 -6.137444 1.559799 44.000000
13.829091 -6.081969 1.562268 51.500000
13.562121 -5.837966 1.526883 2.000000
13.880692 -5.872000 1.558565 60.000000
14.018353 -5.852474 1.570908 43.000000
13.569416 -5.790647 1.525649 18.000000
16.542517 -5.744533 1.503733 48.000000
16.620787 -5.713263 1.509209 32.000000
13.879961 -5.692637 1.551364 44.000000
14.004408 -5.666679 1.562268 41.000000
14.125543 -5.664119 1.573788 54.000000
13.902925 -5.524215 1.547044 45.000000
13.797283 -5.407079 1.532438 48.500000
14.309997 -5.375923 1.580783 1.000000
13.705716 -5.296842 1.519477 30.000000
14.475894 -5.283106 1.593538 15.000000
13.623400 -5.166883 1.506722 4.000000
14.552872 -5.079241 1.593949 22.000000
14.656878 -4.935432 1.599298 44.000000
17.953571 -4.874513 1.597502 14.000000
17.829739 -4.720810 1.583814 28.000000
14.066249 -4.662848 1.532438 32.000000
14.287676 -4.488482 1.548690 23.500000
-17.473976 -0.445344 1.500995 58.500000
-17.545967 -0.309267 1.506927 65.666664
-17.620289 -0.172199 1.513144 67.500000
-17.690805 -0.033902 1.519133 69.333336
-17.780670 0.133508 1.526890 77.000000
-17.852165 0.274237 1.533164 75.500000
-17.929108 0.416320 1.540009 75.000000
-18.008976 0.559695 1.547196 81.000000
-18.057938 0.646371 1.551644 86.000000
-18.098469 0.733268 1.555409 73.500000
-18.159191 0.850036 1.561056 74.000000
-18.200779 0.937932 1.564991 79.000000
-18.251839 1.026852 1.569782 80.500000
-18.322590 1.146374 1.576456 79.500000
-18.362736 1.235744 1.580391 90.000000
-18.414322 1.326444 1.585354 76.000000
-18.465509 1.417604 1.590316 64.000000
-18.534388 1.554822 1.597160 78.000000
6.883893 4.300100 1.564650 49.307693
6.880418 4.412064 1.575600 11.000000
-6.229615 9.512598 1.578856 0.000000
-6.148219 9.518231 1.573355 8.333333
19.982826 11.448906 1.574888 21.000000
19.926903 11.541927 1.574752 23.000000
19.860868 11.670952 1.575298 21.500000
19.788860 11.796529 1.575434 19.000000
19.729658 11.887607 1.575161 18.000000
19.644424 11.962791 1.572842 250.500000
19.585955 12.082376 1.573706 196.666672
19.333914 12.579591 1.577345 1.000000
19.287622 12.635896 1.576799 255.000000
19.232830 12.729937 1.577208 255.000000
19.167381 12.860530 1.578436 255.000000
19.074524 13.016659 1.579164 255.000000
19.006657 13.146115 1.580346 255.000000
18.968538 13.208041 1.580619 255.000000
18.897064 13.335363 1.581620 255.000000
18.810703 13.496962 1.583212 248.000000
18.740051 13.625448 1.584440 230.500000
18.653811 13.788005 1.586259 213.000000
18.563599 13.948092 1.587851 205.000000
10.666751 14.078420 1.516738 2.000000
18.493053 14.077756 1.589352 197.000000
18.436033 14.172046 1.590171 181.000000
18.388048 14.258101 1.591171 113.333336
9.887571 14.510953 1.507840 2.000000
10.028376 14.520684 1.515369 6.000000
10.316289 14.640540 1.537956 1.000000
10.803172 14.929481 1.582445 2.000000
10.089688 15.009379 1.553013 4.000000
9.890509 15.435662 1.574231 3.000000
-13.874672 18.526421 1.582802 7.000000
-13.775364 18.575508 1.581438 16.500000
11.426587 19.903585 1.569430 3.000000
10.385545 20.087196 1.546371 59.500000
10.492120 20.061045 1.548145 71.000000
10.818441 20.066900 1.558969 50.666668
10.954587 20.017254 1.560425 59.000000
11.082117 20.050320 1.566611 49.333332
11.210960 20.035011 1.569976 0.000000
8.681362 20.167585 1.501479 3.000000
10.306217 20.166145 1.548690 41.000000
9.190034 20.287546 1.523038 1.000000
10.734002 20.213245 1.565064 41.000000
9.468233 20.388243 1.537229 9.000000
9.585927 20.306698 1.535591 87.000000
9.862022 20.391489 1.548963 33.000000
10.716962 20.335131 1.571887 10.000000
8.713509 20.418657 1.518126 5.000000
9.721701 20.427828 1.547053 61.000000
9.818626 20.465548 1.552238 20.000000
9.973252 20.457258 1.556331 26.000000
9.618541 20.542719 1.551146 51.000000
8.596978 21.636223 1.592081 5.000000
9.376821 -30.940390 1.647387 17.000000
9.469296 -30.895500 1.646573 37.000000
9.592745 -30.610487 1.634563 21.000000
9.702136 -30.622091 1.636802 14.000000
9.782451 -30.542000 1.634156 47.000000
9.966699 -30.457155 1.632935 15.000000
9.837748 -30.385696 1.627439 40.000000
10.089950 -30.349155 1.629678 37.000000
10.249949 -30.143635 1.622350 26.666666
10.324094 -29.949389 1.614208 17.000000
12.586583 -29.423403 1.630696 11.000000
11.679091 -29.318474 1.608101 34.000000
12.632506 -29.025066 1.612986 10.000000
12.986933 -29.087107 1.623164 17.000000
14.878126 -28.171192 1.623368 15.000000
14.987200 -28.163103 1.625607 13.000000
16.508211 -28.182631 1.664283 4.000000
16.676800 -28.064611 1.663468 3.000000
16.779247 -28.036077 1.664893 15.000000
16.511414 -27.986124 1.655733 2.000000
16.856934 -27.966118 1.663875 20.000000
16.946775 -27.916441 1.664079 5.000000
15.175566 -27.880257 1.617464 17.000000
15.907364 -27.552359 1.621128 4.000000
15.953680 -27.433182 1.617057 18.000000
18.798836 -25.760742 1.624996 22.000000
18.936432 -25.778824 1.629881 5.000000
18.584164 -25.635317 1.613393 6.000000
19.966328 -24.342037 1.604233 1.000000
12.925615 -13.540072 1.607427 7.000000
13.197892 -13.481952 1.620089 33.000000
13.236484 -13.408592 1.617922 31.333334
13.248376 -13.280786 1.610849 0.000000
14.450726 -13.016061 1.670054 23.000000
14.411368 -12.898834 1.660814 29.000000
14.962008 -12.648355 1.682374 5.000000
14.842987 -12.467994 1.664578 4.000000
14.911829 -12.366853 1.663552 42.000000
15.078661 -12.346137 1.673476 11.000000
12.728957 -10.157757 1.684056 39.000000
-12.428226 -10.017587 1.650729 49.666668
-12.471707 -9.934687 1.648878 49.500000
-12.507479 -9.867177 1.647437 70.000000
-12.550335 -9.773719 1.644969 71.000000
-12.619763 -9.638089 1.642089 78.000000
12.777239 -9.680888 1.657724 5.000000
16.586340 -9.626369 1.646783 5.000000
17.184141 -9.615702 1.690930 2.000000
-12.703406 -9.482669 1.639311 74.500000
-12.775434 -9.350212 1.637151 73.000000
-12.806488 -9.280571 1.635505 71.000000
-12.868351 -9.172172 1.634168 74.250000
-12.937180 -9.038546 1.632008 79.500000
13.057311 -9.078447 1.644557 30.000000
13.570244 -9.060495 1.687348 43.000000
-12.971466 -8.971828 1.630980 76.000000
13.656605 -8.912786 1.686388 29.333334
17.152271 -8.902287 1.659445 1.000000
-13.017675 -8.883400 1.629745 74.666664
12.800939 -8.840672 1.608761 36.000000
12.943484 -8.879188 1.623162 41.000000
13.083925 -8.885122 1.635505 8.000000
13.237924 -8.898869 1.649495 18.000000
-13.078814 -8.775356 1.628717 75.500000
13.281329 -8.747450 1.644557 3.000000
-13.120421 -8.684221 1.627071 74.000000
13.091303 -8.681381 1.624396 27.000000
-13.175406 -8.572579 1.625494 80.000000
-13.247181 -8.442654 1.624465 80.500000
-13.341563 -8.268908 1.623162 80.666664
13.350163 -8.232359 1.621928 9.000000
-13.389910 -8.182858 1.622751 82.000000
13.399014 -8.175584 1.623162 10.000000
-13.436466 -8.095812 1.622202 81.000000
-13.503039 -7.963414 1.621105 83.666664
-13.565300 -7.842982 1.620385 77.250000
-13.649776 -7.678712 1.619562 78.000000
13.483130 -7.656372 1.603413 35.000000
-13.727904 -7.525143 1.618910 81.666664
-13.806553 -7.372017 1.618533 79.500000
-13.887701 -7.220240 1.618636 81.666664
13.911830 -7.165065 1.618225 93.000000
-13.999443 -7.001236 1.618636 75.000000
-13.958682 -7.090830 1.619048 76.333336
-14.050258 -6.916615 1.619459 80.333336
14.367117 -6.892819 1.647849 30.000000
14.563627 -6.893524 1.666227 28.666666
-14.119599 -6.786192 1.620008 78.000000
14.495902 -6.731848 1.652786 40.000000
14.503508 -6.790853 1.656078 37.000000
-14.197527 -6.632479 1.620488 83.750000
-14.273955 -6.505012 1.622133 80.500000
-14.302652 -6.436874 1.621928 84.000000
14.959764 -6.495379 1.686525 23.000000
-14.361785 -6.328300 1.622956 82.000000
14.731586 -6.341374 1.658547 35.000000
14.861219 -6.341914 1.670890 17.000000
17.620842 -6.305704 1.607085 15.000000
18.209169 -6.387465 1.657050 1.000000
-14.447269 -6.163771 1.624293 80.500000
-14.525957 -6.022761 1.626145 76.000000
-14.583031 -5.912664 1.627277 82.000000
-14.616257 -5.846081 1.627894 79.500000
15.123421 -5.844741 1.676650 2.000000
-14.687329 -5.714508 1.629745 77.750000
15.116724 -5.706111 1.670890 37.000000
-14.742994 -5.603283 1.630980 81.000000
14.881604 -5.697618 1.647849 48.000000
-14.776672 -5.536520 1.631802 80.500000
15.116293 -5.570701 1.665953 47.000000
-14.840848 -5.428020 1.634134 77.666664
14.513265 -5.400319 1.601355 22.000000
-14.887184 -5.339183 1.635505 80.000000
18.027790 -5.384597 1.615640 1.000000
-14.937912 -5.251661 1.637426 81.333336
-15.003061 -5.116210 1.639208 82.666664
14.663550 -5.014758 1.602590 9.500000
-15.074539 -4.982491 1.641814 87.333336
18.011183 -4.950961 1.604005 2.000000
-15.154595 -4.824765 1.644660 83.750000
18.179935 -4.752464 1.613587 12.000000
-15.240060 -4.668055 1.648260 84.000000
-15.313898 -4.533254 1.651552 84.666664
18.177536 -4.569254 1.609480 12.000000
-15.394354 -4.373536 1.654946 81.750000
-15.464697 -4.236453 1.658135 85.500000
-15.503716 -4.168711 1.660192 80.000000
-15.546235 -4.075552 1.661975 82.666664
-15.615073 -3.962810 1.665953 81.500000
15.533952 -3.904746 1.656352 23.000000
-15.652898 -3.894002 1.668010 83.000000
-15.708057 -3.776921 1.670684 89.250000
-15.783735 -3.638145 1.675004 84.000000
-15.812365 -3.566370 1.676239 85.000000
-15.869394 -3.474568 1.679942 79.000000
-15.935158 -3.358049 1.684056 81.000000
-15.970305 -3.286951 1.686114 84.000000
-16.020515 -3.192451 1.689268 80.666664
-16.081596 -3.073534 1.693108 83.500000
-16.133848 -2.978566 1.696605 76.500000
-18.593109 1.662660 1.602978 72.000000
-18.627478 1.724743 1.606400 76.000000
-18.676634 1.818123 1.611362 76.500000
-18.740158 1.943247 1.617865 73.500000
-18.792233 2.038175 1.623169 76.000000
-18.829304 2.102062 1.626934 73.000000
-18.896128 2.229907 1.633892 72.666664
-18.979565 2.390985 1.642676 75.500000
-19.053062 2.521950 1.650376 74.500000
-19.121712 2.653396 1.657734 80.000000
-19.197348 2.786931 1.665776 72.000000
-19.249060 2.887098 1.671423 76.000000
-19.300198 2.987864 1.677070 71.000000
-19.375469 3.124295 1.685283 67.500000
-19.443892 3.260808 1.692983 60.000000
11.699759 15.241879 1.649977 1.000000
10.881037 15.339438 1.614956 18.000000
11.357560 15.388145 1.642334 15.000000
11.289588 15.447926 1.643018 6.500000
11.244712 15.642910 1.654312 29.000000
10.250006 15.777595 1.615640 15.000000
10.293297 15.953718 1.630356 4.000000
9.945686 16.015732 1.618891 6.500000
-18.623127 16.458984 1.699602 28.000000
-17.235792 16.534311 1.633288 37.000000
-16.749907 16.581205 1.611730 17.000000
-18.159664 16.669445 1.685685 43.000000
-17.200993 16.605003 1.634926 37.000000
-18.356415 16.744085 1.699057 32.000000
-17.649334 16.719347 1.662488 29.000000
-17.205994 16.714569 1.640384 1.000000
-17.104881 16.721123 1.635744 23.000000
-18.201012 16.813059 1.694417 30.000000
-18.086718 16.813105 1.688686 2.000000
-17.171755 16.892315 1.647206 48.000000
-17.793142 16.961948 1.681045 41.000000
-16.746094 16.946003 1.629195 36.500000
-16.602793 17.088602 1.629304 40.599998
-17.314075 17.247721 1.671221 31.000000
-17.211895 17.253994 1.666582 7.000000
-16.618216 17.299074 1.640384 4.000000
-16.982639 17.789951 1.681864 33.000000
-16.125135 17.990696 1.652118 47.000000
-17.099691 18.025621 1.699057 32.000000
-16.928810 18.071537 1.693326 31.000000
-15.486656 18.062210 1.627012 41.000000
-16.374020 18.153311 1.671767 9.000000
-15.855772 18.143827 1.647752 31.000000
-15.746366 18.133286 1.642294 37.000000
-16.557035 18.240658 1.684593 22.000000
-16.184301 18.248005 1.667946 29.000000
-16.015480 18.210793 1.658395 33.000000
-15.582531 18.289993 1.643113 8.000000
-15.291729 18.295198 1.630559 7.000000
-15.793597 18.303524 1.653210 28.000000
-15.469872 18.390596 1.643386 29.000000
-15.669243 18.988039 1.683501 29.000000
-15.634809 19.068035 1.686230 38.000000
-15.695822 19.265562 1.699329 20.000000
-13.884398 19.286652 1.625101 5.000000
-14.248553 19.924196 1.675042 35.000000
-14.317619 20.154306 1.690597 13.000000
-13.761271 20.302399 1.677225 29.000000
-14.060296 20.465521 1.697965 7.000000
-13.973442 20.476625 1.695236 32.000000
-13.777647 20.464708 1.687049 25.000000
10.623647 20.949411 1.606272 5.000000
10.343717 21.049023 1.603816 17.000000
9.148407 21.625715 1.605726 4.000000
8.780757 21.898018 1.613367 8.000000
8.867471 21.914719 1.616642 21.000000
8.952868 21.927391 1.619644 5.000000
9.880774 22.182161 1.660578 83.000000
9.155478 22.223862 1.643659 25.000000
9.265074 22.290802 1.650754 6.000000
9.321167 22.228462 1.648298 26.000000
10.009281 22.282061 1.670402 73.000000
7.619851 22.395975 1.617733 6.000000
10.308989 22.382471 1.685139 24.000000
7.429684 22.531223 1.622373 4.000000
9.702235 22.539165 1.678043 28.000000
10.025479 22.698608 1.696873 70.000000
7.590007 22.776579 1.641748 2.000000
8.051185 22.952042 1.663307 2.000000
8.014384 23.079008 1.670675 4.000000
11.876975 -23.199659 1.782290 2.000000
11.940653 -23.144501 1.780926 37.000000
12.033555 -23.145821 1.783928 5.000000
12.256296 -22.953995 1.779425 23.500000
12.336846 -22.845097 1.775468 24.000000
12.419995 -22.827263 1.777105 10.000000
-14.617754 -15.000330 1.798559 58.500000
-14.683722 -14.879820 1.795137 56.500000
-14.726989 -14.783644 1.791886 56.000000
-14.775262 -14.693002 1.789319 56.500000
-14.841705 -14.574738 1.786239 57.000000
-14.888824 -14.483804 1.783672 63.000000
-15.195687 -14.324698 1.793255 40.000000
-14.935358 -14.392735 1.781106 59.000000
-14.998075 -14.272503 1.777855 59.000000
14.755236 -13.501772 1.717452 17.500000
14.781817 -13.398636 1.713174 10.000000
14.856448 -13.130013 1.702565 1.000000
15.615488 -12.301421 1.707014 5.000000
17.541206 -11.162075 1.785384 6.000000
17.151691 -10.838660 1.742263 2.000000
13.056055 -10.758756 1.749477 11.000000
13.233650 -10.628721 1.755237 37.000000
13.374995 -10.604692 1.765112 42.000000
12.806567 -10.485788 1.711623 39.000000
12.789395 -10.371411 1.702777 41.000000
13.207302 -10.370772 1.736516 42.000000
13.650858 -10.387892 1.773889 39.333332
13.369484 -10.262474 1.742893 48.000000
13.133843 -10.180324 1.718412 38.500000
13.970878 -9.519572 1.748242 34.000000
14.036961 -9.500165 1.752768 20.000000
14.238616 -9.442212 1.766757 0.000000
14.364570 -9.460902 1.778689 39.000000
14.340318 -9.316270 1.768403 40.000000
14.567249 -9.205475 1.781981 35.000000
14.085091 -8.962830 1.726435 16.000000
14.309635 -8.979898 1.747008 27.000000
14.720234 -8.981744 1.783215 20.000000
14.622470 -8.859171 1.767992 11.000000
14.401161 -8.601860 1.734664 9.000000
12.206908 -7.553862 1.738431 14.000000
12.532251 -7.539069 1.771132 0.000000
12.722825 -7.545254 1.791330 14.000000
12.591717 -7.360954 1.766323 4.000000
12.731106 -7.362138 1.780991 43.000000
12.877233 -7.205692 1.787002 67.000000
12.952549 -6.956781 1.780510 49.500000
13.039580 -6.924513 1.787964 58.000000
13.065458 -6.781152 1.782674 43.333332
12.846180 -6.565238 1.747088 42.000000
12.785285 -6.483540 1.736027 33.000000
12.892008 -6.461462 1.746366 41.000000
12.973924 -6.426208 1.753339 38.000000
13.213931 -6.442010 1.780269 25.000000
13.072101 -6.288422 1.756705 32.333332
13.119592 -6.193250 1.756946 34.500000
13.234049 -6.162624 1.767926 43.000000
13.259675 -6.056762 1.765362 43.000000
13.378097 -6.026365 1.776903 30.666666
13.334306 -5.939605 1.767766 42.000000
16.016050 -5.959499 1.767169 6.000000
13.160379 -5.812652 1.742279 45.000000
13.196763 -5.779243 1.744683 0.000000
13.543555 -5.381423 1.764881 0.000000
13.748081 -5.387757 1.788204 17.000000
13.808504 -5.336566 1.792773 43.000000
13.759100 -5.119698 1.777865 0.000000
19.262178 -5.164888 1.712490 7.000000
19.147322 -5.069669 1.700854 2.000000
19.726765 -5.090669 1.749450 19.000000
15.734085 -4.915689 1.704629 4.000000
15.950928 -4.928486 1.726435 46.000000
16.050045 -4.903929 1.735487 48.000000
19.460732 -4.956862 1.724468 30.000000
15.977770 -4.827016 1.726024 48.000000
13.932232 -4.789094 1.784116 32.000000
15.939098 -4.706250 1.718618 47.000000
16.019545 -4.784768 1.728904 47.000000
16.171513 -4.719691 1.742070 48.000000
16.461512 -4.748260 1.771695 57.000000
16.184637 -4.558442 1.738779 45.000000
16.451864 -4.577971 1.765934 25.000000
16.062572 -4.388138 1.721910 14.000000
16.302130 -4.371192 1.745362 34.000000
16.438862 -4.352545 1.758528 43.000000
16.579487 -4.334086 1.772106 31.000000
-16.196547 -2.858779 1.700788 81.000000
-16.246927 -2.762545 1.704217 83.000000
-16.283298 -2.689833 1.706686 81.000000
-16.348440 -2.568821 1.711349 82.666664
-16.427029 -2.422775 1.717109 79.000000
-16.504314 -2.275447 1.722870 84.000000
-16.585539 -2.127558 1.729178 84.333336
-16.660170 -1.977721 1.734939 84.000000
-16.742672 -1.827664 1.741659 74.666664
-16.806023 -1.701153 1.746802 77.000000
-16.847534 -1.625199 1.750299 69.000000
-16.900951 -1.523191 1.754825 73.000000
-17.010050 -1.317813 1.764289 71.000000
-16.967941 -1.395007 1.760586 79.000000
-17.065567 -1.214239 1.769226 71.666664
-17.128498 -1.110651 1.774986 59.000000
-17.163307 -1.031697 1.778072 63.000000
-17.221100 -0.926612 1.783421 64.500000
-17.280235 -0.820935 1.788975 70.500000
-17.319710 -0.741049 1.792679 76.000000
-17.373007 -0.633953 1.797753 68.000000
-19.515285 3.398993 1.701025 78.000000
-19.607519 3.574002 1.711463 71.666664
-19.713947 3.785604 1.723783 78.000000
-19.682665 3.715524 1.720019 76.000000
-19.772106 3.893504 1.730457 61.500000
-19.848789 4.038325 1.739354 72.500000
-19.913456 4.149258 1.746712 78.000000
-19.967705 4.258883 1.753214 72.000000
6.966652 4.244091 1.721756 26.000000
6.877312 4.304144 1.712394 46.500000
6.872519 4.406999 1.723133 0.000000
-6.207024 9.478102 1.775801 0.000000
-6.143642 9.529984 1.777217 7.000000
10.437570 13.686396 1.779924 2.000000
9.965369 14.048585 1.781158 7.000000
-18.807577 16.308874 1.702331 1.000000
-18.752710 16.468859 1.706698 25.000000
-18.624210 16.616989 1.706834 16.000000
-18.600616 16.753954 1.711883 10.000000
-18.630684 16.887346 1.719524 6.000000
-18.736162 17.526857 1.754455 5.000000
-17.537048 17.914503 1.714339 3.000000
-17.251318 17.958115 1.702877 30.000000
-17.201750 18.247669 1.714885 25.000000
-16.953369 18.269569 1.704378 33.000000
-16.838753 18.318428 1.701513 40.000000
-16.349407 19.251286 1.727165 19.000000
-16.073017 19.353168 1.720343 10.000000
-15.873748 19.609449 1.725255 24.000000
-15.774550 19.612576 1.721161 39.000000
-15.817498 19.792967 1.732623 42.000000
-16.421757 20.156599 1.777924 13.000000
-16.025721 20.183224 1.762369 23.000000
-16.396011 20.254622 1.782017 12.000000
-14.652124 20.218813 1.707516 35.000000
-14.927670 20.329004 1.724709 24.000000
-14.877846 20.395142 1.726346 26.000000
-14.618836 20.306850 1.711064 26.000000
-15.857920 20.429077 1.768509 32.000000
-16.134926 20.585041 1.788567 7.000000
-15.736323 20.515350 1.768099 26.333334
-15.544559 20.553551 1.762232 35.000000
-15.448729 20.628210 1.762369 19.000000
-13.762953 20.793556 1.705197 24.500000
-13.648432 20.833168 1.703150 6.000000
-14.852476 21.046930 1.761550 32.000000
-15.003900 21.403923 1.787475 11.000000
13.480427 21.481312 1.734260 44.000000
-15.023233 21.575405 1.797845 13.000000
-14.855674 21.526430 1.788567 29.666666
-14.508652 21.550510 1.776559 0.000000
13.370602 21.531017 1.733169 40.000000
-14.430372 21.727671 1.783655 2.000000
13.358855 21.740009 1.744903 29.000000
13.296079 21.997883 1.757729 31.666666
13.363243 21.901102 1.754455 51.000000
12.907787 22.080183 1.748997 43.000000
13.007462 22.091106 1.753090 36.000000
12.854383 22.148239 1.751180 35.000000
12.561335 22.283684 1.749270 46.000000
12.615515 22.216349 1.747086 44.000000
12.703079 22.207783 1.749542 27.000000
12.518548 22.371790 1.753090 28.000000
10.476745 22.559902 1.700967 11.000000
9.976531 22.781168 1.700694 63.000000
9.922397 22.852663 1.703696 28.000000
5.875325 25.388174 1.782017 50.000000
5.962351 25.400673 1.784200 30.000000
5.807962 25.460976 1.785838 9.000000
19.958811 28.335394 1.766061 20.000000
19.915497 28.463419 1.770132 18.000000
19.841940 28.548807 1.771557 14.000000
19.779387 28.650452 1.774000 18.000000
19.734467 28.778343 1.778071 18.000000
19.638969 28.930496 1.781735 17.500000
19.553717 29.098999 1.786417 21.000000
19.459475 29.255659 1.790386 15.000000
19.370865 29.422131 1.794966 20.000000
19.322062 29.549709 1.799037 18.000000
9.650570 33.878590 1.794966 12.000000
9.250238 34.093567 1.800055 23.000000
-7.235094 -36.473076 1.894709 10.000000
-7.252522 -35.968498 1.869672 13.000000
-7.293314 -35.593323 1.851351 30.000000
10.140424 -25.703497 1.889539 2.000000
10.341896 -25.739256 1.896907 15.000000
10.228506 -25.690052 1.890903 21.000000
9.602551 -25.265612 1.848331 14.000000
11.592493 -25.227076 1.898544 3.500000
11.377844 -25.070686 1.882716 46.000000
12.347234 -24.884243 1.899636 21.000000
11.515987 -24.752478 1.866888 2.000000
11.089388 -24.640501 1.847785 31.000000
12.312895 -24.620466 1.882443 35.000000
10.871372 -24.567364 1.837142 1.000000
10.974522 -24.591394 1.841509 29.000000
12.366826 -24.535339 1.878896 32.000000
11.575299 -24.279020 1.839326 13.000000
12.306153 -24.037987 1.846694 23.000000
13.791854 -24.072191 1.897180 13.000000
14.044601 -23.814482 1.890630 22.000000
14.137692 -23.801123 1.893086 23.000000
11.650346 -23.666204 1.803849 4.000000
11.756567 -23.693832 1.808761 6.000000
12.937450 -23.426485 1.830047 36.000000
14.025957 -23.444946 1.868253 15.000000
17.528299 -21.514812 1.897726 13.000000
17.522425 -21.370146 1.889812 3.000000
16.883358 -20.459316 1.813946 3.000000
17.100439 -20.199856 1.809853 4.000000
17.204021 -19.938089 1.800847 1.000000
8.162282 -19.657038 1.827705 65.666664
8.267729 -19.620131 1.828276 58.333332
-13.198347 -17.706989 1.896435 48.500000
-13.273317 -17.576008 1.891302 51.000000
-13.341108 -17.436872 1.885313 51.500000
-13.396365 -17.339125 1.881549 53.000000
-13.447245 -17.236521 1.877271 56.000000
-13.516977 -17.103226 1.871966 51.500000
-13.589303 -16.974401 1.867175 54.000000
-13.656776 -16.840706 1.861871 51.500000
-13.739998 -16.673958 1.855311 40.333332
-13.827512 -16.514111 1.849551 42.000000
-13.892334 -16.381313 1.844417 42.500000
-13.962531 -16.255907 1.840139 43.500000
-14.012898 -16.159830 1.836717 40.000000
-14.059990 -16.060625 1.832953 54.500000
-14.126254 -15.933199 1.828504 55.500000
-14.210896 -15.777329 1.823370 55.333332
-14.277600 -15.652416 1.819264 58.000000
-14.313225 -15.592806 1.817553 52.000000
-14.373755 -15.462651 1.812876 60.666668
-14.439746 -15.339167 1.808997 56.000000
-14.474156 -15.279263 1.807286 56.000000
-14.517048 -15.180634 1.803693 56.000000
-14.564926 -15.087691 1.800784 62.000000
-16.143217 -14.839249 1.882917 11.000000
-15.909280 -14.716690 1.861015 10.000000
-15.421741 -14.401161 1.811906 42.500000
16.344591 -13.641980 1.828162 2.000000
16.353090 -13.475656 1.819606 35.000000
13.732635 -11.832794 1.874557 22.000000
13.986354 -11.823571 1.893895 34.000000
13.778809 -11.797356 1.875791 34.000000
14.006783 -11.728182 1.889163 44.000000
14.023478 -11.593027 1.881551 19.500000
15.223397 -9.799528 1.872225 31.000000
14.955726 -9.319986 1.822303 36.000000
15.017378 -9.227919 1.822714 10.000000
11.957301 -9.178476 1.825473 0.000000
11.989365 -9.064279 1.820184 26.666666
12.680934 -9.055243 1.887028 41.000000
15.324739 -9.088315 1.842464 4.000000
12.595960 -8.934947 1.870196 44.000000
12.727839 -8.968528 1.885585 42.000000
12.919646 -8.803278 1.893279 27.000000
13.246305 -8.370731 1.897607 66.000000
-13.413030 -8.139226 1.900012 78.000000
-13.387395 -8.181321 1.900012 80.000000
-13.447815 -8.073875 1.899531 83.000000
-13.508501 -7.966650 1.899210 81.666664
-13.577253 -7.835672 1.898409 80.666664
-13.656780 -7.682647 1.897607 81.750000
-13.735826 -7.529495 1.896966 81.666664
-13.806178 -7.399706 1.896966 81.666664
-13.850106 -7.311599 1.896646 80.000000
12.925625 -7.375621 1.802230 38.666668
13.117067 -7.321776 1.819222 32.000000
13.256087 -7.308701 1.833168 36.000000
13.341687 -7.301334 1.841824 34.000000
-13.895724 -7.224411 1.896646 82.666664
13.329664 -7.240429 1.837015 36.000000
16.859837 -7.132279 1.893072 2.000000
-14.014634 -7.008833 1.897607 80.000000
-13.965555 -7.094326 1.896966 78.333336
-14.058351 -6.920612 1.897607 80.000000
13.156122 -6.933502 1.800948 36.000000
-14.147748 -6.745085 1.898088 81.333328
-14.215530 -6.613718 1.898729 82.666664
-14.276703 -6.506268 1.900012 81.000000
-14.303599 -6.437300 1.899531 80.000000
14.373158 -6.240680 1.897607 38.000000
14.335386 -6.117518 1.887509 19.000000
16.628777 -6.068820 1.830532 9.000000
16.804922 -6.073347 1.847813 70.000000
14.480653 -5.992165 1.897848 46.000000
16.662731 -5.903856 1.828063 38.000000
17.357117 -5.905465 1.895952 8.000000
16.774672 -5.825150 1.836292 1.000000
14.569470 -5.789062 1.898569 39.000000
16.604753 -5.707752 1.815720 46.000000
16.924557 -5.580883 1.842875 5.000000
14.302163 -5.424314 1.852403 38.000000
16.841846 -5.436457 1.830120 12.000000
13.921620 -5.330076 1.805276 44.000000
14.699306 -5.312371 1.892798 39.000000
16.645016 -5.372987 1.808725 16.000000
17.004732 -5.371361 1.844110 15.000000
14.035460 -5.022657 1.805276 23.000000
14.122286 -5.003738 1.814413 38.000000
14.755470 -5.020299 1.887509 16.000000
14.309528 -4.985879 1.835091 32.000000
16.748018 -4.773959 1.800907 38.000000
17.063034 -4.403269 1.822303 10.000000
-17.435034 -0.526598 1.803788 74.000000
-17.473097 -0.445322 1.807491 62.500000
-17.551605 -0.309371 1.815308 73.666664
-17.621166 -0.172211 1.822303 77.500000
-17.697535 -0.033919 1.830120 72.000000
-17.779293 0.133485 1.838624 77.666664
-17.858627 0.274342 1.846990 74.500000
-17.932785 0.416414 1.854944 75.333336
-18.013176 0.559828 1.863653 69.500000
-18.052113 0.646162 1.867974 80.000000
-18.098537 0.733274 1.873117 79.500000
-18.165112 0.850325 1.880523 81.500000
-18.214569 0.938643 1.886077 79.000000
-18.261562 1.027405 1.891426 79.500000
-18.312141 1.116813 1.897186 74.000000
6.933227 4.239636 1.866655 36.400002
6.859290 4.319159 1.861865 44.875000
6.875198 4.408717 1.875968 0.000000
10.484934 14.066729 1.814280 13.500000
10.474178 14.253713 1.829160 23.000000
10.515934 14.436818 1.846990 8.000000
9.721478 14.659739 1.819011 4.000000
10.356627 14.697787 1.859333 8.000000
10.598815 14.647069 1.869619 4.000000
11.086528 14.632459 1.898421 3.000000
9.692883 14.716790 1.822303 15.000000
10.335499 14.766107 1.863859 20.000000
10.394008 15.050106 1.891426 51.000000
10.468493 15.056579 1.896363 55.000000
9.381828 15.160866 1.843698 6.000000
9.575309 15.152496 1.853573 4.000000
9.540348 15.202724 1.856042 1.000000
9.808289 15.201998 1.870854 8.000000
9.218728 15.378977 1.854190 5.500000
9.854932 15.380139 1.888957 5.000000
-19.135052 18.942327 1.841236 5.000000
-19.576075 19.016960 1.866342 33.000000
8.800513 19.756994 1.857251 2.000000
8.786707 19.893913 1.867517 1.000000
9.505515 19.812910 1.887024 17.000000
9.810340 19.806181 1.897975 80.000000
-18.010349 19.904491 1.835642 3.000000
8.952354 19.929195 1.876073 1.000000
-18.317936 20.053669 1.857337 8.000000
-17.857464 20.049829 1.836051 38.000000
-17.226784 20.349102 1.823225 2.000000
8.124842 20.447985 1.889420 2.000000
-16.628733 20.942673 1.828683 10.000000
-16.515898 20.935280 1.823498 34.000000
-17.579861 21.167528 1.881625 3.000000
-16.824242 21.464474 1.864978 7.000000
-15.735465 21.429087 1.818040 1.000000
-16.210443 21.787640 1.857064 8.000000
-16.725170 21.899366 1.884354 7.000000
-16.154905 22.145786 1.874529 3.000000
19.216183 29.692404 1.802192 15.500000
19.137512 29.878515 1.807994 19.000000
19.077856 29.992420 1.811251 16.000000
18.970287 30.136074 1.814508 20.000000
