# This PCD file was generated using the MATLAB® pcwrite function
# from Computer Vision Toolbox®.
# .PCD v.7 - Point Cloud Data file format
VERSION .7
FIELDS x y z intensity
SIZE 4 4 4 4
TYPE F F F F
COUNT 1 1 1 1
WIDTH 1227
HEIGHT 1
VIEWPOINT 0 0 0 1 0 0 0
POINTS 1227
DATA ascii
18.203144 -9.375268 1.758262 28.500000
18.970770 -7.058936 1.738157 16.000000
19.078861 -7.030998 1.746028 17.000000
19.677916 -6.626174 1.782988 8.000000
19.823170 -6.536628 1.792399 15.500000
19.725492 -6.367360 1.779908 15.000000
19.722622 -6.298085 1.777855 41.000000
19.782476 -6.214609 1.780592 30.000000
19.876295 -6.141338 1.786410 33.000000
19.874743 -5.597769 1.773063 27.000000
-13.176393 -5.503745 1.729295 28.000000
19.896070 -5.536372 1.773406 2.000000
-13.057064 -5.341908 1.708456 56.666668
-13.175296 -4.889278 1.701884 50.000000
-13.606253 -4.783514 1.746607 23.000000
-13.475156 -4.785039 1.731699 36.000000
-13.336646 -4.806703 1.716791 45.000000
15.915224 -4.428643 1.708332 1.000000
16.284815 -4.202443 1.739190 3.000000
19.935413 -4.219223 1.749792 12.000000
16.408655 -4.069851 1.748242 38.000000
16.336763 -3.970447 1.738573 54.500000
16.214046 -3.859741 1.723555 63.000000
16.271639 -3.711732 1.725887 62.666668
16.363796 -3.597769 1.732607 56.500000
16.122971 -3.412340 1.704217 15.000000
16.735367 -3.213638 1.762231 5.000000
16.960861 -0.793936 1.755854 2.000000
17.042149 -0.610016 1.763466 13.000000
17.180864 -0.506916 1.777455 25.000000
17.234077 -0.454300 1.782804 38.000000
14.255036 -0.151772 1.726409 83.000000
11.169383 0.072095 1.750715 11.500000
11.199173 0.301085 1.755980 13.000000
10.182711 0.337820 1.779984 14.000000
9.910567 0.547146 1.734090 1.000000
9.958061 0.612550 1.743039 35.000000
10.089059 0.670786 1.766543 32.571430
10.216785 0.757446 1.789851 34.000000
9.969168 0.959919 1.749751 38.750000
10.101392 0.972392 1.772985 41.000000
9.790198 1.097832 1.721182 25.750000
9.867229 1.075409 1.734090 15.000000
10.063505 1.128803 1.769199 35.000000
9.672839 1.331895 1.705866 37.000000
9.762996 1.281896 1.720322 35.000000
9.911648 1.269712 1.745793 39.000000
9.633791 1.410310 1.701047 29.714285
9.829875 1.511207 1.737532 18.000000
10.049661 1.706990 1.780902 49.000000
9.962624 1.764733 1.767650 4.500000
9.768759 1.897076 1.738565 21.500000
16.470043 1.902737 1.714503 1.000000
8.724369 2.313224 1.739898 11.000000
9.018347 2.345758 1.796305 20.500000
8.566209 2.576528 1.724377 14.000000
12.207955 2.630542 1.733991 11.333333
12.175345 2.723743 1.732340 49.000000
8.700112 2.821756 1.763117 24.666666
7.698147 2.978189 1.742132 3.000000
7.771558 2.950572 1.754522 13.000000
8.670542 2.976301 1.767155 44.500000
8.596834 3.079788 1.760341 8.666667
9.533263 3.149134 1.754054 101.000000
9.789059 3.165554 1.797423 14.000000
12.524659 3.225156 1.795788 24.000000
10.322983 3.700228 1.718817 9.000000
16.853786 3.801260 1.786644 16.666666
9.361175 3.862221 1.769199 18.000000
16.750820 3.888794 1.778278 2.000000
13.855928 3.960040 1.745164 18.000000
13.899374 4.067094 1.753820 1.000000
14.034151 4.058712 1.769209 74.000000
8.884556 4.199710 1.716880 4.000000
9.022071 4.212772 1.739597 5.000000
9.308517 4.152157 1.780729 43.500000
8.767344 4.279908 1.704489 2.000000
8.899130 4.413695 1.735467 1.000000
13.873286 5.173254 1.793093 17.666666
13.692847 5.526627 1.788204 5.000000
13.558217 5.546813 1.774018 3.000000
8.077575 5.717121 1.728927 10.000000
9.455486 5.919909 1.748547 15.000000
8.350264 5.969388 1.793293 11.000000
9.350380 5.956798 1.737708 6.000000
-4.734094 6.044057 1.763440 6.333333
-4.673694 6.084330 1.762246 8.000000
9.387455 6.063725 1.751644 0.000000
9.424676 6.129814 1.762174 7.000000
9.405769 6.201962 1.765890 6.000000
9.130371 6.334024 1.741734 9.500000
8.831923 6.355742 1.705500 5.500000
10.464378 6.415099 1.704284 21.500000
10.507595 6.810820 1.738667 3.000000
10.174286 7.034507 1.717487 1.000000
9.958574 7.309949 1.715287 10.000000
10.093240 7.376251 1.735825 5.666667
10.072292 7.515909 1.744993 12.000000
8.722042 9.558554 1.796705 38.000000
10.421821 9.610212 1.716791 60.500000
10.540286 9.627978 1.728814 1.000000
10.238754 9.805020 1.716791 69.000000
10.107698 9.894734 1.712944 0.000000
10.292437 10.012452 1.738912 0.000000
10.315276 9.971789 1.737470 56.000000
10.211717 10.122989 1.741317 14.000000
10.317020 10.163314 1.753820 5.000000
7.459800 10.305309 1.766448 1.000000
7.582298 10.359873 1.782585 24.666666
9.668764 11.044470 1.777624 1.000000
9.684089 11.238937 1.796620 4.000000
9.358850 11.357231 1.782193 11.000000
9.470737 11.346982 1.789887 16.000000
9.969173 17.428312 1.724125 52.000000
10.050207 17.379379 1.723954 50.000000
-16.463503 18.720226 1.704787 29.000000
18.040421 18.984118 1.790886 47.000000
17.928524 19.085270 1.790659 43.333332
-16.722351 19.135458 1.737808 28.000000
-16.067194 19.222973 1.713247 44.000000
17.758104 19.224066 1.789658 27.000000
17.626837 19.263391 1.785565 36.500000
17.011206 19.411171 1.765007 41.666668
17.453703 19.377499 1.783382 7.000000
17.602936 19.420143 1.792387 11.000000
16.907585 19.498009 1.764825 0.000000
17.241367 19.467230 1.778288 41.000000
-16.976141 19.549477 1.770556 14.000000
16.890532 19.602425 1.769464 7.000000
-16.384075 19.727707 1.753636 40.000000
16.460056 19.910883 1.766599 22.500000
16.357191 19.977468 1.765643 43.000000
-16.700481 20.237698 1.794298 42.000000
16.558784 20.353796 1.794298 50.000000
16.495377 20.494055 1.799028 29.333334
12.776545 31.028957 1.709879 6.000000
12.367915 31.722063 1.734917 3.000000
12.646606 31.844213 1.745909 42.000000
12.577223 31.961853 1.750184 4.000000
12.309883 32.577271 1.774543 44.666668
9.323339 32.729836 1.734103 255.000000
9.432755 32.723412 1.735324 255.000000
9.528801 32.670609 1.734103 35.000000
12.168898 32.721180 1.778885 19.000000
8.891443 32.771156 1.730235 255.000000
8.992236 32.735355 1.729828 255.000000
9.159861 32.740662 1.732372 255.000000
12.074325 32.781738 1.780106 24.000000
-10.728406 -35.134880 1.871911 4.000000
-10.230119 -35.075172 1.861733 12.000000
-9.596441 -34.934917 1.846059 7.000000
-10.039110 -34.826923 1.846873 7.000000
-9.810345 -34.854706 1.845041 27.000000
-9.876020 -34.670036 1.836899 20.000000
-9.657986 -34.731403 1.836899 26.000000
-10.227204 -34.659710 1.841377 12.000000
-10.766782 -34.483353 1.840766 4.000000
-10.872657 -34.441738 1.840359 10.000000
-10.332426 -34.417862 1.831098 7.500000
-13.850378 -33.636868 1.853591 4.000000
-14.030571 -33.475494 1.849519 2.000000
12.871564 -33.219257 1.815322 54.000000
12.968587 -33.160053 1.814304 53.000000
13.068294 -33.108006 1.813693 54.000000
13.170763 -33.063076 1.813490 55.000000
13.267121 -33.002998 1.812472 53.000000
13.369236 -32.957455 1.812268 56.000000
13.468171 -32.904198 1.811658 53.000000
13.566895 -32.850651 1.811047 51.000000
13.663887 -32.793114 1.810233 53.000000
13.763748 -32.742664 1.809826 52.000000
13.863425 -32.691902 1.809419 55.000000
13.962922 -32.640842 1.809012 54.000000
14.059059 -32.582146 1.808197 53.000000
14.159758 -32.534157 1.807994 54.000000
14.260292 -32.485855 1.807790 55.000000
-18.124487 -32.403378 1.891859 4.000000
14.357429 -32.429932 1.807180 56.000000
14.454355 -32.373722 1.806569 54.000000
14.555982 -32.328156 1.806569 55.000000
14.654171 -32.274994 1.806162 50.000000
-18.542200 -32.193836 1.893081 14.000000
14.755495 -32.228798 1.806162 56.000000
14.856674 -32.182281 1.806162 127.000000
-18.609169 -32.076683 1.889620 27.000000
14.957705 -32.135448 1.806162 119.000000
15.053490 -32.077450 1.805551 120.000000
-18.717907 -32.031864 1.890434 31.000000
15.201033 -31.998901 1.805144 130.500000
-18.808315 -31.955687 1.889417 10.000000
-18.136435 -31.951866 1.872114 7.000000
15.349950 -31.923347 1.804940 124.000000
15.450166 -31.874968 1.804940 120.000000
15.541454 -31.808327 1.803923 55.000000
15.639543 -31.755762 1.803719 52.000000
15.737453 -31.702896 1.803516 55.000000
15.835188 -31.649725 1.803312 57.000000
15.932743 -31.596254 1.803108 57.000000
16.030111 -31.542482 1.802905 58.000000
16.127306 -31.488411 1.802701 56.000000
16.227983 -31.441139 1.802905 53.000000
16.324837 -31.386457 1.802701 53.000000
16.419645 -31.327946 1.802294 53.000000
16.519850 -31.279737 1.802498 51.000000
16.619915 -31.231209 1.802701 57.000000
16.714174 -31.171803 1.802294 53.000000
16.815821 -31.126167 1.802701 55.000000
16.911608 -31.069679 1.802498 50.000000
17.061665 -30.996599 1.802905 53.000000
17.256092 -30.888783 1.802905 52.000000
17.452555 -30.897602 1.808197 60.000000
17.549536 -30.842621 1.808197 58.000000
17.650320 -30.794264 1.808604 59.000000
17.748976 -30.742125 1.808808 61.000000
17.898659 -30.666725 1.809317 58.500000
18.044006 -30.583803 1.809419 64.000000
18.193022 -30.506973 1.809928 60.000000
18.343826 -30.432913 1.810640 64.000000
18.491161 -30.352921 1.811047 60.000000
18.642393 -30.279089 1.811861 61.000000
18.788025 -30.195950 1.812167 63.000000
18.937563 -30.118958 1.812879 63.000000
19.036366 -30.066061 1.813286 61.000000
19.132877 -30.009480 1.813490 60.000000
19.235693 -29.962667 1.814304 61.000000
19.334068 -29.908800 1.814711 62.000000
19.432285 -29.854609 1.815118 62.000000
19.530365 -29.800098 1.815525 56.000000
19.630487 -29.748594 1.816136 58.000000
19.726063 -29.690105 1.816340 64.000000
19.832560 -29.647913 1.817561 64.000000
19.925606 -29.585459 1.817561 54.000000
19.971371 -29.453279 1.813286 53.000000
-7.532964 -26.427166 1.879169 30.000000
-7.601573 -26.353523 1.875621 1.000000
-6.757247 -25.848982 1.827045 2.000000
-9.112170 -25.717703 1.865797 12.000000
-8.962611 -25.679310 1.859929 12.500000
-8.831760 -25.692997 1.857883 5.000000
-6.786330 -25.630882 1.813128 42.000000
-12.569504 -24.405197 1.877258 15.000000
-12.461896 -24.384157 1.872619 17.000000
-12.710481 -23.935163 1.853243 7.000000
-12.166900 -18.347370 1.890446 32.000000
-12.111618 -18.140018 1.872993 40.000000
-11.368775 -17.990578 1.827477 14.000000
-12.039587 -17.910046 1.853144 35.000000
-11.475139 -17.908722 1.826450 4.000000
-11.701467 -17.766441 1.826793 29.000000
-11.522704 -17.859190 1.825082 15.000000
-11.993042 -17.720312 1.837402 32.000000
-11.983575 -17.587038 1.827477 33.000000
-11.993678 -17.483574 1.820633 28.000000
-12.262208 -17.286528 1.819948 31.000000
-12.057790 -17.342430 1.813788 32.000000
-11.948896 -17.301519 1.805575 31.000000
-13.048700 -17.166187 1.851604 32.500000
-12.426758 -17.230045 1.824226 30.000000
-12.314136 -17.244678 1.819606 30.000000
-12.102114 -17.251493 1.809567 31.666666
-12.541772 -17.161318 1.825253 31.500000
-13.665899 -17.015184 1.874020 1.000000
-13.467107 -16.985170 1.861357 26.000000
-13.314884 -16.974913 1.852574 25.000000
-13.116141 -17.031792 1.845957 23.000000
-12.844274 -17.063507 1.833979 26.000000
-12.730933 -17.023985 1.825424 34.000000
-12.577050 -16.984467 1.814815 29.500000
-13.493055 -16.908510 1.857593 26.000000
-13.157194 -16.919426 1.840482 21.000000
-14.019396 -16.743286 1.875217 25.500000
-14.326271 -16.626451 1.884629 17.000000
-14.078460 -16.583157 1.867974 22.000000
-14.348768 -16.390457 1.870597 22.500000
-14.253105 -16.436840 1.868202 5.000000
-14.423223 -16.319695 1.870255 1.000000
-13.512739 -16.345703 1.821146 15.000000
-13.383817 -16.346008 1.814130 6.000000
-15.710578 -15.509045 1.895694 28.333334
-15.783053 -15.450513 1.896606 27.000000
-15.686229 -15.195738 1.875389 21.666666
-15.750460 -15.083090 1.872651 32.000000
-16.175091 -15.057152 1.897633 30.000000
-15.901438 -15.037169 1.879324 30.500000
-16.171137 -14.911852 1.888906 31.500000
-16.195641 -14.793835 1.883602 31.000000
-16.369083 -14.718140 1.890275 22.500000
-16.449348 -14.604378 1.888906 27.500000
-16.540432 -14.546480 1.891473 26.000000
-16.619509 -14.386097 1.887537 21.000000
18.912888 -9.404881 1.813788 36.000000
19.060740 -9.366653 1.823713 7.000000
19.161716 -9.341654 1.830557 28.000000
19.241198 -9.305700 1.835348 5.000000
19.385321 -9.300370 1.846299 16.000000
-12.786630 -8.666964 1.870677 2.000000
-12.830507 -8.618471 1.871799 27.000000
-15.970555 -8.303123 1.861390 6.000000
19.886932 -8.339282 1.851775 2.000000
19.890053 -8.194051 1.847241 18.000000
-15.883847 -8.163219 1.846784 2.500000
19.927349 -8.063312 1.845957 2.000000
-15.810575 -7.844996 1.825183 11.000000
-15.859498 -7.745484 1.825183 48.666668
-16.191790 -7.595124 1.849458 28.000000
-16.037212 -7.614965 1.835881 43.000000
-15.940180 -7.661217 1.828886 47.000000
17.659285 -2.904460 1.850693 22.500000
11.494932 0.128405 1.801815 20.000000
10.371517 0.834435 1.817846 38.000000
10.434143 0.905529 1.829778 36.000000
15.016396 0.878989 1.821626 26.000000
15.200785 0.985655 1.844709 23.000000
9.490380 1.183771 1.843626 4.000000
11.667284 1.160437 1.837740 3.000000
9.457798 1.246188 1.838932 35.799999
9.568142 1.315776 1.861797 35.000000
9.524230 1.401320 1.855740 39.000000
9.624055 1.369594 1.873911 30.500000
9.745054 1.465104 1.899654 10.000000
10.210453 1.602566 1.805684 16.000000
15.346341 1.577782 1.868273 25.666666
15.345346 1.699589 1.869715 47.500000
9.652950 1.809985 1.893218 12.000000
10.599116 1.766078 1.877278 16.000000
15.404250 1.779609 1.877891 36.000000
9.134949 2.087127 1.806337 12.625000
8.305331 2.286110 1.818128 0.000000
8.391555 2.373798 1.840638 13.000000
13.282387 2.514535 1.877023 0.000000
17.703293 2.469187 1.848430 20.000000
17.736776 2.559069 1.853161 1.000000
8.564037 2.708449 1.895776 3.000000
9.053541 2.894578 1.832269 57.000000
9.201151 2.909942 1.860283 40.000000
9.366097 2.886789 1.889306 34.333332
17.314495 2.916121 1.815720 3.000000
17.367233 3.009207 1.822714 11.000000
9.932625 3.246482 1.825648 54.000000
12.705254 3.328421 1.823661 15.000000
10.121870 3.414254 1.866264 78.000000
10.264146 3.534229 1.896553 25.000000
10.157084 3.577959 1.881408 55.250000
15.163943 4.026313 1.900012 9.000000
15.070689 4.052278 1.889913 13.000000
15.077727 4.206941 1.895684 18.000000
14.707345 4.303514 1.855770 25.000000
14.457104 4.378627 1.829320 28.000000
14.684248 4.598950 1.863464 0.000000
14.857554 4.576406 1.882700 17.000000
8.953332 5.202600 1.809126 1.000000
9.129090 5.209249 1.836318 96.500000
9.019658 5.278989 1.825877 36.666668
13.953162 5.303096 1.807680 15.000000
14.446538 5.258034 1.861781 4.000000
10.648260 5.415185 1.872426 41.400002
8.857704 5.506915 1.822206 26.000000
9.050364 5.437990 1.844694 62.000000
10.378241 5.455631 1.837740 26.000000
10.573742 5.473892 1.866232 51.000000
7.901209 5.608872 1.867854 15.000000
9.289057 5.594677 1.894488 58.000000
10.097657 5.607435 1.810363 53.400002
10.278975 5.632239 1.837121 54.000000
10.540602 5.647085 1.874284 0.000000
8.525079 5.815414 1.802930 10.000000
8.768476 5.881037 1.844579 10.500000
8.814938 6.026699 1.865575 32.000000
10.329470 5.973398 1.870258 17.166666
8.726436 6.074055 1.857544 23.333334
8.654031 6.269078 1.866952 0.000000
8.649219 6.355853 1.875213 8.333333
8.670341 6.512351 1.894488 10.500000
9.563252 6.701237 1.830307 9.000000
10.886400 7.326395 1.822011 8.000000
10.869890 7.365004 1.823111 0.000000
7.903938 8.883663 1.863755 0.000000
9.622121 9.416099 1.869321 9.000000
8.728694 9.656854 1.807432 20.000000
9.026193 9.645536 1.834251 10.750000
8.394571 10.183430 1.832463 1.000000
7.720054 10.421621 1.800831 12.000000
8.061428 10.396523 1.826687 31.000000
8.297849 10.394535 1.846766 4.000000
8.444700 10.409746 1.861207 11.750000
8.057019 10.492526 1.836864 41.000000
11.638741 10.464853 1.895443 31.000000
8.008554 10.552408 1.839395 27.600000
10.704711 10.881790 1.848556 73.000000
10.580265 10.994535 1.847835 2.500000
10.762076 11.009073 1.864426 32.000000
10.987717 11.029945 1.885425 75.666664
10.832581 11.151064 1.882700 26.000000
10.577129 11.271412 1.871880 8.000000
9.744289 11.380913 1.814413 20.000000
10.169096 11.451652 1.854688 2.250000
9.878315 11.611086 1.846152 12.000000
9.655582 11.642603 1.831725 9.000000
9.811937 11.643851 1.843988 15.000000
8.903831 11.906329 1.800467 11.000000
9.053546 11.910295 1.811768 19.500000
9.557596 12.054363 1.862983 12.000000
-16.140507 14.862753 1.884115 51.000000
-16.019115 14.938051 1.880864 44.500000
-15.870424 15.034116 1.877214 35.000000
-15.748831 15.107867 1.874020 35.000000
-15.689824 15.146194 1.872651 32.000000
-15.570566 15.221191 1.869799 36.000000
-15.417564 15.310296 1.865806 37.000000
-15.299995 15.385662 1.863240 42.500000
-15.211948 15.442005 1.861357 39.000000
-15.119514 15.493526 1.858962 41.000000
-14.999747 15.565260 1.856224 41.500000
-14.915234 15.624268 1.854855 39.000000
-14.823624 15.675539 1.852631 39.000000
-14.680582 15.770520 1.850178 38.000000
-14.535187 15.862371 1.847497 37.000000
-14.386573 15.949842 1.844474 36.333332
-14.268422 16.020161 1.842193 36.000000
-14.184856 16.078220 1.841166 45.000000
-14.263664 16.321972 1.861357 38.000000
-14.471010 16.664604 1.895238 47.000000
11.601165 18.813274 1.897975 18.000000
18.305151 19.081766 1.808215 10.000000
18.005886 19.369860 1.808488 8.000000
17.087683 20.085062 1.803303 4.000000
-17.034073 20.774561 1.837142 44.000000
16.538900 20.792284 1.816812 54.000000
16.644508 21.128624 1.839326 53.000000
17.224796 21.308846 1.873711 14.000000
-17.389669 21.344646 1.882716 39.000000
16.804338 21.469927 1.864432 50.000000
16.746605 21.535212 1.865524 42.000000
16.538059 21.685740 1.864978 19.000000
16.720345 21.641401 1.870163 26.000000
11.415178 33.570271 1.806772 43.000000
11.533566 33.572029 1.808808 28.000000
11.696610 33.701683 1.817765 37.000000
11.840756 33.774097 1.823668 13.000000
12.037550 33.768040 1.826721 29.000000
12.581072 33.829479 1.839138 20.000000
13.348123 33.920902 1.857458 44.000000
13.271963 34.040829 1.861733 21.000000
14.557222 34.128929 1.890638 3.000000
14.758962 34.105984 1.893623 33.666668
13.219654 34.223961 1.869468 23.000000
12.390610 34.303490 1.858476 30.000000
14.296228 34.412178 1.898780 3.000000
13.073453 34.818260 1.895116 4.000000
4.249305 -37.764381 1.936438 32.000000
4.364253 -37.719097 1.934810 66.000000
-15.980316 -34.426636 1.933996 2.000000
-19.370106 -32.211788 1.915268 17.000000
-19.229902 -32.207314 1.911401 14.000000
-19.087883 -32.198841 1.907330 3.000000
-9.149466 -27.030830 1.951486 17.000000
-11.173534 -26.882360 1.990783 5.000000
-8.424380 -26.964674 1.931838 2.000000
-11.162251 -26.618952 1.973864 20.000000
-8.573941 -26.561272 1.908641 2.000000
-10.708624 -26.464869 1.952305 1.000000
-10.522946 -26.242805 1.933475 9.000000
-14.204189 -25.384180 1.989146 1.000000
-14.292459 -25.169508 1.979322 0.000000
-14.456298 -25.089579 1.980140 16.000000
-14.357591 -25.100233 1.977412 29.000000
-13.705683 -25.044323 1.952305 1.000000
-14.448913 -24.895626 1.968406 11.000000
-14.567599 -24.800104 1.966859 41.666668
-14.544479 -24.524939 1.949849 10.000000
-14.609178 -24.458567 1.948212 3.000000
-14.881941 -24.218657 1.943845 14.000000
-14.648829 -24.178574 1.933202 30.000000
-14.558403 -24.200535 1.931292 25.000000
-14.932755 -24.131062 1.940570 21.000000
-14.976395 -23.948778 1.931565 8.500000
-7.140090 -21.883934 1.976687 17.000000
-7.065187 -21.887295 1.974976 23.000000
-7.203054 -21.728949 1.965736 20.500000
-11.400149 -20.076052 1.982505 12.000000
-10.981490 -19.917578 1.953073 10.000000
-12.425690 -19.594950 1.992429 13.000000
-11.289440 -19.173321 1.910638 25.000000
-11.981611 -19.092924 1.935620 5.000000
-11.349996 -19.092703 1.907329 29.333334
-11.947292 -18.775177 1.910980 10.000000
-12.028074 -18.706913 1.909782 17.500000
-12.084627 -18.601589 1.904820 39.000000
14.360371 -18.321039 1.998931 4.000000
14.314181 -18.144424 1.984558 24.000000
14.462737 -18.097713 1.989349 8.000000
13.702356 -17.883066 1.934593 12.500000
14.475273 -17.939384 1.979425 9.500000
-15.700924 -15.711909 1.907386 15.500000
-16.203335 -15.178729 1.906531 12.000000
-12.838375 -9.221845 1.914278 24.000000
17.752831 -6.733033 1.963429 2.000000
17.946203 -6.485809 1.973304 24.000000
17.895315 -6.403925 1.965487 39.000000
17.705324 -6.273263 1.942446 13.000000
-13.171556 -5.482790 1.980996 42.000000
-13.066309 -5.343015 1.960092 55.333332
-13.031442 -5.185877 1.947439 51.000000
-13.067309 -5.034412 1.944413 53.000000
-13.177875 -4.887606 1.951565 48.000000
-13.565043 -4.766366 1.996400 24.000000
-13.452925 -4.774501 1.982097 33.000000
-13.333355 -4.802894 1.967793 45.500000
15.952105 -3.916841 1.989218 80.500000
15.850058 -3.773094 1.973108 79.000000
15.962347 -3.746873 1.985611 93.000000
13.823108 -0.084473 1.919383 13.500000
11.078750 0.541841 1.937858 20.000000
9.917351 1.573999 1.935694 18.200001
9.922308 1.651525 1.939025 24.000000
10.106028 1.731108 1.976503 19.000000
9.712445 1.758034 1.902682 8.000000
15.782035 1.898733 1.925018 29.500000
15.863567 1.984347 1.936079 6.000000
9.232346 2.078905 1.997380 0.000000
9.029567 2.303287 1.966816 7.000000
12.126234 2.612925 1.944276 45.000000
12.323801 2.615009 1.974626 11.000000
12.094475 2.665782 1.941179 74.000000
8.902435 2.754061 1.966816 6.000000
12.131432 2.754005 1.949850 45.500000
7.735101 3.104787 1.914472 30.000000
8.862470 3.112278 1.982511 0.000000
12.120266 3.045301 1.958769 24.600000
12.131866 3.137513 1.964096 18.000000
11.873108 3.330683 1.932817 13.500000
12.066112 3.262427 1.959141 13.000000
9.379827 3.713732 1.944703 12.500000
9.385925 3.767410 1.949625 12.000000
16.008444 3.929088 1.996191 9.000000
16.048006 3.858669 1.998836 13.000000
9.519405 4.030947 1.992782 2.000000
15.353922 3.990744 1.921171 20.666666
15.609045 3.987401 1.950987 28.000000
9.394539 4.082912 1.974610 11.000000
9.499470 4.057748 1.991267 4.000000
9.164715 4.190004 1.942558 18.000000
15.188155 4.135072 1.906263 0.000000
13.685402 4.330751 1.993099 54.000000
13.664182 4.371310 1.991999 7.000000
15.109877 4.524559 1.910111 16.000000
15.493360 4.586401 1.956757 4.000000
15.059659 4.768527 1.912996 0.000000
8.276959 5.405921 1.905711 18.666666
8.536406 5.379809 1.945082 14.500000
8.356743 5.470582 1.925397 12.000000
8.761629 5.464247 1.990510 19.000000
8.146039 5.617475 1.907478 9.000000
9.886173 5.579669 1.983292 37.000000
9.215321 5.789728 1.901372 14.000000
9.557962 5.790735 1.952429 33.333336
15.267420 5.857557 1.980321 27.000000
8.277628 6.033937 1.974610 0.000000
9.104556 5.962394 1.901372 19.000000
9.242155 6.011103 1.926155 28.000000
15.298559 6.007724 1.990420 24.500000
-4.726630 6.044282 1.941321 6.750000
-4.672526 6.074893 1.960909 8.600000
15.233191 6.065103 1.985611 12.000000
15.001611 6.192408 1.965413 0.000000
7.876258 6.310053 1.945461 4.500000
7.984975 6.294756 1.960035 9.750000
8.149054 6.290302 1.984453 20.500000
10.324487 6.623115 1.922597 5.000000
10.296452 6.673856 1.923216 22.500000
10.273368 6.805073 1.931475 27.333334
10.329521 6.811065 1.939321 13.000000
10.366503 6.976511 1.958522 35.000000
10.380080 7.080861 1.969464 7.000000
10.416167 7.225998 1.987014 7.000000
7.704611 9.376410 1.902157 30.000000
7.825632 9.342678 1.910209 15.000000
7.682799 9.440209 1.907732 1.000000
9.928859 9.474971 1.905630 100.000000
10.305277 9.589670 1.954591 76.000000
10.366373 9.555748 1.957616 67.500000
10.480046 9.569597 1.970544 10.000000
7.581460 9.682908 1.927552 0.000000
7.630664 9.651718 1.928481 1.000000
10.275832 9.653046 1.957616 60.000000
10.292062 9.759977 1.969444 51.000000
10.314929 9.936720 1.988698 64.500000
10.324827 10.040455 1.999701 28.000000
11.899069 10.310943 1.906744 32.666668
11.637821 10.563640 1.903378 19.000000
11.828788 10.535363 1.918286 35.000000
12.007536 10.627108 1.941850 8.000000
11.683739 10.672460 1.916362 21.000000
11.382593 11.072953 1.923095 32.000000
11.407454 11.308337 1.945216 22.000000
8.390448 11.514617 1.978246 16.000000
11.694696 11.520466 1.988015 15.000000
11.790422 11.542005 1.998114 17.000000
-19.925386 11.901467 1.993000 62.000000
-19.788515 12.074203 1.990604 57.000000
-19.699892 12.190662 1.989349 56.000000
-19.654736 12.248273 1.988665 57.000000
-19.556660 12.379923 1.987553 58.000000
-19.456129 12.509799 1.986269 58.000000
-19.341684 12.651999 1.984672 67.333336
-19.229031 12.795097 1.983360 61.500000
-19.143305 12.912314 1.982847 62.000000
-19.072380 12.995674 1.981820 64.000000
-19.009270 13.084251 1.981649 61.500000
-18.942511 13.170294 1.981136 61.000000
-18.873692 13.254814 1.980451 67.000000
-18.811045 13.343622 1.980451 61.000000
-18.738216 13.425138 1.979425 64.000000
-18.674767 13.513307 1.979425 69.000000
-18.607639 13.598789 1.979082 62.000000
-18.523430 13.716622 1.979254 72.500000
-18.410311 13.858063 1.978740 68.666664
-18.300945 14.002253 1.978740 64.500000
-18.234779 14.088354 1.978740 67.000000
-18.169737 14.175337 1.978911 68.500000
-18.081871 14.290461 1.979082 62.500000
-18.017471 14.378008 1.979425 73.000000
-17.953564 14.419572 1.977371 63.000000
-17.854454 14.478876 1.973949 61.500000
-17.755198 14.537641 1.970527 59.000000
-17.661911 14.600801 1.967789 63.500000
-17.534685 14.682061 1.963853 63.500000
-17.370747 14.778392 1.958435 60.333332
-17.215977 14.881393 1.954100 62.500000
-17.086153 14.957772 1.949993 66.500000
-16.927433 15.055256 1.945316 63.000000
-16.798967 15.131172 1.941438 67.000000
-16.739540 15.173163 1.940069 68.000000
-16.641737 15.180016 1.934251 80.000000
-14.707577 17.044912 1.933224 48.000000
-14.952280 17.438963 1.972580 54.000000
-17.782013 21.966803 1.932656 36.000000
-18.140610 22.554308 1.979322 40.000000
15.449177 34.120819 1.908551 4.000000
14.702371 35.389793 1.952723 8.000000
14.670211 35.627895 1.963308 12.000000
14.482014 35.808247 1.968193 30.000000
14.597454 35.769970 1.968600 10.000000
-18.995867 -35.786282 2.064476 3.000000
-18.887068 -35.852848 2.064883 10.000000
-19.098780 -35.708813 2.063458 3.000000
-19.235083 -35.162739 2.042288 17.000000
-19.416857 -34.971333 2.038217 3.000000
-9.565731 -28.705456 2.069105 6.000000
-10.345115 -28.624891 2.081385 27.000000
-10.194636 -28.488169 2.069105 26.000000
-9.543795 -28.342445 2.045090 16.000000
-9.573661 -28.138533 2.032537 10.000000
-9.722775 -27.998659 2.026806 3.000000
-12.024772 -27.225187 2.035266 3.000000
-12.084263 -27.128950 2.030899 4.000000
-11.586164 -27.150242 2.018619 3.000000
-11.809511 -26.966734 2.013161 29.000000
-14.291043 -25.920250 2.024077 31.000000
-7.177835 -23.230896 2.087910 32.000000
-7.338270 -22.979986 2.071483 0.000000
-7.185417 -22.999012 2.069088 30.000000
-7.239630 -22.919321 2.063954 21.000000
-9.890242 -22.203411 2.087225 33.000000
-9.741936 -22.119419 2.075475 23.666666
-10.157205 -21.871824 2.070799 5.000000
-10.085107 -21.896385 2.070114 4.000000
-11.380806 -21.594757 2.096123 9.000000
-11.583826 -21.486538 2.096123 36.000000
-11.261195 -21.531521 2.086541 20.000000
-11.726251 -21.427315 2.097492 9.000000
-10.443607 -21.084690 2.020492 13.000000
-12.303188 -21.045958 2.093385 9.000000
-11.512574 -20.880825 2.047527 11.000000
-12.730303 -20.790350 2.093385 13.000000
-11.939359 -20.771614 2.057338 30.000000
-12.807221 -20.696238 2.089963 18.000000
-11.411692 -20.544933 2.018096 35.000000
-11.419478 -20.307713 2.000643 23.333334
-12.405289 -19.768063 2.004065 26.000000
3.684699 -19.784487 2.081104 30.000000
3.774535 -19.749289 2.079252 51.500000
14.287310 -18.405792 2.000814 21.500000
14.490067 -18.249180 2.000985 30.000000
-15.389131 -17.935816 2.029389 40.333332
-15.533635 -17.800268 2.028705 9.000000
-15.467191 -17.836937 2.027336 43.000000
-15.687398 -17.750093 2.034181 58.000000
-15.528994 -17.682505 2.020834 2.000000
-15.717766 -17.616493 2.027336 28.500000
-15.826235 -17.460028 2.023571 0.000000
-15.871935 -17.345598 2.018951 5.000000
-16.964970 -16.817568 2.051292 14.000000
-16.875376 -16.834188 2.046843 22.000000
-17.017021 -16.554110 2.038630 22.000000
-18.248173 -15.795875 2.072510 6.000000
-18.140524 -15.852889 2.068745 31.000000
-18.322405 -15.709754 2.072510 32.000000
-18.576401 -15.626157 2.084487 8.000000
-18.399191 -15.642281 2.073765 26.666666
17.482077 -10.072953 2.086452 46.000000
17.561987 -10.045639 2.092213 24.000000
17.381584 -9.726185 2.059708 0.000000
17.575169 -9.726011 2.077195 33.500000
17.507381 -9.581040 2.063823 32.000000
17.411528 -9.457623 2.049011 34.000000
18.024601 -9.355040 2.100030 18.000000
17.249596 -9.229781 2.023089 17.000000
17.189106 -9.093529 2.010952 24.000000
-11.536004 -9.038880 2.034909 61.000000
-11.962622 -8.867985 2.067641 24.500000
-12.155136 -8.863680 2.088821 17.000000
-12.040998 -8.838521 2.073967 11.000000
-12.400113 -8.573448 2.093222 5.000000
-12.327083 -8.609083 2.087720 7.000000
-12.456738 -8.526054 2.095973 14.500000
18.805443 -7.199912 2.082338 20.000000
18.455502 -6.933290 2.038724 23.000000
18.949854 -6.915917 2.086041 29.000000
18.245993 -6.789250 2.013215 15.000000
18.424032 -6.789678 2.030495 55.000000
19.064013 -6.220033 2.073698 42.000000
19.140619 -6.112232 2.077812 98.000000
18.996586 -6.000536 2.060120 51.000000
19.022938 -5.943202 2.060943 30.000000
18.851442 -5.824681 2.040370 17.000000
18.820181 -5.750316 2.035021 9.000000
19.448593 -5.676114 2.095093 15.000000
18.988462 -5.477149 2.043662 29.000000
19.181589 -5.467639 2.062588 7.000000
19.056969 -5.367442 2.047365 21.000000
19.175827 -5.206363 2.054771 3.000000
19.331827 -5.053583 2.066291 4.000000
19.594360 -5.023680 2.091801 15.500000
16.145248 -4.166426 2.019274 13.000000
16.150560 -4.113725 2.018312 23.000000
16.097935 -4.046508 2.010137 57.000000
19.812754 -3.998550 2.090155 2.000000
19.798437 -3.866359 2.086041 10.000000
16.225510 -3.754904 2.016869 85.000000
19.787153 -3.735245 2.082338 2.000000
16.128750 -3.652520 2.002683 80.000000
16.341593 -3.619852 2.026968 59.000000
16.414959 -3.582040 2.034662 9.000000
16.761236 -3.519928 2.074095 1.000000
16.997425 -3.208624 2.094774 19.000000
16.766155 -0.494680 2.031296 6.000000
16.713879 -0.256724 2.024323 32.000000
14.797166 -0.160127 2.054713 20.000000
9.807302 1.600735 2.097332 1.000000
9.736819 1.904994 2.094028 8.000000
10.633511 1.873062 2.081367 0.000000
9.561039 2.016556 2.062362 28.000000
9.742519 1.969787 2.097882 10.666667
9.340233 2.134052 2.022161 8.000000
9.710662 2.090651 2.096506 5.000000
9.231664 2.277746 2.006880 11.500000
9.442897 2.440341 2.058507 7.000000
13.003431 2.482909 2.074968 12.000000
17.084852 2.574691 2.092369 28.000000
13.020502 2.720125 2.084878 0.000000
17.083353 2.739368 2.095255 11.000000
16.671965 2.888739 2.049089 3.000000
8.961217 3.094373 2.000960 52.666668
11.353920 3.108220 2.056607 13.000000
12.474164 3.045475 2.012615 18.333334
14.640441 3.058548 2.076718 9.000000
16.804148 3.075044 2.068806 12.000000
16.601891 3.308347 2.050051 22.000000
16.616100 3.256937 2.050532 31.000000
10.191140 3.371477 2.069252 53.799999
16.606983 3.363639 2.051974 15.000000
10.195750 3.496830 2.077833 28.333334
10.227683 3.645888 2.093102 41.500000
13.922271 3.881930 2.006852 34.000000
9.598713 3.958244 2.001489 39.000000
14.485434 3.941036 2.084420 15.000000
11.135762 4.150205 2.076227 3.000000
13.925480 4.238850 2.021156 20.500000
14.064329 4.353637 2.044261 23.000000
14.306323 4.626332 2.087721 0.000000
14.227698 4.650328 2.078368 8.000000
9.426150 5.162847 2.071776 6.333333
10.328059 5.203509 2.020466 10.000000
9.480222 5.289684 2.092723 6.500000
10.490841 5.326913 2.055575 57.000000
8.033237 5.349382 2.037030 4.000000
10.603840 5.426260 2.081046 61.000000
7.725745 5.502598 2.001923 22.000000
8.082627 5.437446 2.056029 6.000000
10.561328 5.488549 2.079439 54.000000
13.811914 5.496428 2.064065 7.000000
7.769477 5.626231 2.024640 0.000000
10.541786 5.562757 2.082422 8.000000
10.189308 5.687623 2.038709 3.500000
9.015449 5.801145 2.066602 13.500000
10.171386 5.953207 2.059017 10.000000
-4.746629 6.040544 2.053168 3.500000
-4.663103 6.110128 2.054201 5.000000
7.877343 6.051053 2.096506 31.000000
8.676199 6.077397 2.041996 13.000000
8.306397 6.298046 2.009439 0.000000
8.357513 6.295551 2.017010 23.000000
8.420119 6.253282 2.021805 20.000000
9.904852 6.375894 2.057984 7.500000
9.638320 6.574816 2.038365 5.000000
10.473256 7.397993 2.009808 3.200000
10.251592 7.775742 2.016745 27.000000
10.194758 7.859587 2.017674 5.500000
10.149965 7.952869 2.021080 2.000000
7.237810 9.425682 2.076227 21.000000
7.426409 9.423738 2.096191 10.000000
8.940466 9.355650 2.028307 16.500000
7.208162 9.448375 2.076227 8.000000
8.797046 9.460124 2.024797 10.000000
8.660525 10.111548 2.086736 3.000000
8.626154 10.135697 2.086117 16.000000
7.731511 10.368893 2.027275 3.000000
7.648319 10.554224 2.042966 21.500000
9.392546 11.394068 2.050312 22.000000
9.455024 11.360298 2.052238 17.000000
8.573301 11.726763 2.017030 35.000000
8.916583 11.919043 2.066816 39.000000
8.610882 12.054201 2.056914 0.000000
8.812939 12.255472 2.095972 17.000000
10.045627 17.371487 2.075138 54.500000
9.974518 17.437654 2.077400 43.000000
-15.186893 17.825615 2.010909 44.000000
-15.444964 18.244333 2.052661 47.000000
-15.718519 18.686188 2.096807 43.000000
17.317596 35.537811 2.014401 4.000000
17.883060 35.556507 2.028039 6.000000
17.819429 35.709026 2.033535 6.000000
18.829351 35.743282 2.058573 14.000000
-18.869202 35.864456 2.064985 76.500000
18.622795 35.896343 2.060608 21.000000
18.737328 35.841202 2.060812 17.000000
-18.704618 35.961884 2.065494 49.000000
17.411028 36.016445 2.038420 1.000000
17.368616 36.218647 2.046766 12.000000
18.610500 36.150017 2.071804 5.000000
18.466080 36.430145 2.081167 3.000000
18.121321 36.892380 2.094398 21.000000
-8.123837 -31.076693 2.196548 18.000000
-8.015203 -31.059557 2.193546 1.000000
-7.897885 -31.007238 2.188088 32.000000
-7.783894 -30.966103 2.183449 12.000000
-11.684813 -29.954544 2.198731 6.000000
-11.029824 -29.929815 2.181266 14.000000
-10.550232 -29.776413 2.160253 3.000000
-10.118645 -29.436749 2.128596 2.000000
-10.919900 -29.206493 2.132280 10.500000
-10.671685 -29.240797 2.128596 13.000000
-15.157768 -28.115749 2.184267 9.000000
-15.058244 -27.515850 2.144970 5.000000
-15.322474 -27.181923 2.133781 2.000000
-9.800313 -23.371096 2.176203 15.000000
-10.164603 -23.210625 2.175861 12.000000
-10.457109 -23.084694 2.176203 20.000000
-10.009097 -23.052353 2.158066 29.000000
-9.557055 -22.993279 2.138217 26.000000
-9.455061 -23.019579 2.136962 23.000000
-9.218418 -22.989487 2.126923 19.000000
-11.066899 -22.882782 2.182706 26.000000
-9.865717 -22.918957 2.142666 30.000000
-9.281629 -22.938248 2.124870 22.000000
-11.116025 -22.801334 2.178257 50.000000
-9.734230 -22.810545 2.129661 37.000000
-11.196768 -22.724743 2.175405 42.666668
-9.598859 -22.690527 2.115630 34.000000
-11.243203 -22.520836 2.161488 15.000000
-10.103650 -22.492146 2.117341 14.000000
-11.324587 -21.988041 2.123843 30.000000
-11.122248 -21.847599 2.105192 21.500000
-11.274275 -21.722433 2.101599 33.000000
-11.551235 -21.642677 2.106618 32.333332
-11.677897 -21.499069 2.100914 32.000000
-17.971710 -16.835283 2.114603 8.000000
-19.561100 -16.349817 2.189208 21.000000
-19.606457 -16.076292 2.177230 13.000000
-13.943687 -15.978319 2.193017 21.000000
-14.020592 -15.467982 2.158867 28.000000
-13.867402 -15.493512 2.150227 32.000000
-14.416010 -15.313953 2.174914 6.000000
-13.988676 -15.335671 2.146524 28.000000
-13.836122 -15.361178 2.137883 31.000000
-14.053696 -15.213808 2.141792 25.000000
-14.394829 -15.147749 2.160924 8.500000
-14.180280 -15.158678 2.146524 4.000000
17.465803 -10.469629 2.105790 7.000000
17.693235 -10.343235 2.119368 33.000000
17.584553 -10.205713 2.102499 25.000000
17.695665 -10.011768 2.102499 8.500000
-12.109118 -9.819891 2.164738 41.666668
18.256435 -9.768514 2.141175 4.000000
-12.063756 -9.699512 2.149334 53.000000
18.099577 -9.757844 2.126363 6.000000
18.807323 -9.686410 2.187669 19.000000
-11.992020 -9.579956 2.131180 71.000000
-12.054083 -9.536875 2.134206 50.500000
-12.136810 -9.387132 2.130447 45.333332
-12.238225 -9.297704 2.134068 48.750000
18.930851 -9.339692 2.182937 39.000000
-12.721964 -9.215933 2.181242 24.000000
18.121994 -9.261523 2.104556 21.000000
18.300671 -9.208280 2.118545 11.000000
19.102114 -9.238435 2.194252 27.000000
19.152567 -9.188704 2.196720 23.000000
-12.801794 -9.091036 2.180141 8.000000
-12.758805 -9.151239 2.180141 9.500000
-12.125261 -9.077455 2.103124 87.000000
-12.432075 -8.769866 2.112476 6.000000
-12.893385 -8.443621 2.139982 22.000000
-12.709311 -8.449147 2.119078 26.600000
-15.978020 -8.307004 2.180854 35.000000
-15.873903 -8.158144 2.161378 44.000000
-15.838058 -8.014287 2.149596 52.000000
-15.840115 -7.890712 2.143104 51.500000
-15.903372 -7.766874 2.143344 52.000000
-15.973373 -7.677170 2.146230 47.000000
-16.249943 -7.622403 2.173640 20.000000
-16.125399 -7.625886 2.160176 36.000000
-16.036844 -7.645744 2.151519 46.000000
16.444149 -7.109174 2.169553 15.000000
16.415356 -6.974747 2.159935 5.000000
16.351048 -6.856562 2.147191 30.000000
16.736841 -6.711208 2.183739 1.000000
19.279306 -6.762851 2.112785 19.000000
19.817245 -6.603846 2.160102 73.000000
19.482700 -6.424432 2.121425 81.000000
19.496176 -6.293337 2.118545 61.000000
19.595539 -5.852857 2.114842 29.000000
-13.044497 -5.167315 2.199156 55.500000
-13.066742 -5.034170 2.194820 49.750000
19.845505 -4.988528 2.116077 10.000000
-13.122598 -4.937692 2.197608 48.000000
19.862083 -4.268941 2.100853 21.000000
17.387085 -3.452198 2.146710 4.000000
17.359161 -3.107769 2.135650 11.000000
18.057671 -1.044361 2.190472 11.000000
15.170213 -0.497946 2.107525 2.000000
13.795029 -0.120446 2.162302 29.333334
13.708582 -0.008380 2.148675 60.750000
13.816999 0.089224 2.165709 21.000000
13.826321 0.154448 2.167257 5.000000
11.226726 0.317516 2.165030 13.000000
10.927269 0.498115 2.108624 0.000000
10.889769 0.542109 2.101809 26.000000
10.931149 0.647585 2.110895 7.000000
11.024919 0.780606 2.130580 39.000000
11.138069 0.812224 2.152790 16.000000
11.035929 1.130738 2.138530 11.500000
11.046233 1.201955 2.141937 10.000000
11.135619 1.140934 2.157837 51.000000
15.149239 1.218879 2.110276 18.000000
11.089146 1.277220 2.151780 26.666666
11.119934 1.351568 2.159352 36.000000
10.269972 1.461575 2.189436 31.500000
9.840375 1.733353 2.108896 11.000000
10.085266 1.694846 2.158459 36.500000
10.116098 1.814705 2.169198 12.000000
9.791005 2.269434 2.121287 72.000000
9.898125 2.327053 2.146068 60.000000
17.242048 2.432418 2.108720 39.000000
17.457897 2.379025 2.133726 35.000000
12.113145 2.510720 2.161245 27.000000
12.081899 2.616600 2.159753 61.333332
17.265711 2.546498 2.113529 1.000000
17.588047 2.537610 2.152000 41.000000
12.062207 2.718335 2.160212 55.000000
12.163733 2.661019 2.175357 54.000000
13.231593 2.634329 2.114609 0.000000
17.351412 2.670639 2.126032 1.000000
12.245667 2.800133 2.194632 26.000000
17.617537 2.768284 2.159694 7.000000
12.152342 3.102111 2.191190 13.000000
9.821641 3.208310 2.180762 72.000000
17.146536 3.221345 2.112807 8.000000
9.872559 3.328239 2.198935 67.000000
17.199434 3.315203 2.121223 29.000000
12.097093 3.414013 2.196009 8.000000
11.548128 3.535026 2.109959 34.000000
11.804315 3.572927 2.154705 14.000000
11.532820 3.689466 2.115466 12.000000
15.003139 3.704505 2.145759 10.000000
14.644869 4.033868 2.109175 16.000000
14.852627 3.974239 2.134848 23.000000
11.554248 4.141570 2.144379 8.000000
15.023417 4.239873 2.167489 3.000000
14.605765 4.370827 2.116877 0.000000
11.476270 4.462838 2.151263 17.000000
10.167457 4.921710 2.177523 0.000000
10.166064 4.960517 2.180551 27.000000
7.716534 5.441399 2.168780 2.000000
9.463139 5.616520 2.121305 49.500000
9.727767 5.609540 2.164651 59.000000
9.654144 5.634667 2.154809 27.333334
8.079410 5.812062 2.100636 22.000000
8.434109 5.809499 2.161557 38.250000
8.532131 5.778859 2.174980 7.000000
8.309745 5.859708 2.146068 6.000000
8.360169 5.856028 2.154329 0.000000
8.041606 6.087306 2.128721 9.250000
7.736514 6.298512 2.105592 34.000000
7.849149 6.308623 2.125417 0.000000
8.130764 6.286436 2.169198 0.000000
7.941877 6.424324 2.155981 13.000000
8.215991 6.393672 2.197283 15.000000
7.799139 6.493355 2.141938 6.500000
7.927425 6.516343 2.165894 13.500000
10.402674 7.048437 2.195321 15.000000
10.086796 7.306990 2.176045 0.000000
10.124282 7.382753 2.189125 1.000000
8.255230 8.766402 2.103763 11.400000
8.174985 8.846745 2.104451 5.000000
8.040274 8.979932 2.105828 11.000000
10.507586 9.006090 2.169116 27.000000
10.548395 8.955176 2.168806 16.500000
10.404383 9.089121 2.165399 1.000000
7.892741 9.156745 2.112024 37.000000
10.263063 9.224741 2.162921 7.500000
10.345354 9.387177 2.189555 6.000000
7.804774 9.467947 2.143691 0.000000
9.890568 9.497978 2.149295 96.000000
10.274820 9.531252 2.196679 81.500000
10.335635 9.497448 2.200085 66.000000
7.426419 9.608664 2.121662 42.000000
10.239898 9.589033 2.198846 65.000000
7.540624 9.662138 2.141281 36.000000
10.763795 10.869515 2.124029 96.000000
10.540604 11.053262 2.120728 11.000000
10.944967 11.052432 2.159787 74.500000
11.070341 11.039470 2.170789 79.000000
10.438647 11.225462 2.128430 1.000000
10.868891 11.149476 2.161987 66.000000
10.887820 11.274667 2.176291 4.000000
9.880135 11.498903 2.105049 18.500000
9.819236 11.574341 2.107525 2.500000
9.075253 12.210930 2.112476 0.000000
9.204228 12.223299 2.124579 26.000000
-16.020107 19.166639 2.145061 44.000000
-16.334116 19.667553 2.195368 44.000000
-19.896681 36.553806 2.120657 68.000000
-19.791245 36.633701 2.121675 68.000000
-19.677954 36.699215 2.121879 68.000000
-19.566305 36.767910 2.122286 62.000000
18.323982 37.010689 2.104373 39.000000
18.739832 37.553455 2.138571 40.000000
18.904385 37.587185 2.143863 38.000000
19.069334 37.620255 2.149155 56.000000
19.223776 37.631306 2.153227 63.000000
19.382128 37.648869 2.157705 57.000000
19.540783 37.665806 2.162183 35.000000
-17.463661 37.829506 2.123100 34.000000
18.540493 37.745754 2.142845 8.000000
-17.353052 37.902336 2.124118 34.000000
-17.237186 37.963947 2.124525 33.000000
-17.129322 38.043407 2.125950 32.000000
-17.016224 38.111629 2.126764 31.000000
-16.901268 38.175854 2.127375 28.000000
-16.792500 38.254364 2.128800 26.000000
-16.678602 38.321587 2.129614 25.000000
-16.566050 38.392132 2.130632 23.000000
-17.902708 38.462582 2.161776 15.000000
-16.453199 38.462353 2.131649 21.000000
-16.343212 38.539597 2.133075 18.000000
-16.174494 38.647465 2.134805 17.500000
-16.002140 38.747295 2.136128 16.000000
-15.892448 38.826950 2.137756 13.000000
-15.720465 38.929161 2.139283 10.500000
-15.556842 39.052948 2.142031 9.000000
-15.434084 39.101627 2.142031 10.000000
-15.290804 39.097832 2.139181 18.000000
-15.211189 39.257431 2.145288 11.000000
-15.094948 39.323669 2.146306 11.000000
-14.812246 39.512039 2.150173 10.500000
-14.642530 39.626411 2.152616 11.000000
-14.524839 39.690971 2.153634 10.000000
-14.406869 39.755192 2.154651 9.000000
-14.295403 39.837852 2.156687 9.000000
-14.178210 39.905148 2.157908 8.000000
-14.063370 39.979649 2.159537 8.000000
-8.364210 -32.411987 2.289060 20.000000
-8.616597 -32.135136 2.275142 4.000000
-8.692416 -32.015476 2.268593 10.000000
-8.859607 -31.455824 2.234753 20.000000
-11.757185 -30.999903 2.267228 2.000000
-11.280519 -30.909021 2.250036 7.000000
-11.397963 -30.631826 2.235026 8.000000
-11.283732 -30.618805 2.231478 8.000000
-11.999616 -30.478388 2.239938 2.000000
-11.629071 -30.373966 2.224110 5.000000
-11.629493 -30.091610 2.206099 18.000000
-8.061906 -25.522493 2.298378 1.000000
-7.425928 -25.150093 2.251835 16.000000
-7.581116 -24.812191 2.227880 27.000000
-7.469198 -24.864803 2.229419 36.000000
-8.672285 -24.722652 2.249782 2.000000
-8.540069 -24.718010 2.245675 7.500000
-9.647567 -24.504307 2.261417 11.000000
-7.813505 -24.468199 2.205635 29.000000
-9.720082 -24.462769 2.260391 13.000000
-9.313713 -24.402891 2.242937 30.333334
-9.366984 -24.237312 2.231302 35.000000
-9.688081 -23.728075 2.200844 15.000000
-11.131453 -23.580723 2.239173 24.000000
-11.193492 -23.520445 2.236777 38.000000
-10.888321 -23.254648 2.204950 19.000000
-17.755945 -19.221731 2.247044 5.000000
-18.248167 -19.142385 2.271000 64.000000
-18.516630 -19.061026 2.281951 30.000000
-18.336796 -19.054691 2.270828 45.000000
-12.388125 -18.304068 2.285593 29.000000
-12.217353 -18.174490 2.264609 30.000000
-12.177874 -18.239252 2.267901 32.000000
-12.367154 -18.149977 2.271193 30.000000
-12.935964 -17.876904 2.281890 33.000000
-12.309325 -17.943703 2.250209 30.000000
-13.008462 -17.858686 2.284770 25.000000
-12.840259 -17.862534 2.274895 30.000000
-12.410022 -17.789345 2.243008 30.000000
-12.275195 -17.773987 2.233751 36.000000
-12.588696 -17.687780 2.245066 31.000000
-12.453621 -17.673771 2.235808 37.000000
-13.407666 -17.580978 2.286416 21.000000
-13.220177 -17.620495 2.277981 29.500000
-13.478178 -17.501842 2.284359 23.500000
-13.282690 -17.531042 2.274484 26.000000
-13.632440 -17.417374 2.287239 22.000000
-13.679701 -17.365086 2.286005 8.000000
-13.731264 -17.170040 2.273524 22.666666
-13.742432 -16.783995 2.243214 26.000000
-13.610547 -16.783644 2.234574 29.000000
-14.030054 -16.596453 2.247329 26.000000
-13.926661 -16.579515 2.239100 24.000000
-13.843917 -16.586529 2.234162 25.000000
-19.613335 -16.498409 2.200844 12.000000
-13.686348 -16.538105 2.219899 28.666666
-19.807913 -16.345806 2.205293 29.000000
-13.929628 -16.269207 2.214824 10.000000
-14.458561 -16.256470 2.249797 25.000000
-14.223938 -16.145302 2.225111 17.000000
-13.924150 -16.108557 2.201864 33.500000
-15.201470 -15.846409 2.270781 17.000000
-14.825614 -15.357737 2.207418 6.000000
-16.122383 -15.246281 2.294645 3.500000
-15.250478 -15.213257 2.227579 17.000000
-16.140879 -15.072630 2.283742 5.000000
-16.331652 -14.668956 2.270095 21.333334
-16.453232 -14.592489 2.274210 25.666666
-16.576284 -14.547232 2.280656 29.666666
-15.976707 -14.502039 2.231282 26.000000
-15.827505 -14.503222 2.219967 26.500000
-15.742932 -14.562813 2.217704 20.000000
-16.974751 -14.278875 2.293822 2.000000
-17.016468 -14.222929 2.293411 4.000000
-17.146307 -13.924515 2.284153 4.000000
18.947056 -9.909491 2.211121 16.000000
-13.136504 -9.642662 2.262660 5.000000
19.990803 -8.980029 2.266255 38.000000
19.718481 -8.268644 2.211121 1.000000
19.740685 -8.205130 2.210710 30.000000
19.876730 -8.188538 2.223053 30.000000
16.942604 -6.948691 2.217642 18.500000
17.288580 -6.806666 2.250103 25.000000
-13.184952 -5.488367 2.238487 25.000000
-13.114454 -5.410748 2.223622 59.000000
-13.053768 -5.313890 2.209066 51.500000
-13.040187 -5.236832 2.202563 46.000000
-13.197825 -4.871499 2.205040 49.333332
-13.563549 -4.765841 2.253353 13.000000
-13.455407 -4.775383 2.237868 37.000000
-13.310061 -4.794497 2.217428 39.000000
16.095036 -3.807687 2.296493 59.000000
16.130192 -3.735812 2.298968 68.000000
18.213455 -1.283192 2.211150 3.000000
18.243258 -0.997599 2.212593 0.000000
18.484566 -0.400063 2.239042 15.000000
18.390978 -0.311383 2.227501 3.000000
18.213186 -0.251142 2.205860 0.000000
10.604380 1.458276 2.259237 19.000000
15.965750 1.436141 2.225802 8.000000
10.376516 1.548923 2.214355 67.333336
9.567307 1.822385 2.237058 27.333332
9.704231 1.930292 2.272652 49.000000
9.641549 1.965038 2.260116 41.000000
9.434072 2.202309 2.225194 3.500000
9.576593 2.156422 2.254743 85.000000
9.375217 2.297570 2.217134 32.000000
9.493965 2.279302 2.242655 8.000000
9.613881 2.388101 2.275339 2.000000
14.245046 3.022681 2.282465 7.000000
12.414209 3.127449 2.236625 127.000000
12.737535 3.166381 2.293074 4.000000
16.233223 3.231904 2.298235 8.333333
10.218980 3.302610 2.266671 23.000000
9.887987 3.368071 2.204718 62.000000
10.135141 3.363646 2.253867 61.000000
14.214558 3.391629 2.290517 23.000000
10.169684 3.571339 2.274932 35.000000
15.738884 3.598904 2.241755 20.000000
13.688622 3.793563 2.226409 23.500000
9.732609 3.942112 2.216282 8.000000
11.075031 4.125370 2.278222 0.000000
11.005596 4.198174 2.270650 22.000000
13.834655 4.377982 2.274412 12.000000
15.439251 4.435920 2.230478 11.500000
10.413750 4.980503 2.225222 14.500000
10.246541 5.281841 2.222194 69.000000
10.557359 5.470121 2.292103 53.666668
7.874244 5.589730 2.218030 0.000000
9.132726 5.663816 2.268158 42.000000
10.082644 5.730052 2.235570 12.666667
8.032409 5.797404 2.275339 0.000000
8.113563 5.798037 2.290561 16.000000
8.731519 5.755189 2.207196 1.000000
15.082174 5.783465 2.242856 26.000000
15.175938 5.737576 2.252758 28.000000
7.955643 5.876063 2.271757 10.666667
15.100880 5.845119 2.248357 22.000000
14.982679 6.071646 2.244689 11.666667
8.156406 6.513505 2.203066 10.000000
8.244230 6.478254 2.212978 20.000000
7.666271 7.578463 2.275207 27.333334
8.741464 9.519601 2.257966 13.000000
10.380013 9.478254 2.203182 35.000000
10.232731 9.642837 2.203802 57.000000
