# This PCD file was generated using the MATLAB® pcwrite function
# from Computer Vision Toolbox®.
# .PCD v.7 - Point Cloud Data file format
VERSION .7
FIELDS x y z intensity
SIZE 4 4 4 4
TYPE F F F F
COUNT 1 1 1 1
WIDTH 1221
HEIGHT 1
VIEWPOINT 0 0 0 1 0 0 0
POINTS 1221
DATA ascii
-13.652480 -20.301727 3.397016 29.000000
-13.727300 -20.275139 3.399766 33.000000
-13.461138 -20.291357 3.381062 12.000000
-13.177160 -19.999399 3.325500 6.000000
-13.293757 -19.903030 3.323299 67.000000
-7.335977 -19.895729 3.323665 7.000000
-7.618643 -19.795532 3.324594 11.000000
-8.100217 -19.652594 3.331717 42.000000
-8.551021 -19.516777 3.339769 27.000000
-8.363600 -19.589231 3.338530 20.000000
-9.277054 -19.484743 3.382507 26.000000
-8.844956 -19.408474 3.343072 27.666666
-8.578751 -19.413910 3.326762 27.000000
-8.218843 -19.418892 3.305083 27.000000
-8.165439 -19.462835 3.308180 10.000000
-8.920671 -19.359316 3.341008 31.000000
-8.334437 -19.352352 3.302605 26.000000
-8.982553 -19.254366 3.330168 32.000000
19.861042 -18.696472 3.303260 48.000000
19.939976 -18.652977 3.306627 47.000000
-16.146421 -18.147833 3.372810 4.000000
-15.453289 -18.157553 3.310646 1.000000
-8.933113 -16.943159 3.346333 17.000000
-8.844073 -16.967567 3.342891 7.000000
-8.712098 -16.973724 3.333253 14.000000
-18.590162 -15.782385 3.386013 33.500000
-18.690498 -15.666513 3.386288 25.000000
-9.247965 -14.932894 3.385912 15.000000
-11.545730 -13.221139 3.383640 5.000000
-11.416458 -13.198164 3.363955 9.000000
-7.404245 -12.564901 3.349879 14.000000
-7.612099 -12.421772 3.346297 32.500000
-7.816103 -12.359076 3.358833 3.000000
-7.652066 -12.355961 3.338238 27.000000
-7.635146 -12.242546 3.314061 39.000000
-10.844501 -11.880406 3.395051 32.000000
-11.043687 -11.576769 3.376878 52.000000
-10.908806 -11.565475 3.355566 29.200001
-7.668076 -11.245193 3.379174 19.000000
-11.369933 -11.122605 3.357052 7.000000
-11.132561 -11.167589 3.328141 3.000000
-7.547804 -11.143872 3.341584 30.000000
-11.332361 -10.970388 3.328967 33.666668
-11.321791 -10.868595 3.312446 7.000000
-7.779346 -10.029038 3.392169 25.500000
-7.692128 -10.079100 3.388554 29.000000
-12.659081 -9.819416 3.381421 5.000000
-7.772945 -9.891860 3.362218 26.500000
-7.754054 -9.689016 3.316604 30.666666
-14.326862 -9.572908 3.321555 18.000000
-14.283337 -9.446789 3.301112 53.500000
-13.016695 -9.457175 3.395876 23.000000
-9.874807 -9.479532 3.398450 9.000000
-15.323668 -8.455631 3.373797 4.000000
-15.233033 -8.343294 3.348055 6.000000
-13.310082 -8.300924 3.310794 11.000000
-17.998852 -7.359856 3.397274 14.000000
-15.851583 -7.217359 3.357519 19.500000
-17.803411 -7.149704 3.351840 8.000000
-15.786949 -7.098244 3.336698 3.000000
-15.857882 -7.040533 3.344648 20.500000
-15.992058 -6.920316 3.359033 25.500000
-17.959000 -6.693166 3.348398 4.000000
-15.861639 -6.599316 3.311712 2.000000
-16.203440 -6.563072 3.370012 4.000000
-16.191557 -5.973383 3.326855 0.000000
-15.045343 -5.685181 3.394638 35.000000
-15.081970 -5.574816 3.393729 22.400000
-15.133434 -5.475240 3.396703 0.000000
-13.805425 -5.340919 3.400024 1.000000
-16.819853 -5.261349 3.397269 4.000000
-15.141483 -5.274650 3.384147 28.600000
-15.232239 -5.108457 3.390920 33.000000
-16.689495 -4.934146 3.354869 6.000000
-16.728319 -4.323123 3.330641 15.000000
-16.854399 -3.407625 3.314741 38.000000
-16.922035 -2.743803 3.304646 18.666666
-17.226889 -2.672974 3.360548 37.500000
-17.214062 -2.588019 3.355626 2.000000
-17.121075 -2.519065 3.335941 2.000000
-17.156012 -2.414176 3.339726 18.000000
-17.070126 -2.347420 3.321555 23.000000
-17.036947 -2.179460 3.310955 37.000000
17.432734 0.410854 3.361431 11.000000
17.451984 0.575877 3.366037 19.250000
17.433346 0.684958 3.363198 4.000000
-12.635931 0.775062 3.383390 43.000000
19.241352 0.759358 3.364231 2.000000
-12.531872 0.827931 3.356538 57.000000
-12.458969 0.901809 3.338464 62.500000
-12.392086 1.014425 3.322973 68.000000
17.100443 1.048903 3.302627 4.000000
-12.363932 1.168721 3.319099 63.250000
17.360102 1.283986 3.355626 29.000000
17.434532 1.216037 3.369002 29.000000
-12.396157 1.309500 3.331407 60.000000
-12.317843 1.497166 3.316259 11.000000
-12.408945 1.547817 3.342079 33.000000
17.105989 1.589885 3.311712 5.000000
17.257238 1.508176 3.339348 16.500000
-12.336342 1.755689 3.330202 41.000000
17.399086 1.893218 3.373797 17.000000
17.428383 1.841024 3.378340 7.000000
17.180046 1.978683 3.333669 4.000000
-13.113199 2.608379 3.319417 22.000000
-13.060252 2.897783 3.321344 0.000000
-13.043509 2.937090 3.319417 38.000000
-17.055738 3.578681 3.359412 15.333333
17.077606 3.601932 3.364459 37.333332
-17.128942 3.687767 3.377583 3.000000
-12.826796 3.661070 3.311706 23.000000
14.268829 3.759300 3.389279 8.500000
18.923084 4.046377 3.380753 22.000000
18.873032 4.128790 3.375246 65.000000
16.988167 4.733594 3.399540 24.000000
13.942770 4.871741 3.392413 6.500000
-13.774053 5.378589 3.396442 27.000000
-13.618065 5.391720 3.364206 48.500000
-13.520147 5.426841 3.346297 59.000000
-13.442780 5.518723 3.337790 67.500000
-13.371128 5.661968 3.335253 67.666664
18.350853 5.743775 3.359412 1.000000
-13.363639 5.807968 3.346894 66.666664
18.317936 5.828361 3.358380 17.000000
-13.422163 5.959146 3.373160 56.500000
18.093744 5.976928 3.329123 19.000000
-13.486413 6.063861 3.396442 46.000000
17.874592 6.133803 3.301586 34.000000
15.465969 7.667282 3.327612 30.000000
15.452345 7.721099 3.329884 21.000000
9.091120 8.564042 3.337948 2.000000
9.071957 8.618020 3.344145 18.333334
8.940401 8.968532 3.384423 16.000000
8.748361 9.113150 3.376161 13.000000
18.976997 9.598462 3.333265 23.000000
18.810101 9.925834 3.333575 16.000000
18.918207 9.907022 3.347202 3.000000
18.677465 10.082024 3.326762 38.000000
18.705563 10.021429 3.326142 10.000000
18.855585 10.025694 3.347202 5.000000
18.603733 10.155671 3.322116 14.500000
18.502045 10.213678 3.312516 6.000000
11.676957 10.794068 3.356226 19.000000
18.791069 10.814089 3.398198 25.333334
13.523070 11.295017 3.396512 1.000000
10.826861 11.421102 3.321532 9.000000
13.004169 11.501071 3.346540 22.000000
13.158249 11.563873 3.376826 1.000000
13.346963 11.508600 3.397269 19.000000
10.428203 11.667485 3.302809 26.333334
10.732965 11.610856 3.337227 14.000000
10.583594 11.741903 3.336401 15.000000
13.139375 11.768607 3.400297 21.000000
12.019938 12.287256 3.313479 12.333333
11.960749 12.381392 3.318527 40.000000
12.514731 12.397337 3.395754 3.000000
12.125793 12.631413 3.375312 8.000000
11.645659 12.758095 3.329884 43.000000
11.832262 12.719667 3.348812 52.000000
12.025160 12.845872 3.391969 17.000000
11.298586 13.355879 3.372283 64.000000
16.477976 13.334081 3.322426 22.000000
16.345234 13.440504 3.316851 5.000000
16.342562 13.567858 3.329239 21.000000
9.338595 14.363705 3.302627 20.000000
15.680951 14.409275 3.337911 7.000000
15.839952 14.463864 3.362067 44.000000
9.166139 14.595097 3.322312 17.000000
9.321574 14.536702 3.328874 6.333333
7.973832 15.174953 3.304520 40.000000
14.634226 15.154184 3.301986 43.000000
14.887238 15.255508 3.341008 28.333334
15.044622 15.256118 3.358351 23.666666
14.775489 15.739883 3.383746 1.500000
14.000621 15.936573 3.324903 40.000000
14.133282 15.935402 3.338530 5.500000
10.364942 16.058601 3.339219 62.666668
10.500906 16.047068 3.350463 5.000000
14.427268 16.011862 3.378171 10.000000
13.345121 16.397766 3.313754 5.000000
9.926653 16.691822 3.392915 46.666668
10.010535 16.634012 3.391767 1.000000
9.863319 16.744593 3.395209 5.000000
9.642343 16.850115 3.391767 20.000000
11.719779 20.782290 3.312847 2.000000
12.121249 20.876648 3.351906 19.000000
12.069454 20.938652 3.355756 19.000000
11.915698 21.285725 3.387113 28.000000
11.793202 21.380987 3.390414 2.000000
11.893030 21.402706 3.399766 30.000000
9.542464 21.967131 3.325500 28.000000
9.630508 21.980591 3.332101 0.000000
10.516212 21.909760 3.374460 2.000000
8.857997 22.281799 3.329350 11.000000
8.907300 22.202381 3.321649 4.000000
8.580288 22.504696 3.344204 13.000000
-16.554495 -23.651054 3.496099 20.000000
-15.774641 -23.626263 3.440315 1.000000
-16.781277 -23.500448 3.497061 1.000000
-16.639389 -23.535458 3.490569 21.500000
-11.528830 -22.375013 3.494938 1.000000
-10.977443 -22.328785 3.454779 4.000000
-11.824636 -22.089869 3.478984 8.000000
-14.146141 -20.338480 3.439925 1.000000
-13.826633 -20.284292 3.408568 13.000000
-10.007109 -19.879625 3.488423 23.000000
-9.526320 -19.847391 3.450640 58.000000
-9.690284 -19.710627 3.442588 27.000000
-10.148769 -19.696608 3.472939 9.000000
-9.949718 -19.611969 3.446924 25.000000
-9.488799 -19.611046 3.414716 28.000000
-9.293422 -19.678164 3.410999 5.000000
-9.539964 -19.559830 3.410999 28.000000
-10.114084 -19.478746 3.440111 30.000000
-6.027747 -19.071136 3.494339 23.000000
-5.932532 -18.977156 3.473687 24.000000
-5.800724 -18.762299 3.431006 26.000000
-7.861150 -18.174793 3.459575 0.500000
-7.925387 -18.088837 3.450282 0.000000
-7.595374 -18.024776 3.417238 31.500000
-9.086453 -15.272897 3.425787 24.666666
-8.985196 -13.756983 3.468018 19.333334
-14.837640 -13.294368 3.480571 2.000000
-11.649436 -13.255608 3.401811 10.000000
-18.004438 -12.785630 3.461170 1.000000
-10.159799 -12.722405 3.436353 4.000000
-7.731340 -12.750885 3.425097 16.000000
-7.619778 -12.746703 3.411068 23.333334
-7.889198 -12.561847 3.407188 2.000000
-10.898635 -12.496052 3.499628 15.000000
-11.052637 -12.262280 3.484263 79.000000
-10.938334 -12.212398 3.460308 26.000000
-11.062181 -12.195608 3.475177 60.000000
-10.803947 -12.177498 3.435940 4.500000
-11.078332 -11.984473 3.444613 11.000000
-10.958552 -11.929865 3.419006 2.000000
-7.524512 -11.613300 3.435558 7.500000
-7.479124 -11.663362 3.439895 9.000000
-9.727978 -11.572713 3.472556 13.500000
-7.922894 -11.463409 3.459653 26.250000
-8.083163 -11.386736 3.466882 40.000000
-7.926540 -11.240750 3.414835 34.000000
-14.226776 -11.143193 3.483582 21.000000
-14.083743 -11.102723 3.457082 30.000000
-12.013212 -11.104900 3.452874 8.000000
-12.334144 -10.771140 3.456178 1.000000
-7.549564 -10.635056 3.485636 0.000000
-7.475033 -10.671473 3.482124 25.000000
-7.377976 -10.675041 3.468078 31.000000
-7.847206 -10.417376 3.485636 15.000000
-12.743518 -10.308455 3.459482 10.000000
-7.606742 -10.347136 3.432226 29.571428
-12.788040 -10.278178 3.462786 3.000000
-12.574492 -10.237243 3.422310 12.000000
-7.790545 -10.208080 3.431931 30.500000
-15.048594 -10.055154 3.488882 2.000000
-13.107176 -10.068400 3.488394 5.000000
-12.700509 -9.947737 3.404963 21.000000
-10.156751 -9.628294 3.474592 0.000000
-9.890302 -9.634747 3.428008 26.000000
-11.717970 -9.509350 3.466287 8.500000
-10.192283 -9.511162 3.461099 9.000000
-13.115140 -9.434602 3.409919 4.000000
-9.915776 -9.459181 3.402306 12.000000
-11.823688 -9.321039 3.458228 0.000000
-10.348320 -9.229654 3.442626 21.083332
-12.087360 -9.164834 3.484196 32.000000
-10.431983 -9.138998 3.443268 20.000000
-10.504420 -9.000154 3.434304 28.200001
-10.554916 -8.900685 3.427847 5.500000
-10.393224 -8.961698 3.407125 28.000000
-12.197556 -8.832801 3.459124 40.000000
-12.193596 -8.771673 3.450169 31.000000
-12.697949 -8.312468 3.485987 28.000000
-12.678113 -8.385134 3.491360 38.000000
-12.854139 -8.110282 3.491061 34.333332
-14.480016 -8.049544 3.496654 0.000000
-12.868521 -7.969540 3.476734 36.666668
-14.587574 -7.635928 3.475177 2.000000
-12.973449 -7.672506 3.462034 33.250000
-14.576759 -7.572023 3.466917 3.000000
-13.183314 -7.503160 3.484196 32.200001
-12.980326 -7.512288 3.444797 35.000000
-13.227755 -7.380674 3.479271 39.500000
-15.001348 -7.030334 3.496654 35.000000
-15.005878 -6.946401 3.490046 33.500000
-15.134789 -6.427477 3.470496 23.000000
-15.112575 -6.315549 3.457004 18.000000
-15.242329 -5.979567 3.455765 11.000000
-15.160303 -5.828621 3.428092 29.333334
-16.832108 -5.556909 3.416954 34.000000
-15.628614 -5.543592 3.499958 16.000000
-19.146778 -5.403559 3.475753 12.000000
-16.982994 -5.371018 3.433611 7.000000
-16.820133 -5.377693 3.404083 4.000000
-15.270993 -5.201648 3.404963 18.000000
-15.467454 -4.998825 3.430846 33.666668
-15.323057 -5.058714 3.405789 19.000000
-15.718125 -4.916722 3.476003 17.000000
-15.501093 -4.902354 3.431396 34.000000
-15.692588 -4.746837 3.460308 1.000000
-15.591476 -4.796541 3.442961 36.000000
19.475441 0.462364 3.403470 23.000000
19.474155 0.646024 3.404159 18.000000
-12.723177 0.740296 3.406111 0.000000
17.792070 0.923102 3.434368 12.000000
19.451307 1.073875 3.403470 12.000000
17.728010 1.367208 3.427554 18.000000
19.593090 1.948744 3.439955 43.000000
19.588654 2.031210 3.440644 35.666668
19.609110 2.137156 3.446151 20.000000
-12.889629 2.228745 3.495963 25.000000
19.653202 2.204460 3.455100 5.000000
-12.761609 2.330685 3.467046 48.000000
19.647200 2.391492 3.457854 3.000000
-16.320992 2.663865 3.490321 41.000000
19.750803 2.782825 3.484702 35.000000
-16.287441 2.816266 3.488669 29.666666
-16.318275 2.927298 3.499132 13.000000
19.725958 3.032592 3.486767 1.000000
17.765259 3.158109 3.478282 9.000000
17.699980 3.232591 3.468439 18.000000
19.697491 3.324503 3.489980 32.000000
-17.596941 3.500251 3.458597 0.000000
19.696356 3.409232 3.492274 3.000000
19.326130 3.533064 3.432383 3.000000
14.392484 3.623154 3.408979 14.000000
19.477638 3.624032 3.461296 5.000000
14.619015 3.729058 3.465392 18.000000
14.299911 3.839676 3.400919 6.000000
14.446704 4.469239 3.473451 3.000000
14.505409 4.437518 3.484196 9.000000
14.186968 4.560429 3.422858 8.000000
14.422056 4.561097 3.474346 3.000000
14.245021 4.653239 3.442110 8.000000
17.010527 4.682285 3.401054 8.000000
14.130342 4.763624 3.425097 12.000000
14.019033 4.824404 3.405397 7.000000
19.379606 4.947005 3.494339 19.000000
18.801037 5.540566 3.424352 24.333334
18.833048 5.635856 3.434448 6.000000
12.812660 5.857980 3.497724 12.000000
18.752747 5.804944 3.429629 17.000000
-13.563160 6.149670 3.420619 5.000000
12.452427 6.344863 3.469773 19.000000
-16.532055 7.433265 3.494182 31.000000
16.503397 7.420383 3.488125 14.000000
16.300230 7.701604 3.475254 2.000000
16.338572 7.657024 3.478282 12.000000
16.322052 7.774731 3.485096 5.000000
16.233641 7.984423 3.487368 13.000000
-16.186230 8.119543 3.490775 14.500000
-16.049040 8.209214 3.475001 14.000000
-16.028812 8.358299 3.484718 12.000000
17.985508 8.686773 3.489521 25.333334
17.850246 8.748623 3.472999 17.500000
9.470392 8.837482 3.461882 13.000000
9.165652 8.966273 3.426767 9.000000
17.872648 8.934356 3.490897 21.000000
8.961308 9.189387 3.430382 7.500000
8.951467 9.266277 3.443291 27.000000
17.445240 9.310892 3.454756 11.000000
17.200825 9.565993 3.438579 9.000000
17.244589 9.519526 3.441332 28.000000
17.540489 9.611097 3.494339 2.000000
17.034811 9.755926 3.429629 49.000000
17.146925 9.963731 3.464738 1.000000
17.253231 9.953129 3.479883 2.000000
16.621056 10.153502 3.402782 25.000000
17.028812 10.256230 3.472999 0.000000
14.558266 10.472682 3.457082 58.666668
14.684654 10.424273 3.471468 0.000000
14.501719 10.570959 3.459354 53.000000
16.652653 10.535508 3.442709 7.000000
19.032804 10.584823 3.413477 1.000000
18.999456 10.644565 3.413477 30.000000
19.072508 11.082647 3.457454 28.000000
11.736382 11.125737 3.413224 13.000000
18.953625 11.133316 3.445375 12.000000
13.519243 11.400355 3.409004 13.000000
11.647316 11.465781 3.449569 3.000000
11.708458 11.453766 3.457004 1.000000
11.135538 11.673052 3.404963 12.000000
13.444235 11.666312 3.431340 19.000000
13.728065 11.724878 3.480175 13.500000
13.405129 11.930950 3.459354 39.000000
13.097477 12.031097 3.428311 25.000000
11.074056 12.131889 3.466917 5.000000
13.108324 12.155405 3.446104 20.000000
13.438621 12.164088 3.494182 35.000000
10.660519 12.246233 3.426853 12.000000
12.765122 12.292711 3.416197 11.500000
13.393388 12.225557 3.495696 27.000000
12.905328 12.311072 3.438154 0.000000
10.411835 12.871318 3.494176 19.000000
12.159719 12.908094 3.418468 8.000000
12.293473 13.299004 3.491153 84.000000
12.241005 13.325989 3.488125 51.000000
10.886171 13.988938 3.416954 2.000000
10.945913 13.929729 3.415061 14.500000
14.112611 14.161958 3.492963 1.000000
13.762513 14.251498 3.461296 20.000000
10.870697 14.431143 3.482825 7.000000
10.106804 14.871675 3.466168 21.500000
15.606861 15.661434 3.465506 0.000000
7.259623 16.213890 3.424525 6.500000
7.447172 16.288561 3.452539 22.000000
7.994823 16.254786 3.491911 12.000000
8.059806 16.257742 3.497968 4.000000
14.392286 16.486567 3.430200 6.000000
14.149413 16.731720 3.434536 6.000000
14.324845 16.831636 3.464267 0.000000
13.971201 17.057272 3.455905 3.000000
13.806341 17.294905 3.468603 13.000000
14.117733 17.236219 3.492140 28.000000
13.716080 17.348911 3.466435 9.000000
13.682175 17.531324 3.485636 2.000000
7.870090 18.117262 3.450970 6.000000
7.368547 18.311378 3.448446 27.666666
7.889505 18.319225 3.484702 5.000000
7.678988 18.411285 3.485161 15.000000
9.902714 19.905323 3.484707 44.000000
9.035410 20.274813 3.479132 14.000000
7.521242 20.799883 3.466745 7.000000
11.809340 21.895691 3.454229 1.000000
11.307339 22.029999 3.438275 21.000000
11.214142 22.104280 3.441576 8.000000
-17.123594 -23.508150 3.522067 5.000000
-12.084735 -22.920744 3.597811 8.000000
12.346188 -22.616322 3.577731 46.000000
12.430622 -22.518032 3.571405 60.000000
12.508585 -22.409010 3.563428 44.000000
12.657925 -22.345490 3.565904 45.000000
12.802019 -22.272388 3.567004 47.000000
12.949692 -22.205200 3.569204 48.000000
13.092994 -22.130215 3.570305 48.000000
13.233815 -22.050913 3.570855 47.500000
13.343761 -21.998497 3.572505 47.000000
13.412806 -21.956467 3.572505 46.000000
13.519234 -21.898043 3.573330 47.000000
13.662865 -21.822741 3.574981 46.000000
13.806078 -21.746502 3.576631 46.000000
13.978210 -21.640127 3.577090 56.333332
14.182681 -21.656906 3.594510 49.000000
-10.184021 -20.443623 3.579887 35.333332
-15.751735 -20.248571 3.562053 2.000000
-16.055435 -19.983213 3.559302 31.000000
-15.840925 -19.971951 3.539498 5.000000
-16.030943 -19.824846 3.540048 15.000000
-11.590712 -19.819246 3.598675 2.000000
-11.606720 -19.424173 3.546646 16.000000
-6.149282 -19.106794 3.506731 23.666666
-12.017519 -18.878265 3.507625 10.000000
-13.189449 -18.711098 3.588146 12.000000
-8.649967 -18.617735 3.586586 35.000000
-8.556805 -18.569668 3.572129 3.000000
-8.434549 -18.456688 3.545281 29.000000
-8.270095 -18.299128 3.508337 28.666666
-7.809092 -16.939228 3.595638 28.000000
-7.439544 -16.971895 3.572167 37.000000
-7.332996 -16.945446 3.559296 27.000000
-7.185146 -16.820925 3.525982 14.000000
-7.847394 -16.676559 3.552860 27.500000
-9.213850 -15.978170 3.555510 18.000000
-9.252468 -15.871763 3.541503 18.500000
-4.198714 -14.977535 3.572846 8.500000
-15.110422 -13.885015 3.585209 7.000000
-14.919036 -13.883048 3.560426 37.000000
-9.230234 -13.814019 3.506567 22.000000
-9.162088 -13.868672 3.508219 25.000000
-15.291340 -13.614515 3.576948 4.000000
-14.967693 -13.538558 3.526006 9.000000
-15.290277 -13.484967 3.561803 64.500000
-15.386822 -13.356713 3.559738 66.000000
-15.232021 -13.306479 3.533578 95.000000
-10.636755 -13.107141 3.562738 10.000000
-10.330400 -13.146443 3.528870 20.000000
-10.720706 -13.084161 3.570172 10.000000
-10.474710 -13.088546 3.538232 21.000000
-18.351284 -12.945411 3.520012 42.000000
-8.423409 -12.956059 3.549564 2.000000
-9.836144 -12.004747 3.564787 4.500000
-9.720678 -12.068424 3.559414 26.333334
-11.832253 -11.906857 3.542913 24.500000
-10.011429 -11.910035 3.573741 15.000000
-10.191148 -11.844169 3.588964 17.000000
-9.697904 -11.835876 3.514642 11.000000
-9.762121 -11.762707 3.511060 9.000000
-10.367459 -11.648454 3.581800 9.000000
-10.135947 -11.680647 3.552251 2.000000
-10.123872 -11.592955 3.535237 1.000000
-10.476406 -11.448149 3.564429 25.799999
-10.628405 -11.389513 3.578219 20.500000
-10.666543 -11.251982 3.561205 20.000000
-7.439456 -10.959229 3.540029 41.000000
-7.447199 -10.847903 3.516619 14.000000
-11.136937 -10.758571 3.556728 18.000000
-12.027022 -9.666522 3.544192 0.000000
-14.112937 -9.494231 3.589998 7.000000
-12.246585 -9.437952 3.551355 5.000000
-12.153267 -9.488291 3.541505 20.500000
-12.464985 -9.206776 3.559414 27.000000
-12.452984 -9.137590 3.547773 33.000000
-12.428072 -9.059386 3.532551 38.000000
-12.697881 -8.835121 3.553146 27.000000
-12.596622 -8.823524 3.532551 3.000000
-12.430438 -8.882917 3.509269 13.000000
-12.728146 -8.650034 3.534789 21.500000
-12.617336 -8.691170 3.519119 25.500000
-18.278000 -8.534731 3.524285 7.500000
-12.858910 -8.592053 3.552251 14.000000
-12.856459 -8.278552 3.512314 33.599998
-13.105837 -8.002974 3.527178 3.000000
-13.095740 -7.884280 3.511060 32.000000
-15.070114 -7.768274 3.578433 22.000000
-15.028053 -7.657219 3.559847 31.000000
-14.987419 -7.528027 3.539884 20.666666
-15.071051 -7.471499 3.550347 4.000000
-15.128208 -7.381801 3.552825 3.750000
-13.389903 -7.352045 3.508672 28.000000
-15.071338 -7.217736 3.526942 38.666668
-13.443227 -7.199122 3.502702 21.666666
-13.395484 -7.282238 3.502105 32.000000
-16.745075 -7.152744 3.510082 18.000000
-15.120732 -7.144310 3.529696 28.000000
-15.131008 -6.917933 3.511523 10.000000
-15.265480 -6.606015 3.510697 20.000000
-15.362906 -6.335265 3.507393 11.000000
-19.512207 -6.174710 3.575571 3.500000
-19.611002 -5.935851 3.579701 14.000000
-19.569649 -5.990517 3.575571 34.000000
-19.538336 -5.780097 3.559738 5.000000
-13.303864 -5.707552 3.594107 9.500000
-13.291172 -5.603483 3.581095 38.500000
-13.089845 -5.446097 3.519892 16.000000
-19.300299 -5.381475 3.500535 15.000000
-13.401713 -5.233194 3.571939 21.000000
-13.312776 -5.278933 3.555554 27.666666
-13.338433 -5.160253 3.550735 38.000000
-13.328224 -5.048334 3.538446 21.500000
-17.695692 -4.930737 3.541124 2.000000
-13.476075 -4.971578 3.566156 11.666667
-15.943542 -4.713610 3.509045 5.000000
-16.137970 -4.624418 3.543188 31.333334
-15.958271 -4.663502 3.509045 33.000000
-16.207891 -4.516175 3.551173 35.000000
-16.031649 -4.521394 3.515653 25.000000
-16.353024 -4.446087 3.576781 31.000000
-16.286146 -4.482894 3.565216 38.000000
18.629009 0.029262 3.591095 37.000000
18.667978 0.107455 3.598667 19.000000
18.259995 1.465957 3.531282 15.000000
16.796921 2.095144 3.572650 29.000000
16.534035 2.115126 3.518131 5.000000
16.878860 2.240138 3.593715 2.500000
-12.974267 2.327424 3.522816 53.000000
-12.921382 2.429859 3.513865 63.333332
-16.435642 2.523741 3.509596 20.666666
-13.182620 2.579157 3.589946 29.000000
-12.909880 2.737013 3.526947 0.000000
-16.465759 3.141088 3.537956 1.500000
-12.690153 3.579005 3.523848 18.000000
14.820113 3.631942 3.504792 19.000000
14.925919 3.707618 3.532551 4.000000
16.343325 3.761094 3.539608 10.500000
19.723507 3.766028 3.508107 59.500000
13.712550 3.867338 3.537241 3.000000
16.218433 3.839863 3.517718 16.000000
13.774994 3.931709 3.556518 4.000000
17.795631 3.948456 3.513868 24.000000
13.655424 4.037145 3.535314 11.000000
13.741265 4.156585 3.564228 14.000000
19.399891 5.049744 3.502256 9.000000
19.457804 5.162779 3.517057 7.000000
19.620338 5.271937 3.549412 10.000000
-13.343983 5.675216 3.600131 64.000000
12.888662 5.730307 3.501901 21.666666
12.905856 5.998914 3.533386 0.000000
12.761496 6.005138 3.501580 26.500000
15.784374 6.021118 3.565629 73.500000
12.904822 6.146992 3.548807 14.000000
15.697197 6.186455 3.561086 76.000000
15.715212 6.108154 3.558608 71.500000
15.689650 6.269080 3.566042 72.500000
15.736136 6.373791 3.583389 65.000000
16.833145 7.065633 3.519167 2.000000
17.036758 7.056923 3.554753 6.000000
16.778315 7.104698 3.512353 17.000000
15.319027 7.277237 3.579534 21.000000
16.770447 7.351240 3.529768 0.000000
16.949768 7.303230 3.557781 1.000000
16.616308 7.408485 3.507053 18.000000
16.829893 7.440418 3.547182 3.000000
-16.627329 7.570411 3.521818 3.000000
-16.708878 7.766649 3.551913 34.250000
14.830297 7.762981 3.533000 0.000000
15.122318 7.735152 3.585041 7.000000
-16.612793 7.881225 3.544532 12.500000
14.897301 7.887707 3.557782 5.000000
15.080365 7.833623 3.586693 7.000000
-16.524145 7.934785 3.533553 1.000000
-16.378660 7.991942 3.513110 14.000000
-16.534491 8.003769 3.541124 17.000000
-16.314396 8.055961 3.507432 13.000000
16.459661 8.517246 3.572546 18.500000
18.346674 9.315853 3.594846 5.000000
17.719442 9.636895 3.523941 27.000000
13.513770 10.380726 3.596606 2.000000
13.380372 10.480243 3.587244 64.000000
13.484187 10.425524 3.597432 44.000000
17.192812 10.801764 3.547347 38.000000
16.688526 11.499748 3.540807 10.500000
12.219630 11.730492 3.575129 20.000000
18.971262 11.877563 3.508244 13.500000
11.964256 12.001902 3.576781 7.000000
18.918430 11.968981 3.508863 23.000000
19.278980 11.944159 3.554698 12.000000
16.384010 12.026449 3.550789 23.000000
18.927397 12.058080 3.517535 24.000000
18.833778 12.123611 3.510721 26.500000
18.810165 12.276289 3.520632 38.000000
11.473131 12.333602 3.555304 35.000000
18.913813 12.471362 3.550982 7.000000
10.974566 12.727624 3.547043 1.000000
9.786988 13.786842 3.568520 63.000000
9.909987 13.775980 3.581737 2.000000
9.702415 13.851338 3.569346 51.000000
9.690145 13.926726 3.580911 26.000000
9.411862 14.182096 3.592476 6.000000
10.709640 14.789352 3.519925 7.000000
10.385729 15.128293 3.537339 19.000000
9.968807 15.228134 3.508568 18.000000
9.692545 15.433284 3.513110 2.000000
9.303110 15.618537 3.504403 10.500000
9.474249 15.680756 3.531660 32.500000
9.692578 15.650820 3.548696 25.000000
9.598145 15.718116 3.550210 4.000000
9.757677 15.755924 3.572546 12.000000
8.009169 16.413958 3.520682 1.000000
7.646299 16.586105 3.520682 17.000000
7.533826 16.615934 3.516896 8.000000
7.864360 16.644701 3.548696 13.000000
7.928436 16.644735 3.553996 1.000000
8.023192 16.708260 3.572924 42.000000
8.111581 16.757214 3.588824 46.000000
6.949247 16.851789 3.513868 13.000000
7.030821 16.898775 3.528253 2.000000
7.888701 16.832924 3.583524 0.000000
6.933420 16.964432 3.532796 23.000000
14.590283 16.926882 3.502669 2.000000
7.263831 17.005135 3.564596 2.000000
6.849551 17.142334 3.558538 4.000000
7.270102 17.168926 3.594124 5.000000
6.803225 17.262157 3.576710 19.000000
7.423771 18.674086 3.510861 13.000000
7.606888 18.621527 3.514303 0.000000
7.972710 18.673691 3.547347 37.000000
8.897155 20.658960 3.525587 19.000000
9.958927 20.665398 3.595578 22.000000
10.064863 20.636028 3.598675 67.000000
7.662455 20.984026 3.501431 8.000000
7.543779 21.068960 3.507625 5.000000
7.381990 21.138718 3.509483 9.500000
7.915481 21.261368 3.555937 8.000000
9.826684 28.013573 3.595163 16.000000
-19.367062 -29.006765 3.606752 2.000000
14.460917 -21.781918 3.630268 106.000000
14.572212 -21.726662 3.632469 109.500000
14.281183 -21.658550 3.602212 65.000000
14.720692 -21.652691 3.635494 110.500000
14.866561 -21.574455 3.637970 109.000000
15.012024 -21.495243 3.640445 107.500000
15.020908 -21.222622 3.610189 54.000000
15.168961 -21.148756 3.613764 62.000000
15.313190 -21.069054 3.616515 54.500000
-15.581546 -20.965279 3.626967 4.000000
15.460543 -20.993156 3.620091 53.000000
15.607538 -20.916245 3.623667 50.500000
-15.911051 -20.856026 3.642371 1.000000
-15.630721 -20.894016 3.623116 4.000000
15.756575 -20.841465 3.627793 53.500000
15.902872 -20.762499 3.631368 47.500000
16.048801 -20.682514 3.634944 51.500000
16.196796 -20.604633 3.639070 48.500000
-11.143595 -20.506868 3.658137 2.000000
-10.509599 -20.555248 3.618496 2.000000
-10.328714 -20.518513 3.600533 3.000000
16.346916 -20.528805 3.643746 48.500000
16.497967 -20.453444 3.648697 49.000000
16.648724 -20.376986 3.653648 47.500000
16.796631 -20.296398 3.658050 56.500000
17.012905 -20.296734 3.677304 51.000000
17.122446 -20.233009 3.680330 59.000000
17.196201 -20.191183 3.682530 66.000000
17.311821 -20.133915 3.686931 65.000000
17.467892 -20.059116 3.693257 64.000000
17.579245 -19.995951 3.696833 65.000000
17.781368 -19.720507 3.686931 80.000000
17.878101 -19.640846 3.687756 92.000000
18.032028 -19.561638 3.694083 102.500000
18.148310 -19.502584 3.699034 94.000000
-9.002902 -18.908939 3.658868 37.000000
-9.055443 -18.866354 3.656114 6.000000
-8.855954 -18.751856 3.623071 24.000000
-8.753540 -18.686811 3.605172 14.000000
-7.763459 -17.266413 3.649395 32.000000
-7.681985 -17.229734 3.636523 28.000000
-7.591291 -17.171162 3.619109 27.000000
-15.638427 -16.923483 3.611683 3.000000
-7.888760 -16.971600 3.607752 29.000000
-9.517570 -16.151184 3.613810 1.000000
-13.796198 -15.954879 3.685027 13.000000
-11.815873 -15.036907 3.686494 5.500000
-11.960630 -14.953417 3.691226 16.250000
-11.614650 -14.925047 3.645609 22.000000
-8.674323 -14.826494 3.625517 12.000000
-14.875338 -14.284887 3.603107 20.000000
-15.102565 -14.142619 3.614810 8.000000
-9.822029 -14.116273 3.629648 17.000000
-10.590648 -13.697803 3.654429 10.000000
-8.805709 -13.451411 3.692836 35.000000
-11.230354 -13.388598 3.688297 34.000000
-10.975899 -13.310097 3.641212 1.000000
-11.252112 -13.216514 3.663516 27.000000
-11.227503 -13.062424 3.635430 24.500000
-13.890037 -12.759129 3.635767 18.000000
-13.907298 -12.630663 3.621532 26.200001
-17.173721 -12.034101 3.663687 5.000000
-8.024186 -12.091101 3.602781 38.000000
-17.304089 -11.964061 3.675390 10.000000
-10.607162 -11.993432 3.677614 37.000000
-17.185684 -11.802562 3.642346 9.000000
-14.882271 -11.884611 3.671352 25.000000
-10.378991 -11.810000 3.611350 3.000000
-10.515844 -11.740699 3.620305 11.000000
-10.495255 -11.643896 3.600605 15.000000
-7.543211 -11.562456 3.689610 18.500000
-11.220903 -11.470416 3.685673 18.000000
-11.123902 -11.466920 3.669555 27.333334
-10.770145 -11.432997 3.607769 41.000000
-9.540688 -11.386240 3.688080 54.500000
-9.395372 -11.393408 3.666394 32.666668
-7.522702 -11.387161 3.647438 20.333334
-9.901949 -11.055299 3.684707 2.000000
-12.212977 -10.375687 3.680897 22.666666
-14.246337 -10.079536 3.683341 7.000000
-14.128660 -10.096484 3.665168 6.000000
-14.280959 -9.804025 3.656081 24.000000
-14.259235 -9.463033 3.612025 41.333332
-14.361052 -9.304701 3.611681 59.750000
-14.525334 -9.250098 3.634604 2.000000
-18.978157 -8.753071 3.651296 2.000000
-15.172520 -8.685870 3.689949 13.000000
-13.313930 -8.537548 3.632841 35.000000
-19.305141 -7.964895 3.648542 36.000000
-17.671186 -7.352188 3.689523 38.000000
-17.427086 -7.314934 3.643338 4.000000
-17.632471 -7.271175 3.676652 17.000000
-12.892435 -7.273410 3.675068 75.000000
-15.787145 -7.158046 3.658559 56.000000
-12.856446 -7.146990 3.651937 26.000000
-15.796064 -7.042773 3.650299 71.000000
-15.777431 -7.093965 3.651125 69.000000
-15.821691 -6.994699 3.651125 71.000000
-13.029945 -6.925225 3.663502 16.500000
-12.840378 -6.954319 3.625431 11.000000
-15.693038 -6.878962 3.616431 71.000000
-13.010027 -6.723626 3.635873 28.000000
-19.755711 -6.629360 3.640625 4.000000
-13.011923 -6.604204 3.622781 22.250000
-19.644274 -6.420739 3.610680 3.000000
-13.409790 -5.978837 3.645190 12.000000
-17.856909 -5.524222 3.603209 16.000000
-13.619722 -5.566426 3.652900 14.000000
-13.471151 -5.431791 3.606155 33.500000
-13.748963 -4.925552 3.625913 0.000000
-16.925224 -4.317335 3.686645 4.000000
-17.012789 -4.226000 3.699862 19.000000
-16.988638 -3.853499 3.676732 36.500000
-17.102520 -3.738332 3.694905 41.000000
18.723272 -0.029410 3.609267 1.000000
18.907566 0.247438 3.645104 22.000000
19.040012 0.808001 3.673623 20.000000
17.149248 1.051897 3.626343 35.000000
17.212257 1.110050 3.640386 13.000000
17.403927 1.177327 3.681689 20.000000
17.146385 1.241073 3.628409 26.000000
17.294153 1.991825 3.674254 1.000000
17.024876 2.069283 3.619735 17.000000
17.124573 2.026827 3.639560 8.000000
-18.910606 2.358795 3.673623 24.000000
-13.308811 2.344307 3.611635 26.000000
-13.372807 2.572776 3.639520 16.000000
-13.326056 2.650718 3.631258 17.000000
-13.416438 2.778421 3.661725 35.000000
16.809927 3.702129 3.632952 30.500000
16.976440 3.654933 3.665168 34.000000
17.052927 3.615380 3.679210 0.000000
16.651058 3.749424 3.602388 51.000000
14.352204 3.865749 3.690248 15.250000
13.982626 4.038522 3.613384 0.000000
16.988043 4.276559 3.697383 12.000000
13.959653 4.318564 3.627841 8.000000
14.022683 4.825660 3.681815 1.000000
-13.817578 5.395585 3.682779 3.000000
-13.624163 5.394117 3.637961 39.500000
-13.510318 5.422896 3.614347 46.000000
-13.441205 5.493439 3.605030 66.333336
-13.394510 5.572855 3.601818 75.000000
18.030643 5.640095 3.641824 24.000000
18.181355 5.750007 3.675895 9.000000
-13.338900 5.822091 3.613384 74.000000
18.204351 5.820254 3.684223 19.000000
-13.365911 5.934165 3.630733 61.500000
18.122581 5.982947 3.678923 20.000000
-13.412187 6.030487 3.650973 67.000000
18.036633 6.017475 3.665295 17.000000
-13.460351 6.103055 3.669285 63.000000
18.058266 6.119434 3.675516 12.000000
12.039107 6.791996 3.694257 3.000000
15.341592 7.665759 3.619735 4.000000
15.649340 7.697039 3.680862 0.000000
15.345397 7.728000 3.626343 5.000000
15.432724 7.832855 3.652777 3.000000
15.511919 7.996015 3.683341 38.000000
16.692501 8.737761 3.631981 9.000000
13.736048 10.347096 3.629648 94.000000
13.997231 10.475077 3.689949 144.000000
17.873888 10.461402 3.618252 5.000000
17.952950 10.583538 3.640970 24.000000
13.367445 10.606307 3.601562 58.000000
11.665998 10.852103 3.659705 28.000000
18.077950 10.965652 3.693977 52.000000
10.991512 11.378069 3.633737 0.000000
13.038700 11.386412 3.653603 12.000000
10.988390 11.591495 3.668659 21.000000
12.808820 11.545263 3.639560 1.000000
13.048389 11.576768 3.681689 15.000000
10.993647 11.707104 3.688807 21.500000
12.344210 11.775792 3.600736 33.000000
12.583220 11.779290 3.637908 16.000000
12.628761 11.747698 3.640386 24.000000
12.803205 11.760783 3.669298 13.000000
10.667522 11.835016 3.659705 8.000000
12.531909 11.805344 3.633778 38.000000
10.598135 11.907633 3.661495 14.000000
12.362868 11.942854 3.627995 14.000000
12.052641 12.090513 3.603214 0.000000
17.312477 12.131335 3.693288 26.000000
11.934697 12.354424 3.625517 40.000000
12.054558 12.303255 3.635430 20.000000
11.847481 12.870559 3.692152 37.333332
11.554678 13.023514 3.674667 11.000000
11.515160 13.102818 3.681689 0.000000
16.215126 13.163549 3.648886 24.000000
16.312296 13.115423 3.656803 23.000000
10.463502 13.800155 3.655255 5.000000
10.652524 13.867599 3.690775 60.000000
15.641738 14.014831 3.669194 22.000000
9.423315 14.345687 3.622626 17.500000
9.352724 14.585157 3.656907 3.000000
9.440483 14.570473 3.664341 12.000000
14.915942 14.874347 3.680208 4.000000
14.769567 15.008646 3.678832 5.000000
14.883186 15.029367 3.695354 1.000000
8.344370 15.122038 3.645343 43.000000
8.420361 15.147060 3.657733 0.000000
14.392639 15.140207 3.649575 9.000000
14.673992 15.195363 3.690535 3.000000
8.322662 15.252231 3.667233 29.500000
7.875952 15.397587 3.650299 3.000000
8.244224 15.394760 3.685819 14.000000
7.878909 15.523463 3.674254 2.000000
7.674582 15.603685 3.670124 25.000000
7.821454 15.653186 3.693253 4.000000
14.165631 15.622516 3.684339 29.000000
14.028228 15.867185 3.700172 32.000000
6.829152 15.987519 3.669298 18.000000
6.699502 16.031654 3.667233 5.000000
10.165051 16.073309 3.666052 18.000000
10.412715 16.070965 3.691416 25.500000
10.337927 16.121538 3.691794 44.000000
13.592100 16.175488 3.691223 30.000000
9.742670 16.415052 3.679680 5.000000
12.718726 16.890583 3.693977 0.000000
7.367187 19.414667 3.627890 8.000000
7.089464 19.605808 3.642346 24.000000
7.258858 19.686575 3.665752 2.000000
7.209139 19.742596 3.671948 3.000000
6.341014 20.172546 3.694321 14.000000
6.441423 20.159349 3.697419 8.000000
9.897110 20.787058 3.608586 18.000000
9.653309 20.949263 3.615399 15.000000
10.279583 20.909292 3.651943 13.000000
10.014013 21.203962 3.675480 32.000000
9.935535 21.384729 3.695920 12.000000
8.174110 21.746868 3.641413 11.000000
-15.953406 25.921757 3.686052 74.000000
-15.869826 25.968355 3.685571 67.000000
-15.747252 26.042824 3.685571 63.500000
-15.630497 26.126991 3.687014 52.000000
-15.542248 26.165730 3.685571 67.000000
-15.421764 26.243786 3.686292 55.500000
-15.255578 26.338444 3.686052 59.500000
-15.139208 26.423857 3.687975 50.000000
-15.052198 26.464380 3.687014 66.000000
-14.970929 26.515001 3.687495 68.000000
-14.889503 26.565363 3.687975 69.000000
-14.809837 26.618946 3.688937 71.000000
-14.684211 26.688408 3.688937 72.000000
-14.520011 26.787132 3.689899 66.500000
-14.397402 26.862284 3.690861 71.000000
-14.318527 26.917904 3.692303 6.000000
9.930556 28.027479 3.600934 2.000000
17.890465 30.166943 3.626913 2.000000
16.922285 30.465879 3.603872 5.000000
17.281540 30.544950 3.629176 7.000000
18.524471 30.575495 3.696860 2.000000
17.153917 30.655619 3.632674 4.000000
17.527020 30.641092 3.650366 43.000000
17.680801 30.685856 3.662298 2.000000
17.773123 30.623278 3.661475 11.000000
18.070156 30.689287 3.682870 26.000000
17.953575 30.711555 3.678756 12.000000
16.740753 30.819803 3.626913 37.000000
16.655514 31.010502 3.640080 24.000000
16.997944 31.060246 3.661475 10.000000
16.647350 31.348698 3.670527 10.000000
3.768826 -27.056660 3.793105 30.000000
3.899719 -27.062157 3.796406 19.000000
-12.289764 -20.276842 3.716360 4.000000
17.696928 -19.939529 3.701784 64.500000
17.806574 -19.873648 3.705085 57.000000
18.236572 -19.474392 3.704535 101.000000
18.340382 -19.401157 3.707011 100.500000
18.508495 -19.334194 3.716362 93.500000
18.778522 -19.371136 3.746069 70.500000
18.890387 -19.303707 3.750195 73.000000
18.970400 -19.264025 3.754046 67.000000
19.094482 -19.208092 3.760648 63.000000
19.248516 -19.121254 3.767249 51.500000
19.369484 -19.060938 3.773300 45.000000
19.409443 -18.980602 3.769449 29.000000
19.511452 -18.901308 3.771925 38.500000
19.661331 -18.808455 3.777977 41.500000
19.820887 -18.723995 3.785954 43.000000
19.940727 -18.660206 3.792005 46.000000
-15.454741 -18.509903 3.779538 12.000000
-15.487636 -18.197910 3.745471 1.000000
-16.085039 -17.964884 3.779538 6.000000
-7.973365 -17.585346 3.722080 41.000000
-8.939949 -17.078754 3.716023 34.000000
-8.958740 -16.984581 3.701637 17.000000
-13.741656 -16.353472 3.731839 19.000000
-13.767523 -16.280134 3.724955 2.000000
-12.096457 -14.953879 3.707694 3.000000
-15.326247 -14.810724 3.723578 2.000000
-7.772144 -14.513228 3.781486 16.000000
-7.819552 -14.492171 3.782381 34.000000
-11.251183 -13.908935 3.775858 12.000000
-11.425392 -13.505778 3.733730 27.000000
-9.124690 -13.517868 3.746116 26.000000
-8.977933 -13.466882 3.717610 25.333334
-8.873670 -13.462740 3.703582 6.000000
-10.018737 -13.127688 3.793127 46.000000
-10.034274 -12.894234 3.752831 27.000000
-10.418757 -12.797447 3.790440 32.000000
-8.497808 -12.717864 3.797474 21.000000
-8.381697 -12.759842 3.790246 21.500000
-15.077239 -12.274797 3.747823 37.000000
-10.726483 -12.283010 3.745668 32.000000
-15.057705 -12.180441 3.733437 32.000000
-7.182506 -12.188614 3.781011 46.000000
-15.013235 -12.066643 3.712994 38.000000
-9.414904 -12.020226 3.790727 9.000000
-7.435967 -12.049263 3.784109 15.500000
-9.244208 -11.956296 3.752174 0.000000
-7.272895 -11.994963 3.748995 30.000000
-7.157827 -11.974080 3.728339 37.000000
-7.731094 -11.570397 3.719044 2.000000
-9.648134 -11.404909 3.708802 11.000000
-9.913629 -11.138548 3.702055 0.000000
-10.450826 -11.094024 3.783981 46.000000
-9.887763 -10.107631 3.778945 33.000000
-14.526974 -10.040215 3.727121 6.000000
-10.157716 -9.905592 3.791855 2.500000
-10.342212 -9.600506 3.771371 35.333332
-10.347770 -9.505268 3.755191 6.000000
-10.226695 -9.573319 3.743831 0.000000
-10.409565 -9.472015 3.761388 11.000000
-12.109028 -9.331965 3.795547 41.000000
-10.600355 -9.375103 3.782044 27.000000
-10.402936 -9.317811 3.732470 34.500000
-12.002365 -9.279825 3.766632 40.000000
-10.365647 -9.284249 3.719044 33.000000
-12.137637 -9.143019 3.772736 39.000000
-12.438543 -8.918287 3.799884 42.000000
-15.519586 -8.819931 3.767597 22.000000
-15.202796 -8.766726 3.703992 19.000000
-12.888552 -8.207754 3.793619 41.000000
-12.901153 -8.158918 3.789764 46.000000
-12.981411 -8.048876 3.792173 34.500000
-12.916677 -7.943288 3.764704 40.000000
-12.967685 -7.807184 3.757957 45.000000
-13.117122 -7.663205 3.771644 31.799999
-12.884254 -7.674442 3.723259 41.500000
-13.301544 -7.559397 3.798438 33.000000
-13.116766 -7.237858 3.719404 63.000000
-13.023609 -7.293575 3.705911 28.000000
-16.664953 -6.770273 3.796509 29.000000
-16.451183 -6.364486 3.722991 1.000000
-15.265905 -6.016482 3.768950 2.000000
-15.229493 -5.873496 3.749250 34.166668
-15.298846 -5.735211 3.752831 21.000000
-15.390947 -5.541059 3.757309 30.000000
-15.248959 -5.589397 3.730445 20.333334
-15.389521 -5.440649 3.749250 25.333334
-15.369945 -5.343356 3.737609 32.000000
-15.523715 -5.287715 3.766860 18.000000
-18.790346 -5.172196 3.756908 10.000000
-17.192673 -5.122017 3.786321 30.000000
-15.589227 -5.182798 3.773427 17.000000
-19.032059 -4.664153 3.777351 18.000000
-17.083578 -4.567890 3.732353 23.000000
-17.033602 -4.212204 3.703441 25.333334
-17.207951 -4.102689 3.733730 26.000000
-17.072708 -4.070485 3.704405 35.500000
-17.107571 -3.965323 3.706470 38.000000
-17.249619 -3.770585 3.726708 40.000000
-17.179203 -3.613983 3.705231 39.500000
-17.401169 -3.575115 3.749424 42.000000
-17.320250 -3.501811 3.729599 16.000000
-17.277424 -3.436695 3.718035 0.000000
19.203535 0.331846 3.702394 32.000000
19.532253 0.398912 3.765994 34.000000
17.661484 0.860701 3.732077 24.000000
17.639149 0.915169 3.727947 37.000000
17.964447 0.988643 3.797335 7.000000
17.875296 1.040074 3.779162 20.000000
17.570889 1.800279 3.727947 32.000000
19.401648 1.803251 3.756151 16.000000
19.436047 2.053101 3.767508 21.000000
19.412613 2.297634 3.768265 9.000000
19.436491 2.362401 3.774322 22.000000
-16.287491 2.737278 3.793574 44.500000
-13.855520 2.801312 3.777912 19.000000
17.401852 2.812258 3.720513 3.500000
17.446341 2.903867 3.732903 6.000000
17.329544 3.052549 3.713904 18.000000
17.580963 3.011451 3.764706 4.000000
17.639608 3.164332 3.782466 5.000000
-17.373388 3.455783 3.738686 3.000000
-17.470175 3.589293 3.764293 7.000000
-17.373955 3.512670 3.741164 18.000000
14.701131 3.505015 3.752174 8.000000
14.629792 3.609649 3.741090 10.000000
14.466524 3.787127 3.712657 32.000000
14.530972 3.755259 3.726151 3.000000
18.898081 3.882657 3.719051 22.000000
18.831964 3.930771 3.708452 14.000000
18.828615 4.115630 3.715266 6.000000
14.305412 4.474821 3.721332 3.000000
14.411785 4.582761 3.754584 0.000000
16.967913 4.556062 3.708122 0.000000
17.004841 4.508751 3.713078 29.000000
14.261448 4.757967 3.732577 10.000000
18.654434 5.642766 3.756908 8.000000
18.449762 5.707627 3.722837 19.000000
12.913038 5.854897 3.789273 21.000000
18.271963 5.968668 3.705423 3.000000
-13.579324 6.225747 3.708802 42.333332
12.609294 6.325302 3.770167 7.500000
12.525398 6.406767 3.760011 14.333333
12.256812 6.613418 3.722142 13.000000
12.090731 6.771135 3.703552 16.000000
12.295442 6.784648 3.753126 15.000000
16.312729 7.458220 3.785770 0.000000
16.275000 7.502878 3.782466 17.000000
16.141260 7.813418 3.784944 20.000000
17.148266 8.771436 3.712994 32.000000
17.250744 8.721505 3.726244 13.000000
16.758732 9.454623 3.709209 2.000000
16.831680 9.600609 3.735330 30.000000
16.781164 9.676897 3.734194 40.000000
16.708220 9.740017 3.728137 22.000000
16.499161 10.075085 3.726623 1.000000
18.883471 10.193224 3.749049 19.000000
16.621330 10.221511 3.761451 38.000000
18.834047 10.243084 3.745607 4.000000
14.569181 10.480531 3.787973 60.333332
18.477676 10.466923 3.710154 27.000000
14.532580 10.593454 3.795683 45.000000
12.377637 10.605171 3.743877 20.000000
11.894700 10.995348 3.720595 30.000000
18.695486 11.100565 3.798614 2.000000
17.978844 11.216985 3.702237 5.000000
13.452738 11.562960 3.744055 13.000000
15.482105 11.662368 3.736465 50.000000
11.003454 11.828700 3.710745 5.000000
15.450820 11.830156 3.751230 20.500000
17.590504 11.999427 3.720136 24.000000
10.826693 12.241653 3.753727 0.000000
11.790544 12.998599 3.703992 18.000000
11.836600 12.967276 3.705644 37.000000
14.596380 13.073609 3.777351 6.000000
11.329340 13.392234 3.702340 4.000000
11.287211 13.427760 3.702340 62.000000
14.092665 13.699734 3.788708 10.000000
10.789922 13.865257 3.708122 11.000000
10.821361 13.815886 3.703992 68.000000
10.700184 13.929583 3.707296 12.500000
11.366479 13.961539 3.799813 8.000000
13.774232 13.992314 3.784922 1.000000
16.015434 13.990855 3.715317 32.000000
10.577869 14.042406 3.710600 72.000000
13.716474 14.021481 3.781137 9.000000
13.509374 14.161473 3.772808 17.000000
13.651717 14.220966 3.800065 5.000000
15.855154 14.296100 3.729774 24.000000
7.677111 14.444627 3.757309 11.000000
7.794965 14.500959 3.781486 13.000000
9.952437 14.497142 3.711426 8.000000
10.731771 14.403069 3.791002 25.333334
12.968788 14.479351 3.747065 8.000000
7.268128 14.545808 3.734922 13.000000
7.380551 14.541571 3.745668 22.000000
7.355873 14.606467 3.756413 15.000000
10.122544 14.646103 3.757685 29.000000
15.488025 14.687316 3.729085 20.000000
15.290941 14.869790 3.726332 2.000000
9.507745 15.033955 3.754381 16.000000
8.615157 15.383469 3.721339 0.000000
7.694176 15.768413 3.703166 8.000000
14.187697 15.745977 3.702926 6.000000
7.594949 15.816444 3.703166 0.000000
7.658242 15.820689 3.709774 11.000000
14.006916 15.943739 3.707745 11.000000
13.845741 16.063103 3.704991 2.000000
7.079399 16.196281 3.730701 15.666667
13.991670 16.129658 3.730462 10.000000
14.381831 16.164518 3.780027 4.000000
13.864209 16.394464 3.751114 7.000000
6.521481 16.700890 3.784118 12.000000
13.792444 16.731571 3.788288 10.000000
9.814396 16.896721 3.766751 1.000000
13.620593 16.952715 3.799303 0.000000
6.263946 20.260572 3.704991 3.000000
11.644614 20.878326 3.747020 14.500000
11.598643 21.264721 3.796571 1.500000
8.897462 21.977802 3.716360 2.000000
9.886339 21.998100 3.780158 3.000000
8.997846 22.026567 3.729367 3.000000
8.474566 22.123150 3.713263 13.000000
-19.934103 24.156210 3.792810 52.000000
-19.850554 24.209507 3.791368 53.000000
-19.764372 24.259432 3.789444 55.000000
-19.638584 24.338364 3.787280 54.000000
-19.470436 24.442638 3.784395 53.000000
-19.299294 24.542641 3.781028 56.000000
-19.172464 24.619247 3.778864 59.000000
-19.045303 24.695141 3.776700 58.000000
-18.917894 24.770445 3.774536 62.000000
-18.835175 24.823433 3.773575 62.000000
-18.710827 24.902348 3.772132 58.000000
-18.546888 25.009855 3.770689 58.000000
-18.419439 25.084213 3.768766 55.000000
-18.296343 25.164274 3.767804 53.500000
-18.168293 25.237356 3.765880 51.000000
-18.084303 25.287846 3.764918 52.000000
-17.962614 25.369518 3.764437 55.000000
-17.791496 25.465595 3.762033 60.500000
-17.664537 25.539391 3.760590 58.000000
-17.542839 25.620686 3.760350 56.000000
-17.416370 25.694876 3.759148 60.000000
-17.333338 25.746176 3.758667 59.000000
-17.208506 25.822575 3.757946 55.500000
-17.042652 25.925207 3.757224 58.000000
-16.922464 26.008600 3.757705 53.000000
-16.793251 26.078003 3.756262 51.500000
-16.630133 26.184679 3.756503 52.500000
-16.505512 26.261112 3.756262 51.000000
-16.420830 26.309465 3.755781 52.000000
-16.325552 26.340668 3.752896 46.000000
18.806950 30.822828 3.733890 15.000000
16.773243 31.826750 3.720312 8.000000
14.582591 -28.048738 3.828396 2.000000
14.668788 -27.999271 3.827915 52.000000
14.758533 -27.956560 3.828396 53.000000
14.888229 -27.883163 3.827915 51.000000
15.017589 -27.809235 3.827435 49.000000
-17.527241 -26.794638 3.877448 2.000000
-17.480280 -26.540464 3.848594 11.000000
-19.572769 -25.006985 3.845709 3.000000
-19.481920 -25.052677 3.843304 39.000000
-19.678261 -24.979691 3.850998 2.000000
-9.724817 -19.938835 3.875715 31.000000
-9.584004 -19.967571 3.869520 20.000000
-9.404509 -19.913382 3.847491 1.000000
-9.988779 -19.843212 3.881222 26.000000
-9.598635 -19.838051 3.850244 34.000000
-9.293427 -19.839350 3.827527 17.000000
-10.264577 -19.768581 3.891549 26.000000
-11.826692 -18.707979 3.866766 5.000000
-16.105341 -18.216581 3.811127 1.000000
-18.597040 -15.737988 3.818560 7.000000
-9.946234 -15.403992 3.870027 13.000000
-9.675097 -15.298580 3.820464 23.000000
-9.702089 -15.235097 3.812204 1.000000
-4.197356 -14.972703 3.860605 7.000000
-11.521906 -14.061992 3.836985 10.000000
-11.423310 -14.031348 3.818812 5.000000
-9.701016 -13.849308 3.883866 20.333334
-14.833393 -13.711848 3.893950 32.000000
-9.855833 -13.746300 3.885134 15.000000
-9.338815 -13.695324 3.807454 12.000000
-10.162047 -13.229092 3.831631 57.000000
-10.304763 -13.054655 3.820169 34.200001
-15.259174 -12.949844 3.857986 6.500000
-8.620061 -12.813508 3.834100 32.000000
-11.314351 -12.632214 3.895208 21.000000
-11.261653 -12.653132 3.890731 27.000000
