# This PCD file was generated using the MATLAB® pcwrite function
# from Computer Vision Toolbox®.
# .PCD v.7 - Point Cloud Data file format
VERSION .7
FIELDS x y z intensity
SIZE 4 4 4 4
TYPE F F F F
COUNT 1 1 1 1
WIDTH 1216
HEIGHT 1
VIEWPOINT 0 0 0 1 0 0 0
POINTS 1216
DATA ascii
-19.785604 -29.836180 2.448159 13.000000
19.183203 -29.686792 2.417048 3.000000
19.552235 -29.641260 2.428237 4.000000
19.639055 -29.170979 2.404768 3.000000
-5.901150 -28.321270 2.484205 5.000000
-6.339155 -28.197868 2.481810 7.000000
-5.058095 -28.253174 2.464699 7.000000
-6.561821 -27.954519 2.465725 10.000000
-6.445213 -27.850750 2.454774 61.000000
-5.974296 -27.796591 2.441427 8.000000
-6.060744 -27.773792 2.441085 15.000000
-6.132455 -27.684576 2.434925 5.000000
-8.656105 -27.403618 2.467779 9.000000
-5.188127 -27.483671 2.401729 3.000000
-8.742154 -27.376287 2.467779 12.000000
-6.230938 -27.315229 2.405836 50.000000
-8.478458 -27.137768 2.441427 2.000000
-7.459712 -27.137821 2.416787 10.000000
10.483490 -27.070078 2.492761 25.000000
-7.505403 -26.972191 2.404125 3.000000
11.177303 -26.838549 2.496525 11.000000
-11.087192 -26.439953 2.461961 1.000000
11.590379 -26.303822 2.468292 7.500000
11.386045 -26.173620 2.451010 5.000000
11.972195 -25.945868 2.453747 4.000000
11.832580 -25.856516 2.441770 10.000000
11.663999 -25.701220 2.423632 12.000000
13.837160 -25.623344 2.500632 27.000000
12.117200 -25.415649 2.417814 29.000000
12.419153 -25.429239 2.430134 12.000000
12.245368 -25.274456 2.411654 9.000000
13.489255 -25.167900 2.452036 4.000000
14.581102 -25.083038 2.491392 5.000000
14.362785 -24.887102 2.467436 4.000000
13.473793 -24.764084 2.420894 1.000000
13.534285 -24.690178 2.417814 13.000000
-15.568950 -24.297745 2.478045 15.000000
-15.731806 -24.049879 2.467779 16.000000
-15.509089 -24.037739 2.456485 4.000000
-15.528073 -23.902006 2.447587 13.000000
-16.134428 -23.839415 2.471885 10.000000
-15.816528 -23.850916 2.457512 16.000000
16.472404 -23.815811 2.486601 8.000000
-16.204756 -23.782022 2.471201 3.000000
-15.954955 -23.734533 2.455801 26.000000
-15.645066 -23.754045 2.442454 19.000000
-16.453196 -23.664236 2.474965 13.000000
-16.204992 -23.622543 2.459907 29.000000
-15.765242 -23.612185 2.438005 33.000000
-16.283655 -23.578074 2.460592 1.000000
17.085661 -23.576916 2.500290 9.000000
-17.286020 -23.420507 2.499605 11.000000
-16.744631 -23.449131 2.474281 14.000000
-16.433762 -23.478565 2.460934 16.000000
-4.492191 -23.393566 2.463339 8.000000
17.183928 -23.401636 2.493103 3.000000
-16.856590 -23.295027 2.469147 18.000000
-4.567183 -23.387150 2.464162 2.000000
17.340137 -23.305998 2.494472 18.000000
-16.678646 -23.202248 2.453747 13.000000
-16.461056 -23.205814 2.443138 34.000000
-17.052916 -22.953403 2.455458 5.000000
-7.289897 -22.828506 2.478151 13.000000
-18.114202 -22.699394 2.493788 6.000000
-7.328579 -22.703259 2.467042 40.000000
-17.026632 -22.619734 2.431161 15.000000
-7.461463 -22.548174 2.456070 29.666666
-7.370244 -22.589342 2.457167 39.000000
-17.450775 -22.440735 2.441085 11.000000
-16.965239 -22.391420 2.412338 3.000000
-18.143448 -22.230202 2.464014 17.000000
-18.013453 -22.284491 2.460592 12.000000
-17.398371 -22.228884 2.423974 12.000000
-17.455784 -22.158466 2.422263 29.000000
-8.729465 -22.172379 2.464162 14.000000
-17.391607 -21.934883 2.403783 23.000000
-18.554863 -21.809599 2.458881 1.000000
-19.373501 -21.645264 2.494472 19.000000
-18.685957 -21.412569 2.440401 15.000000
-19.198689 -21.314821 2.463330 18.000000
-18.648579 -21.100634 2.418156 16.000000
-18.545380 -21.117193 2.413365 36.000000
-18.290329 -21.159649 2.401729 36.000000
-8.136098 -18.900894 2.491992 42.000000
-8.251511 -18.842125 2.491030 34.000000
-8.185949 -18.853388 2.489107 42.000000
-8.399434 -18.698320 2.482374 45.000000
-8.528658 -18.593845 2.477325 38.500000
-8.219216 -18.609060 2.463619 49.000000
-8.767328 -18.572594 2.487183 41.000000
-8.650329 -18.550697 2.478768 40.000000
-8.258249 -18.539618 2.457849 46.000000
-8.354908 -18.443958 2.452078 43.000000
-10.192415 -17.949192 2.499686 37.000000
-10.093076 -17.905022 2.489107 41.000000
-9.610739 -17.961571 2.466986 27.000000
-9.301957 -17.922318 2.445346 31.000000
-10.253448 -17.795338 2.487183 45.000000
-10.189604 -17.813675 2.485260 45.000000
-9.816513 -17.804611 2.462177 16.000000
-9.752903 -17.821428 2.460253 38.000000
-9.427971 -17.889198 2.448872 42.333332
-10.301331 -17.749300 2.485260 46.000000
-9.649482 -17.764746 2.448231 42.000000
-9.587975 -17.784485 2.446788 46.000000
18.256929 -15.731174 2.492140 29.000000
18.167233 -15.554705 2.473213 29.000000
18.073574 -15.376383 2.453875 28.000000
17.988098 -15.206505 2.435772 28.000000
17.910873 -15.044994 2.418902 28.000000
17.823647 -14.876471 2.400799 28.000000
16.502024 -12.259953 2.489588 33.000000
16.438217 -12.132589 2.474199 36.000000
16.373775 -12.005748 2.458811 38.000000
16.308699 -11.879436 2.443422 35.000000
16.246210 -11.755975 2.428514 34.000000
16.179884 -11.630709 2.413126 33.000000
15.163826 -9.619631 2.493437 35.500000
15.086569 -9.471126 2.473357 37.000000
15.014864 -9.327852 2.454378 40.500000
14.949017 -9.189507 2.436499 39.000000
14.871933 -9.045916 2.416970 37.000000
-13.444944 -8.506107 2.493678 45.000000
-13.437396 -8.035745 2.454036 43.000000
-13.708150 -7.965530 2.485006 41.000000
-13.654379 -7.877004 2.470760 71.000000
-13.230193 -7.827488 2.409440 39.000000
-13.514456 -7.739803 2.441029 41.000000
-13.307900 -7.788978 2.416873 38.000000
-13.700441 -7.619303 2.457134 42.000000
-13.578560 -7.663705 2.443878 41.200001
-13.544410 -7.476917 2.424925 5.000000
14.084987 -7.482815 2.499871 39.000000
14.020346 -7.364019 2.482219 40.500000
13.946991 -7.214066 2.461159 32.500000
-18.760118 -7.130048 2.430438 7.000000
13.865280 -7.061718 2.438861 36.000000
13.796333 -6.917784 2.419041 31.500000
-19.003309 -6.815403 2.444865 10.000000
-18.970606 -6.871008 2.443422 24.000000
13.820120 -6.794273 2.413776 53.000000
13.958503 -6.726750 2.428641 57.000000
14.040005 -6.684712 2.437313 40.000000
14.116044 -6.639466 2.445055 48.000000
14.271230 -6.576020 2.462914 41.333332
14.314681 -6.487403 2.463327 46.000000
14.531340 -6.448474 2.491819 47.500000
14.205229 -6.384082 2.441029 78.000000
14.919942 -5.501298 2.492439 47.000000
14.873242 -5.404643 2.480361 49.500000
14.829749 -5.309820 2.468902 43.000000
14.801661 -5.247359 2.461469 41.000000
14.729734 -5.118027 2.444126 43.666668
13.322466 -5.043527 2.488753 8.250000
14.664422 -4.992177 2.428022 45.000000
14.638839 -4.932203 2.421209 46.000000
14.580583 -4.844723 2.408201 30.666666
-14.839132 -4.491540 2.430087 33.333332
-14.912954 -4.335457 2.434216 37.500000
-14.827963 -4.386610 2.423686 37.000000
-13.600696 -4.350999 2.494777 34.000000
-13.557946 -4.290420 2.484451 36.000000
13.168160 -4.360064 2.423412 42.000000
-14.996431 -4.244981 2.442887 36.750000
-13.538492 -4.214181 2.477222 37.000000
-15.075643 -4.152524 2.450939 14.000000
-13.530777 -4.118709 2.471027 36.000000
-15.161213 -4.048303 2.459611 22.000000
-14.875077 -4.047048 2.416254 31.000000
-13.551941 -4.055468 2.471371 9.000000
-13.502322 -3.356498 2.430755 22.000000
12.495665 -3.292198 2.490977 44.500000
-13.371206 -3.279332 2.405284 35.000000
12.445725 -3.195548 2.476970 50.000000
12.401630 -3.121978 2.465234 50.000000
12.357365 -3.028472 2.452615 51.333332
12.264297 -2.842850 2.426873 48.166664
-10.166315 -2.712629 2.416820 15.500000
12.189629 -2.704671 2.406935 49.666668
-10.478099 -2.620169 2.480844 8.000000
-10.214421 -2.605524 2.421297 22.000000
-10.549013 -2.585228 2.494724 16.000000
-17.372105 -2.447676 2.435949 12.000000
-11.547260 -2.410245 2.489704 36.000000
-11.221916 -2.471412 2.425272 8.500000
-10.377480 -2.422538 2.447713 18.000000
-10.561136 -2.308492 2.483083 30.000000
-10.499736 -2.260535 2.466965 22.000000
-11.202233 -2.118711 2.406273 57.000000
-17.393845 -1.978708 2.430723 13.500000
-17.322788 -1.832951 2.418712 17.333334
-17.406301 -1.731247 2.428797 16.000000
-11.608524 -1.707990 2.476487 65.000000
-11.339922 -1.704882 2.420316 8.000000
11.673144 -1.698785 2.489704 43.000000
11.707600 -1.760159 2.498790 43.000000
11.635132 -1.618669 2.479378 44.500000
11.580842 -1.518536 2.465198 45.333332
-13.993945 -1.391851 2.456914 38.000000
-13.766080 -1.412874 2.417675 52.000000
11.575613 -1.425371 2.461618 43.000000
-14.067017 -1.332208 2.468617 37.500000
-12.530313 -1.323621 2.428892 4.000000
-12.493411 -1.372665 2.422835 37.000000
11.697075 -1.365769 2.485574 39.500000
-14.069233 -1.265544 2.467929 41.000000
-13.994127 -1.125939 2.452784 43.000000
-14.250108 -1.033997 2.496153 23.500000
-14.029024 -1.084402 2.458291 44.000000
-9.981995 -1.070310 2.492454 2.500000
12.430420 -0.997944 2.403906 34.000000
-11.774768 -0.982549 2.493834 36.000000
12.500066 -0.964023 2.416778 35.000000
12.604354 -0.912277 2.436085 36.000000
-14.276366 -0.878184 2.498907 10.000000
12.708453 -0.859691 2.455392 36.000000
12.816229 -0.806276 2.475456 35.000000
12.927728 -0.752200 2.496277 34.000000
-9.744253 -0.582338 2.423540 15.500000
-15.560331 -0.418329 2.439790 12.000000
-9.309179 -0.463276 2.491067 21.666666
13.840994 -0.301946 2.418708 8.000000
-12.479595 -0.254876 2.406178 33.000000
-9.047194 -0.236728 2.418773 12.333333
13.966381 -0.238907 2.440393 11.000000
-9.342655 -0.161445 2.497264 39.000000
14.101295 -0.174688 2.463799 8.000000
14.228065 -0.109267 2.485827 19.000000
-15.320922 -0.026738 2.401388 10.000000
14.283503 -0.064817 2.495465 26.000000
-15.751672 0.021992 2.468902 17.000000
-12.642090 0.357529 2.437977 15.000000
-9.812067 0.339223 2.437516 13.000000
-9.732304 0.480412 2.419203 46.000000
-19.888849 0.555543 2.409519 3.000000
-12.840979 0.585379 2.477916 30.750000
15.463736 0.537381 2.425235 29.000000
-12.610560 0.654273 2.434192 41.000000
15.620975 0.616480 2.450320 28.000000
15.779737 0.697323 2.475715 27.000000
-15.367595 0.794627 2.411918 74.000000
-12.530578 0.768515 2.420059 15.000000
-10.506201 0.760472 2.419506 10.000000
-10.494740 0.809370 2.417715 37.000000
-9.988033 1.086813 2.494381 26.000000
-14.118631 1.197957 2.475501 25.500000
-9.941685 1.134424 2.484262 34.666668
-12.471938 1.238267 2.416021 12.000000
-9.203335 1.265609 2.482805 39.000000
-9.166875 1.260596 2.472994 27.166668
-12.399888 1.336149 2.404159 26.666666
17.278204 1.335552 2.406242 34.000000
17.404247 1.400313 2.424397 43.000000
-12.423636 1.430869 2.410721 10.000000
-11.713829 1.423751 2.490530 31.000000
17.537949 1.466539 2.443651 46.000000
-12.431946 1.590363 2.416021 1.000000
-11.644588 1.564064 2.479791 23.000000
-8.994182 1.555183 2.439429 22.000000
17.667459 1.533274 2.462355 39.000000
17.808559 1.601905 2.482710 37.000000
-8.952709 1.615616 2.431338 29.166666
-12.419483 1.947073 2.423340 15.333333
-12.403081 2.104459 2.425106 42.666668
-12.342442 2.014514 2.410721 21.000000
-12.402643 2.216863 2.428741 36.599998
-12.691775 2.649138 2.499305 35.000000
-12.175717 2.621365 2.400878 15.000000
19.649750 2.646274 2.401103 23.000000
-11.144345 2.768271 2.423620 54.000000
19.822294 2.732942 2.423224 23.000000
-11.506508 2.819880 2.500442 27.000000
-11.206629 2.851073 2.440636 27.400000
-15.445261 2.968698 2.465186 4.000000
-11.263247 2.978819 2.458975 33.599998
-15.579358 3.045252 2.488103 9.000000
-11.336853 3.158906 2.483921 28.000000
-11.252990 3.135578 2.465583 27.799999
-11.205571 3.255556 2.462857 40.000000
-11.140308 3.331661 2.454184 22.000000
-11.067155 3.417358 2.444684 30.000000
-10.937494 3.477910 2.422381 40.500000
-12.354281 3.568219 2.478863 3.000000
-10.923566 3.606359 2.427957 31.750000
-11.105150 3.627578 2.465748 7.000000
-10.926500 3.721868 2.436286 38.666668
-10.808916 3.776756 2.416599 40.500000
-10.783908 3.837869 2.415910 35.666668
-10.680043 3.978239 2.405447 41.000000
-10.734692 4.062764 2.422518 37.333332
-10.748058 4.119336 2.429402 1.000000
-17.021326 4.281777 2.437049 0.000000
-10.865330 4.282155 2.464922 13.000000
-10.721573 4.342772 2.441518 35.333332
-10.677328 4.403055 2.437663 40.000000
-10.690083 4.460798 2.444822 39.666668
-16.960987 4.522491 2.437324 6.500000
-10.739870 4.547750 2.461618 1.000000
-13.023033 5.451751 2.466552 14.000000
-12.762648 5.520320 2.429378 30.000000
-10.129332 5.589387 2.441793 52.000000
-10.387755 5.647136 2.495486 21.000000
-19.233845 5.975948 2.439094 44.500000
-12.394197 5.939325 2.401154 22.799999
-8.841189 6.008451 2.455324 1.500000
-19.231863 6.108127 2.443662 12.000000
-8.886703 6.100812 2.475919 7.000000
-8.684875 6.165177 2.446370 14.000000
-9.666540 6.241603 2.428576 5.000000
-16.046902 6.437802 2.400741 70.000000
-8.536640 6.472620 2.460697 9.000000
-16.302031 6.599694 2.442000 15.000000
-8.550073 6.553578 2.474427 31.333334
-8.504509 6.661199 2.481292 58.000000
-8.398830 6.793961 2.481292 18.000000
-8.434888 6.867076 2.498306 95.000000
-8.158113 6.901468 2.454429 5.000000
-8.113622 6.929712 2.450847 41.500000
-16.436283 7.139880 2.488211 16.000000
-15.616150 7.495418 2.405142 5.000000
-15.742319 7.616915 2.428247 35.000000
-8.442334 7.750131 2.418829 47.000000
-13.861514 7.816939 2.494297 4.000000
-8.600249 8.050786 2.486399 3.000000
-8.583458 8.085817 2.488878 2.000000
-15.939122 8.276183 2.493712 49.000000
-15.502030 8.298185 2.441450 18.000000
-15.895493 8.317029 2.490961 37.000000
-15.437525 8.326162 2.435399 39.000000
-13.530111 8.317273 2.489342 28.000000
-11.457997 8.349195 2.476878 2.000000
-11.333879 8.684199 2.494547 19.666666
-11.053080 8.710474 2.458635 11.000000
-10.965499 9.000716 2.478484 37.333332
-10.713737 9.176303 2.464487 2.000000
-8.624297 9.212897 2.432678 0.000000
-8.587284 9.231321 2.430406 21.000000
-8.234958 9.429850 2.413371 19.500000
-8.133221 9.432410 2.400878 18.000000
-10.436732 9.583630 2.475501 23.000000
-12.081727 9.644714 2.423067 30.000000
-10.551196 9.627819 2.495465 0.000000
-8.424843 9.647378 2.469020 35.000000
-8.183483 9.673568 2.442520 28.000000
-12.106900 9.769053 2.438345 47.000000
-8.337363 9.761829 2.474699 9.500000
-7.563197 10.284752 2.460944 7.333333
-17.390957 11.066468 2.496320 40.000000
-11.286310 11.246982 2.497394 2.000000
-12.480736 12.204983 2.423846 14.000000
-12.435169 12.707146 2.468681 18.500000
-12.240837 12.666902 2.445851 43.000000
-12.322069 12.871841 2.474183 17.000000
-19.878925 12.914459 2.451407 3.000000
-12.224708 12.972544 2.475008 16.000000
-12.170355 12.996424 2.472257 21.000000
-19.579405 13.072651 2.434537 8.000000
-19.315157 13.250135 2.422194 1.000000
-19.159651 13.321266 2.413142 17.000000
-19.039478 13.326632 2.403267 67.000000
-19.052805 13.425345 2.410262 66.000000
-19.185780 13.609440 2.432480 27.000000
-19.049030 13.602591 2.420548 13.000000
-18.864048 13.560188 2.402444 12.000000
-12.999534 15.065426 2.409759 9.000000
-18.358797 15.519883 2.485968 6.000000
-18.266529 15.689466 2.490083 21.500000
-18.133057 15.773905 2.485351 18.500000
-16.591322 16.948421 2.452641 34.000000
-16.621229 17.086016 2.464984 9.000000
-16.865074 17.120132 2.485145 42.000000
18.458467 21.788578 2.452150 29.000000
18.338982 21.878845 2.451466 14.666667
18.139038 22.012239 2.449298 44.000000
17.900711 22.145021 2.445192 9.000000
18.095947 22.243250 2.462303 19.000000
18.198557 22.226379 2.466752 4.000000
16.273207 31.354008 2.415684 4.000000
16.220304 31.493670 2.422506 26.000000
16.124916 31.551577 2.423052 12.000000
16.056400 31.662588 2.427691 15.000000
15.671339 31.890507 2.429875 15.000000
15.883878 31.816401 2.431785 17.000000
16.026804 31.851904 2.438334 5.000000
15.822815 31.944818 2.437789 20.000000
14.372184 32.265297 2.415411 50.000000
14.351365 32.492809 2.429056 22.000000
9.153172 33.993675 2.407406 12.333333
8.574833 34.112640 2.405314 2.000000
8.698704 34.151276 2.409953 3.000000
11.627280 34.529827 2.491549 43.000000
11.758839 34.561131 2.496462 45.000000
11.882924 34.569309 2.499736 55.000000
11.000377 -35.123730 2.516929 6.000000
11.372692 -35.147587 2.526207 13.000000
11.708814 -34.691853 2.503830 3.000000
16.431404 -34.187733 2.593886 2.000000
16.486521 -34.028202 2.585699 3.000000
16.568829 -33.926041 2.581878 2.000000
-5.202533 -29.595623 2.580370 5.000000
-4.975890 -29.388035 2.559495 15.000000
-4.783452 -29.371517 2.555388 1.000000
-4.590194 -29.345867 2.550597 1.000000
-5.714367 -29.261532 2.560179 3.000000
-4.818242 -29.010374 2.525272 15.000000
9.772105 -28.656191 2.599877 18.000000
9.847804 -28.583900 2.596113 22.000000
9.902186 -28.451195 2.586873 32.000000
-8.655981 -28.330111 2.543752 1.000000
9.975658 -28.374828 2.582766 15.000000
10.078089 -28.380903 2.586188 12.000000
-8.449290 -28.288473 2.535197 2.000000
11.270853 -27.924347 2.585846 7.500000
10.638125 -27.215176 2.509188 1.000000
11.547902 -27.244802 2.541014 3.000000
11.631871 -27.204723 2.540672 6.000000
10.786796 -27.092260 2.504054 5.000000
11.669926 -27.058264 2.530406 13.000000
14.274324 -26.632662 2.594744 21.000000
13.812517 -25.966633 2.525615 5.000000
14.448691 -25.969837 2.551966 4.000000
14.539949 -25.941698 2.553677 21.000000
14.576304 -25.816076 2.545806 15.000000
14.051517 -25.633751 2.510214 4.000000
16.110765 -25.455196 2.586873 11.000000
16.212076 -25.438065 2.590295 7.000000
-15.517159 -25.252399 2.545121 8.000000
-16.096783 -24.948614 2.549570 18.000000
-16.444256 -24.797514 2.555046 7.000000
-15.824171 -24.867695 2.531090 4.000000
-15.667195 -24.792633 2.518428 21.000000
-15.538606 -24.876520 2.518656 30.666666
-15.357342 -24.817186 2.506108 27.000000
16.748285 -24.877159 2.575237 14.000000
17.248522 -24.606010 2.580370 16.000000
17.023108 -24.447491 2.558126 9.000000
17.328930 -24.393181 2.569419 12.000000
17.447201 -24.396976 2.575579 8.000000
18.274488 -24.084471 2.596113 2.000000
18.483589 -23.889107 2.593717 11.000000
18.526716 -23.790045 2.589268 18.000000
-18.718479 -23.761339 2.597481 2.000000
-17.361254 -23.755838 2.526641 15.000000
19.024483 -23.501671 2.596455 15.000000
19.020189 -23.346006 2.585846 16.000000
-18.557272 -23.105350 2.544779 15.000000
-19.678856 -22.125904 2.542726 12.000000
-19.427143 -21.981567 2.519112 5.000000
-12.807345 -21.139118 2.555914 21.000000
-13.029038 -21.054691 2.560440 14.000000
-12.896426 -21.061531 2.553857 38.000000
-7.464207 -20.059927 2.592018 36.000000
-7.388791 -20.049744 2.587690 44.000000
-7.721417 -19.979362 2.593942 35.000000
-7.774879 -19.839218 2.580477 42.000000
-7.767136 -19.547741 2.547295 44.000000
-7.753136 -19.335272 2.522769 36.000000
-7.910257 -19.201323 2.514915 44.333332
-7.775115 -19.215113 2.510266 45.000000
-8.096556 -19.055983 2.507381 41.000000
-7.991389 -19.057301 2.502572 42.000000
-10.067859 -18.815884 2.584324 1.000000
-9.248870 -18.821056 2.539601 8.000000
-9.114375 -18.795364 2.529662 33.666668
-10.359105 -18.788733 2.598270 16.000000
-8.968019 -18.692572 2.510747 38.000000
-9.519864 -18.627491 2.533349 38.000000
-9.418566 -18.645527 2.529742 35.500000
-9.289721 -18.681232 2.526617 38.000000
-8.875120 -18.648941 2.501129 39.000000
-9.540156 -18.523355 2.523250 41.000000
-10.215619 -18.391596 2.547776 39.000000
-10.182211 -18.196539 2.525174 35.000000
-10.451228 -17.877975 2.507862 25.000000
18.931866 -16.416653 2.591299 9.000000
16.899624 -13.056805 2.586247 34.000000
16.836611 -12.923857 2.570378 32.000000
16.763458 -12.784208 2.553066 33.000000
16.695925 -12.649946 2.536715 35.000000
16.630886 -12.518626 2.520846 38.000000
16.558828 -12.383080 2.504014 33.000000
15.550787 -10.386777 2.596585 33.000000
15.467300 -10.226030 2.574580 34.500000
15.386082 -10.068371 2.553125 37.000000
15.315245 -9.919347 2.533596 38.500000
-15.786067 -9.711656 2.573480 21.000000
15.236796 -9.766832 2.512966 36.000000
-15.833407 -9.672338 2.576231 3.000000
-13.404010 -8.658179 2.501110 1.000000
-13.628877 -8.503047 2.517834 49.000000
-13.488110 -8.573091 2.505033 37.000000
-13.784477 -8.450354 2.534248 39.500000
-13.703208 -8.253264 2.507304 50.000000
-14.441652 -7.854237 2.576676 11.000000
14.239416 -7.795853 2.544468 33.000000
-14.626687 -7.777149 2.596497 6.000000
-14.595128 -7.701647 2.586587 1.000000
14.176906 -7.675093 2.526815 36.000000
14.117152 -7.556868 2.509782 36.000000
14.623105 -6.406923 2.502349 47.000000
14.707536 -6.361431 2.511640 46.500000
14.849888 -6.295979 2.528116 43.799999
15.033820 -6.224161 2.550352 15.500000
15.093384 -5.836161 2.536416 38.000000
15.039448 -5.734033 2.522789 42.000000
14.975248 -5.602036 2.506065 46.500000
13.536629 -5.529709 2.554668 2.000000
-13.738117 -5.392187 2.578418 15.000000
-13.639119 -5.444234 2.565682 25.000000
13.484952 -5.426412 2.539523 31.000000
-17.468613 -5.347363 2.536622 0.000000
-13.747493 -5.304728 2.574402 29.666666
13.445341 -5.345115 2.527820 53.000000
13.406155 -5.256550 2.515773 55.500000
-13.568907 -5.129948 2.534360 33.500000
13.373840 -5.171265 2.505103 40.000000
-13.717834 -5.063498 2.554668 42.000000
-13.528325 -5.041892 2.522313 36.000000
-13.608187 -4.950397 2.529885 41.000000
-12.420422 -4.895042 2.573505 39.000000
-12.335640 -4.906454 2.559119 16.000000
-13.631785 -4.838027 2.527132 37.000000
-12.439671 -4.835038 2.572748 1.000000
-15.341697 -4.749049 2.517215 21.000000
-13.753165 -4.711428 2.539867 7.500000
-13.617315 -4.736719 2.518871 28.000000
-13.870435 -4.678699 2.557421 69.000000
-13.864396 -4.483426 2.545718 70.000000
-13.621778 -4.452284 2.503726 36.000000
12.817457 -3.921227 2.583852 45.666668
12.740849 -3.766846 2.561138 43.000000
12.657445 -3.612816 2.537415 51.000000
12.582377 -3.463479 2.515710 47.333332
12.533143 -3.365279 2.501577 45.000000
-10.923006 -2.423574 2.569942 47.000000
-10.666869 -2.413635 2.512036 26.333334
12.041570 -2.415012 2.592134 45.500000
-10.774854 -2.231263 2.527408 41.500000
-10.682217 -2.264728 2.508156 16.000000
11.957691 -2.251927 2.568178 48.500000
-10.748651 -2.161457 2.518304 26.333334
11.886576 -2.113152 2.548146 51.750000
-10.955443 -2.007942 2.558301 34.799999
-11.022026 -1.923646 2.569942 9.500000
11.792711 -1.924790 2.521919 50.000000
11.824017 -1.987177 2.530593 48.500000
-10.980070 -1.845320 2.557405 15.000000
11.750394 -1.842222 2.510355 39.000000
-12.047706 -1.733954 2.569004 1.000000
11.781179 -1.319389 2.502094 34.000000
11.874815 -1.273204 2.520680 36.500000
12.007189 -1.211125 2.547114 34.500000
12.104324 -1.163382 2.566526 31.000000
12.203204 -1.114819 2.586351 31.000000
-11.965311 -1.083573 2.535756 27.000000
-14.317265 -0.948471 2.506824 5.500000
-14.578012 -0.850772 2.551226 24.000000
-14.766419 -0.722197 2.582892 12.000000
12.996696 -0.715251 2.509148 39.000000
-16.351479 -0.645310 2.564908 13.000000
13.105824 -0.659270 2.529591 36.000000
-9.590064 -0.497561 2.566461 24.000000
13.264700 -0.583736 2.559498 35.500000
13.411366 -0.505780 2.587133 32.000000
-14.496333 -0.480891 2.534016 10.000000
-9.365408 -0.476048 2.506215 33.000000
-10.099723 -0.333277 2.508839 7.000000
-10.096840 -0.301432 2.507875 12.000000
-10.214489 -0.160398 2.536308 2.500000
-9.397396 -0.118091 2.511723 22.500000
-12.140520 -0.000061 2.562396 44.000000
-10.310758 -0.016293 2.559922 54.000000
-9.412730 -0.038459 2.515648 28.799999
14.413662 0.002590 2.518182 31.500000
-12.097231 0.075962 2.553309 13.000000
-9.633864 0.015132 2.574723 46.000000
-9.552148 0.105034 2.553034 43.000000
14.596582 0.094339 2.550193 30.000000
-11.984212 0.156705 2.529629 27.333334
-9.683402 0.167354 2.588356 49.400002
14.731927 0.164564 2.573943 26.000000
-11.871649 0.254888 2.506225 40.666668
14.872802 0.236318 2.598726 29.000000
-11.915998 0.355689 2.516137 21.000000
-9.704827 0.350774 2.595378 40.000000
-9.572390 0.376101 2.560264 34.000000
-11.878384 0.429335 2.508703 24.000000
-10.221125 0.412317 2.539681 33.333332
-13.033800 0.512100 2.514448 2.000000
-10.392695 0.801500 2.587873 42.000000
15.946022 0.779890 2.502349 29.000000
-16.339640 0.896365 2.564908 24.000000
-10.327329 0.886276 2.573415 27.750000
16.057940 0.835941 2.520312 25.000000
16.339327 0.902067 2.564908 38.000000
-16.466934 0.955242 2.585348 5.000000
-11.897775 0.917574 2.518615 38.000000
-11.856373 0.976809 2.510906 20.166668
16.553389 0.966058 2.598974 44.000000
-13.348755 1.092710 2.581833 13.000000
-10.174511 1.058625 2.539681 9.500000
-13.097231 1.175807 2.534891 12.000000
-11.878416 1.330278 2.522746 39.000000
-9.443330 1.389416 2.550969 2.000000
-9.262550 1.503295 2.507887 36.285713
-11.806537 1.522914 2.512558 39.666668
-9.254288 1.570229 2.508625 38.000000
17.949400 1.671435 2.503064 39.000000
18.082092 1.741108 2.522319 38.000000
-15.933235 1.883004 2.514737 2.000000
18.222406 1.812415 2.542673 36.000000
18.366392 1.885024 2.563578 35.000000
18.506159 1.958140 2.583932 34.000000
-12.799901 2.490366 2.513691 33.000000
-9.137768 2.461237 2.529194 21.166666
-12.777466 2.583351 2.512934 22.000000
-12.861623 2.642454 2.531105 20.000000
-11.812037 2.855450 2.564874 12.000000
-11.644821 3.205332 2.549179 10.000000
-10.457279 5.628263 2.506500 26.666666
-9.664020 5.766684 2.584941 14.750000
-9.663155 5.838438 2.593224 11.500000
-9.575210 5.929884 2.586955 22.750000
-9.409300 5.942250 2.556152 35.400002
-11.962524 6.118900 2.590162 1.000000
-8.101893 6.395117 2.562620 29.600000
-7.932016 6.416347 2.532935 7.000000
-8.894704 6.877088 2.582478 9.000000
-8.844804 6.972678 2.586955 41.000000
-8.503101 7.331914 2.578896 1.000000
-16.597416 7.774794 2.544873 7.000000
-16.380110 7.798877 2.519018 3.000000
-13.992898 7.833195 2.513498 0.000000
-16.216812 7.972633 2.509115 9.000000
-13.877445 7.926862 2.504982 26.500000
-16.209436 8.032333 2.511866 1.000000
-13.790848 8.094231 2.506375 21.000000
-11.868907 8.063047 2.506824 25.500000
-13.987744 8.121469 2.535177 9.000000
-13.784832 8.178330 2.512259 21.000000
-11.936370 8.191376 2.529197 15.000000
-10.728835 8.134778 2.595462 36.000000
-16.274349 8.256445 2.533871 21.000000
-16.039623 8.232603 2.503339 14.000000
-13.864234 8.284431 2.531461 36.000000
-10.399673 8.251552 2.559119 79.000000
-10.355287 8.269474 2.554576 55.000000
-13.832184 8.383671 2.535177 39.000000
-13.664112 8.340607 2.509162 40.000000
-12.046737 8.322902 2.558110 1.000000
-10.359868 8.326574 2.562148 55.000000
-14.041294 8.450203 2.568624 23.000000
-12.217851 8.497955 2.600102 22.000000
-11.584220 8.497010 2.509922 110.000000
-13.725744 8.556820 2.535177 33.000000
-13.688753 8.593599 2.533319 26.000000
-12.178185 8.527254 2.597349 29.000000
-18.953011 8.693322 2.525174 19.000000
-15.964803 8.675398 2.522869 16.000000
-18.852688 8.899553 2.524693 36.000000
-16.132010 8.898005 2.558077 52.000000
-16.038246 8.846325 2.543223 35.500000
-11.451209 8.850498 2.528508 53.000000
-11.342483 8.823528 2.510610 35.000000
-8.505149 8.859797 2.592134 32.000000
-16.124186 9.026285 2.565778 5.000000
-16.006021 9.026293 2.551475 2.000000
-18.884052 9.169611 2.542246 9.500000
-11.048288 9.644833 2.562240 25.000000
-11.068259 9.723702 2.573943 37.000000
-17.840265 10.429188 2.502572 3.000000
-7.701572 10.600377 2.525805 13.500000
-8.144674 10.637331 2.582590 28.000000
-17.751511 10.984968 2.528059 1.000000
-17.429663 11.168177 2.506900 8.000000
-11.520949 11.408896 2.541371 7.000000
-11.421138 11.453071 2.535177 11.000000
-11.391497 11.543679 2.541990 21.333334
-10.916574 11.657574 2.503278 7.500000
2.778465 11.987119 2.597090 46.000000
2.860350 11.949382 2.593313 46.571430
-13.922843 12.077364 2.559177 11.000000
-13.432790 12.890591 2.585033 8.000000
-12.600056 12.875746 2.501414 1.000000
-13.443530 12.982265 2.594935 13.000000
-12.475321 13.155443 2.517367 20.000000
-12.535220 13.641508 2.572380 8.000000
-15.613573 14.698052 2.596827 1.000000
-14.608537 14.644269 2.504976 5.000000
-14.896848 15.313416 2.587209 4.000000
-18.858362 15.840873 2.546863 23.000000
-17.724325 16.685040 2.517238 3.000000
-17.654110 16.776606 2.518473 24.500000
-17.982952 16.822262 2.546451 3.000000
-17.560541 16.845842 2.516415 1.000000
-17.127550 17.661919 2.544188 26.000000
-17.299116 18.007872 2.582247 34.000000
-17.212238 18.030468 2.577721 9.000000
19.655155 22.380871 2.557784 19.000000
19.621433 22.484549 2.562575 11.000000
19.623806 22.630384 2.572157 22.000000
19.685289 22.845901 2.589610 2.000000
-16.897852 24.267612 2.539303 12.000000
-16.755024 24.305916 2.535026 72.500000
-16.607548 24.418968 2.535881 58.000000
-16.539070 24.566404 2.543068 50.000000
15.644446 24.585262 2.502343 2.000000
15.747409 24.576258 2.506450 10.000000
-16.521627 24.707685 2.552308 45.000000
16.252279 24.675982 2.537250 19.000000
-16.481413 24.815903 2.558126 1.000000
15.684226 24.819584 2.521166 1.000000
17.536800 33.530552 2.587609 3.000000
17.318470 33.625889 2.586518 3.000000
17.110462 33.741154 2.587063 11.000000
16.715038 34.014389 2.591702 7.000000
12.041214 34.675060 2.510106 3.000000
12.632266 34.612854 2.519658 2.000000
12.782341 34.685333 2.527845 7.000000
12.341477 34.831936 2.527026 14.000000
13.998417 34.910152 2.572054 24.000000
10.818309 35.013199 2.506013 7.000000
12.313888 35.104008 2.543946 3.000000
12.530174 35.014675 2.543127 22.000000
14.437777 35.046028 2.591975 15.000000
9.822001 35.297352 2.505467 23.000000
12.730992 35.226597 2.561411 18.000000
9.711063 35.328033 2.505467 44.000000
11.740026 35.602745 2.563594 3.000000
11.866956 35.611118 2.566869 11.000000
9.462457 35.738182 2.528118 3.000000
9.270628 35.924446 2.537123 5.000000
10.997450 35.993504 2.573691 1.000000
19.368896 -33.561436 2.649830 2.000000
19.864985 -33.205116 2.646009 2.000000
19.679047 -33.130116 2.635093 4.000000
19.720003 -32.728943 2.612988 2.000000
-5.505460 -29.937933 2.613908 6.000000
-5.158320 -29.894588 2.605011 3.000000
-8.229724 -29.219440 2.606722 3.000000
11.967289 -28.991732 2.693304 7.000000
10.852745 -28.827431 2.645051 6.000000
10.289627 -28.690479 2.617331 9.000000
10.671625 -28.618660 2.622806 10.000000
10.871047 -28.603199 2.627597 1.000000
10.993505 -28.520014 2.624688 10.500000
10.359304 -28.461864 2.600904 20.000000
10.501582 -28.435211 2.602957 17.000000
12.486527 -27.979456 2.631020 9.000000
13.224836 -27.964725 2.656344 4.000000
-16.073526 -26.719133 2.677562 9.000000
14.435565 -26.731457 2.608775 3.000000
-16.241085 -26.617617 2.677562 10.000000
-15.891409 -26.605267 2.661135 33.000000
-16.095428 -26.566252 2.667295 7.000000
15.559957 -26.574415 2.644366 3.000000
16.222258 -26.545059 2.671402 7.000000
16.488600 -26.418036 2.674140 3.000000
15.693100 -26.231644 2.624860 1.000000
17.023808 -25.632589 2.642313 13.000000
17.046648 -25.492849 2.633415 9.000000
-17.647268 -25.212275 2.642655 2.000000
-18.041782 -25.098553 2.654291 2.000000
17.029839 -25.124620 2.606379 7.000000
-18.743160 -25.063620 2.687486 5.000000
17.148039 -25.044052 2.606380 14.500000
17.516462 -24.821966 2.608775 7.000000
-19.915684 -24.168251 2.689198 12.000000
19.130222 -23.938295 2.631362 6.000000
19.175360 -23.840815 2.627255 37.000000
-10.461773 -23.686415 2.677703 4.000000
-10.366559 -23.671785 2.672354 3.000000
-10.492424 -23.555300 2.666594 30.000000
-10.410370 -22.981514 2.608991 3.000000
-10.310402 -22.952404 2.601997 30.000000
-7.728288 -20.571671 2.661267 22.000000
-7.665899 -20.085735 2.603559 25.666666
19.216421 -17.639477 2.697453 30.000000
19.115944 -17.436907 2.675646 30.000000
19.017332 -17.237822 2.654250 29.000000
18.917664 -17.039522 2.632855 29.000000
18.849289 -16.817715 2.612283 44.000000
18.928352 -16.728727 2.612283 58.000000
19.009912 -16.641981 2.612694 67.500000
16.961971 -13.190273 2.602117 17.000000
15.822140 -10.785043 2.658749 2.000000
15.590409 -10.484221 2.608688 22.000000
-16.532131 -9.606489 2.654898 3.000000
14.783540 -8.833756 2.699316 52.000000
14.766932 -8.573869 2.676399 90.000000
-14.757009 -8.328726 2.655959 5.000000
14.760106 -8.201880 2.646668 40.000000
-15.070154 -8.104267 2.681973 13.000000
14.575272 -8.099076 2.613530 43.000000
-15.248329 -7.207853 2.643571 9.000000
-15.107250 -7.228417 2.624989 10.000000
-15.009003 -7.268566 2.613840 12.000000
-17.823988 -6.899160 2.653798 1.000000
13.791634 -6.915421 2.695446 30.500000
13.831989 -6.800108 2.692808 45.666668
-14.043316 -6.317205 2.690283 0.000000
-18.113346 -4.958618 2.607588 3.000000
14.648752 -4.935544 2.700609 40.000000
-14.561564 -4.860932 2.682023 37.000000
14.623068 -4.875788 2.693037 43.000000
-14.292413 -4.721227 2.629704 41.000000
12.974431 -4.229229 2.630593 32.000000
12.897268 -4.078970 2.607576 47.666668
-14.926264 -3.785217 2.690283 2.500000
-14.963164 -3.619970 2.689595 9.000000
-13.587780 -3.171942 2.689725 10.000000
12.399450 -3.121429 2.698694 46.000000
12.357937 -3.028625 2.685477 45.333332
12.260250 -2.841918 2.656290 45.666664
12.189753 -2.704698 2.635363 48.000000
-10.326187 -2.616776 2.644738 5.000000
-10.153624 -2.641039 2.604740 9.000000
12.130915 -2.591808 2.618154 51.000000
-10.420875 -2.530705 2.662409 32.333332
12.098955 -2.525400 2.608654 52.000000
-10.435915 -2.470752 2.662569 17.500000
-10.396391 -2.409755 2.649558 14.000000
-10.400126 -2.376214 2.648594 29.000000
-11.317146 -2.214180 2.648741 9.000000
-10.595911 -2.263836 2.690038 15.500000
-11.297248 -2.173462 2.642473 37.000000
-11.154628 -2.109707 2.607551 41.000000
-13.719451 -1.974558 2.671932 30.000000
-10.646505 -1.927163 2.686183 46.000000
-11.358912 -1.799125 2.641578 38.500000
-10.570450 -1.844846 2.664015 47.000000
-11.304478 -1.717708 2.626355 31.000000
-10.535454 -1.739455 2.651083 24.000000
-11.567097 -1.590664 2.681873 18.000000
-11.273890 -1.658755 2.617401 23.000000
11.632139 -1.618253 2.697544 44.000000
-11.374984 -1.527852 2.636205 36.000000
11.584548 -1.519022 2.683664 41.666668
11.584549 -1.426465 2.680978 38.000000
-12.555984 -1.326332 2.664825 7.000000
-11.555140 -1.355379 2.672322 31.666666
11.676698 -1.344841 2.699782 68.666664
-12.563983 -1.287282 2.665652 30.000000
-12.423863 -1.233500 2.635088 25.000000
-12.330283 -1.185098 2.614437 27.000000
-13.552787 -1.002387 2.619690 0.000000
-11.457632 -0.992339 2.641578 48.000000
-11.394352 -1.071020 2.628743 31.666666
12.334757 -1.048738 2.612784 34.000000
12.433203 -0.998168 2.632610 35.000000
-13.591131 -0.962304 2.626504 13.000000
-11.673483 -0.937175 2.689932 37.000000
-11.445152 -0.955044 2.637996 32.000000
12.502614 -0.964220 2.646652 35.000000
12.624210 -0.893752 2.671159 30.333334
-11.671400 -0.807976 2.687246 13.500000
-9.830202 -0.835909 2.636690 22.250000
-13.547256 -0.788244 2.615904 11.000000
-11.550600 -0.744918 2.658592 31.000000
-9.735533 -0.709808 2.608805 23.333334
12.673736 -0.777371 2.679970 25.000000
12.739635 -0.701104 2.692911 51.000000
-14.886702 -0.681210 2.603544 11.000000
-10.027526 -0.630885 2.685230 14.000000
-15.198833 -0.456402 2.656552 9.000000
-14.991430 -0.403035 2.620066 16.000000
13.531381 -0.446517 2.609847 17.000000
13.642643 -0.407288 2.631047 9.000000
-15.283677 -0.290716 2.670664 35.500000
13.722382 -0.366523 2.646190 9.000000
13.851559 -0.304596 2.670797 10.000000
-10.068451 -0.205632 2.691427 47.000000
13.968707 -0.241385 2.693132 13.000000
-16.656101 -0.133726 2.610743 2.000000
-15.417499 -0.172219 2.693725 83.000000
-12.416316 -0.136620 2.620770 41.333332
-12.355656 -0.058227 2.607828 34.000000
-10.772936 -0.016921 2.674617 43.000000
-15.256894 0.021302 2.665501 16.000000
-10.621531 0.016683 2.637028 24.000000
-10.546782 0.140867 2.618715 33.250000
15.021243 0.309405 2.624885 26.000000
-9.884033 0.310612 2.642886 34.500000
15.114738 0.358837 2.641407 24.000000
15.223825 0.409286 2.660682 25.000000
-12.580912 0.494306 2.657391 41.000000
-9.927871 0.473396 2.656312 23.000000
-9.864590 0.418622 2.638755 47.000000
15.316989 0.459950 2.677204 26.000000
-12.587117 0.534157 2.659043 39.000000
-12.430981 0.579738 2.626552 33.666668
-9.911473 0.529845 2.652698 8.000000
-12.655787 0.656620 2.674738 8.000000
-12.723258 0.780418 2.690433 16.000000
-10.698031 0.723694 2.662087 62.000000
-10.452041 0.839115 2.603294 20.000000
-11.647664 1.070301 2.686649 34.666668
16.676491 1.025820 2.618795 40.000000
16.787548 1.085602 2.636757 36.000000
16.947796 1.176251 2.662772 49.000000
-12.278425 1.271042 2.605350 26.000000
16.851381 1.302560 2.649145 43.000000
16.949799 1.310131 2.664630 53.500000
-12.503346 1.479869 2.657391 40.000000
17.145756 1.460958 2.697148 40.000000
-12.473316 1.595656 2.654087 40.000000
18.653524 2.033009 2.605387 30.000000
18.773039 2.105734 2.622991 49.000000
18.812069 2.199971 2.629868 35.500000
-13.633281 2.225203 2.662847 0.000000
18.984404 2.310815 2.655448 25.000000
19.161829 2.393524 2.681304 23.000000
-12.432269 2.594972 2.680520 21.000000
-12.427885 2.634826 2.681346 28.000000
-12.323144 2.693639 2.662347 1.000000
-12.121243 2.709373 2.621458 36.000000
-12.018156 2.765761 2.602872 31.000000
-11.167086 3.596085 2.694708 30.666666
-11.083990 3.620666 2.678291 42.000000
-11.058888 3.728112 2.680619 45.000000
-10.940590 3.874153 2.665904 31.333334
-11.002893 3.941770 2.684559 41.000000
-10.865531 4.027974 2.661726 14.500000
-10.707961 4.065435 2.630832 10.000000
-16.282711 4.662817 2.654720 3.000000
-15.891446 5.409885 2.631183 0.000000
-16.312811 5.496207 2.698077 5.000000
-15.782484 5.483689 2.618795 6.000000
-15.730909 5.688301 2.621892 0.000000
-9.860314 5.677579 2.613461 30.600000
-12.730780 5.820504 2.698432 16.250000
-15.592997 6.001282 2.618795 15.500000
-12.579825 5.967898 2.684047 29.000000
-12.466578 5.986368 2.665875 32.000000
-12.514881 6.058016 2.680261 14.000000
-12.474609 6.086966 2.675718 20.000000
-9.592461 6.151159 2.617401 0.000000
-8.658033 6.125647 2.633173 51.000000
-8.522086 6.130473 2.606378 37.799999
-15.568995 6.246072 2.629325 5.000000
-12.045177 6.232942 2.614390 18.000000
-8.404433 6.289606 2.606185 28.000000
-8.636000 6.420680 2.671726 34.000000
-8.638967 6.550292 2.691645 35.666668
-8.505970 6.587159 2.671003 20.750000
-15.284248 6.610829 2.610124 18.500000
-15.409146 6.867040 2.644190 8.000000
-15.528071 6.978589 2.668347 10.000000
-15.354896 6.958830 2.642332 16.000000
-15.419222 7.046452 2.657197 1.000000
-15.043555 7.278818 2.619415 13.000000
-8.540980 7.458720 2.604566 31.666666
-8.634762 7.660995 2.651428 37.500000
-8.531366 7.665581 2.634414 38.500000
-14.720163 7.761059 2.608265 26.000000
-9.982325 7.718000 2.663173 9.000000
-14.793423 7.859182 2.625608 0.000000
-9.679979 7.880720 2.634537 11.333333
-15.056156 8.151016 2.683522 29.000000
-10.784407 8.230395 2.615147 4.000000
-10.681561 8.420659 2.621962 60.000000
-11.076867 8.536385 2.695782 41.000000
-10.951761 8.550281 2.678368 52.000000
-12.242126 8.687224 2.622590 6.333333
-10.748766 8.807131 2.678747 9.500000
-12.285320 8.893086 2.649668 9.000000
-10.629781 8.821884 2.662847 0.000000
-12.231842 8.913077 2.644160 37.000000
-10.639882 9.000882 2.686507 21.500000
-8.492979 8.930946 2.601220 9.000000
-8.438004 9.185912 2.632610 17.000000
-16.268797 9.309690 2.602637 6.000000
-8.419660 9.223936 2.635914 4.000000
-8.666117 9.345508 2.690020 9.500000
-16.292212 9.459473 2.615839 8.000000
-8.390415 9.486975 2.673086 2.000000
-12.124718 9.554920 2.696995 36.500000
-8.213511 9.570965 2.661934 27.500000
-16.246634 9.638880 2.622991 2.000000
-11.260103 9.767571 2.604233 30.000000
-11.487716 9.901943 2.649668 17.000000
-12.975895 10.594223 2.625608 13.000000
-12.938052 10.665306 2.628086 30.000000
-8.302726 10.669163 2.606062 0.000000
-12.868855 10.779205 2.631183 38.500000
-8.312412 10.751122 2.619690 20.000000
-12.964819 10.824903 2.647287 32.000000
-8.213791 10.868511 2.626126 5.500000
-13.003362 10.926591 2.662153 10.000000
-12.855545 10.975735 2.649455 23.000000
-12.799177 11.032371 2.648526 40.000000
-12.764457 11.072522 2.648526 39.000000
-12.777238 11.154155 2.658436 38.000000
-12.849010 11.288131 2.680734 26.000000
-12.374480 11.874998 2.688167 9.000000
-12.281793 12.010435 2.692503 7.000000
-13.547591 13.165253 2.622991 13.000000
-13.528823 13.229914 2.627392 0.000000
13.479736 13.274276 2.626842 14.000000
-13.577561 13.361275 2.644996 3.000000
13.422637 13.343220 2.627942 22.500000
-13.583373 13.451262 2.654348 22.000000
13.351032 13.609810 2.647197 24.000000
-13.664534 13.616917 2.678554 2.000000
12.796633 13.804573 2.613639 14.500000
12.853423 13.735467 2.611989 22.000000
-16.764688 14.537395 2.687235 0.000000
-16.370012 14.559545 2.653092 3.000000
-16.291647 14.581767 2.647802 21.000000
-16.278208 14.662114 2.653092 13.000000
-15.691568 14.678773 2.602117 1.000000
-16.287970 14.763848 2.662229 30.000000
-19.416065 16.518522 2.636147 6.000000
-19.324780 16.545803 2.630798 1.000000
-19.319643 16.752909 2.644376 4.000000
-19.343693 16.934219 2.658571 5.500000
-17.994404 18.152126 2.643142 26.000000
-12.997044 22.602535 2.696218 59.500000
-12.894334 22.670479 2.697041 58.000000
-12.830867 22.724737 2.698687 62.000000
19.836327 23.167980 2.619042 29.000000
19.403828 23.396938 2.610144 14.000000
-18.391182 24.080784 2.601930 4.000000
19.357115 24.256922 2.664900 3.000000
-18.577772 24.644585 2.650184 17.000000
-18.495481 24.696445 2.649500 2.000000
17.816936 24.950781 2.632731 2.000000
18.210855 25.000805 2.656002 2.000000
18.443314 24.988501 2.666953 3.000000
17.440573 25.084351 2.623491 32.000000
17.269093 25.173719 2.621437 10.000000
17.377535 25.161972 2.625886 35.000000
18.314461 25.309731 2.682695 11.000000
-14.185433 27.076668 2.624860 52.000000
-14.059861 27.043306 2.617331 70.000000
-13.958393 27.055464 2.614250 38.000000
-13.867871 27.088543 2.613224 39.000000
-14.339275 27.162367 2.637522 19.000000
-13.749024 27.171349 2.614935 54.500000
-13.667218 27.328535 2.623833 51.000000
-13.662786 27.535555 2.639575 23.000000
17.155046 34.094189 2.609987 12.000000
16.912151 34.144089 2.605620 2.000000
16.686790 34.228149 2.603983 9.000000
16.613928 34.352261 2.609441 13.000000
16.384041 34.427143 2.607258 13.000000
16.119362 34.710327 2.617082 7.000000
16.388239 34.716625 2.625269 6.000000
16.721701 34.854038 2.643553 11.000000
15.465865 35.315929 2.636458 17.000000
14.470911 35.442200 2.617901 18.000000
13.735574 35.541153 2.605620 26.000000
14.134764 35.573303 2.617628 24.000000
14.390929 35.565174 2.623631 13.000000
15.298890 35.540699 2.646009 11.000000
13.273961 35.673546 2.602891 9.000000
13.415440 35.710121 2.608622 3.000000
13.540297 35.701382 2.611078 8.000000
13.976383 35.663635 2.619402 13.500000
15.205956 35.632629 2.649284 21.000000
15.464507 35.616917 2.655288 19.000000
13.678072 35.725750 2.615990 11.000000
14.871001 36.097633 2.669751 2.000000
7.410883 37.948849 2.644099 9.000000
7.544055 37.995834 2.649011 5.000000
7.068913 38.103329 2.650103 9.000000
7.181921 38.045643 2.647646 10.000000
7.323234 38.136543 2.655560 8.000000
10.296324 -30.506807 2.764829 12.000000
10.127202 -30.319761 2.744980 11.000000
9.747396 -30.286985 2.732147 19.500000
9.867122 -30.170671 2.725816 23.000000
9.890568 -29.923836 2.706309 18.000000
10.710737 -29.864658 2.724447 2.000000
11.488363 -29.390312 2.709731 14.000000
12.246770 -29.406513 2.735398 6.000000
11.568933 -29.324417 2.706993 7.000000
12.343726 -29.378916 2.736424 40.000000
11.733641 -29.203075 2.702544 10.000000
13.600282 -29.232462 2.768594 6.000000
13.777418 -28.897934 2.749087 6.000000
15.904808 -28.168987 2.777834 3.000000
-16.869377 -27.260611 2.752851 3.000000
-16.489862 -27.217285 2.732660 22.000000
-16.604216 -27.021460 2.723420 9.000000
16.631432 -27.023436 2.724789 3.000000
16.957481 -26.980217 2.736424 3.000000
17.197351 -26.984041 2.747718 5.000000
3.652922 -26.805946 2.797640 37.000000
17.336275 -26.828596 2.742927 12.000000
17.435688 -26.797384 2.745322 25.000000
17.598412 -26.862484 2.757643 37.000000
17.713440 -26.853642 2.762434 44.000000
17.804333 -26.807817 2.763460 28.000000
-16.800947 -26.772627 2.714180 7.000000
17.886242 -26.748442 2.763118 35.000000
17.965736 -26.685507 2.762434 19.000000
18.040539 -26.615738 2.761065 33.000000
18.170240 -26.536974 2.761749 13.000000
18.346836 -26.437021 2.763289 17.000000
18.504566 -26.309807 2.762091 13.000000
18.766287 -26.241497 2.770305 12.000000
18.584515 -26.160616 2.755589 13.000000
-6.955575 -25.940447 2.777273 0.000000
-7.138852 -25.812149 2.769456 7.500000
-7.017228 -25.845509 2.769456 3.000000
18.566896 -25.791050 2.728896 8.000000
-7.249712 -25.739931 2.765342 9.000000
19.052973 -25.776836 2.752509 18.000000
18.582962 -25.474258 2.707678 11.000000
19.009109 -25.382280 2.723078 5.000000
19.100765 -25.173447 2.713495 14.000000
19.853243 -25.165649 2.752509 6.000000
19.486441 -24.860909 2.712469 8.000000
-7.838984 -21.690437 2.793032 31.000000
-7.182207 -21.552824 2.751194 34.000000
-7.255645 -21.435974 2.740614 37.500000
-7.447608 -21.338497 2.737008 37.500000
-7.348869 -21.379030 2.737729 35.000000
-7.548708 -21.094315 2.713203 35.000000
-7.477095 -21.102955 2.711280 39.000000
19.650883 -18.498634 2.790851 25.000000
19.540369 -18.279161 2.766987 27.000000
19.431593 -18.063274 2.743535 30.000000
19.324577 -17.850950 2.720494 30.000000
-9.512924 -17.637905 2.782527 17.000000
17.743586 -14.715319 2.791589 29.000000
17.664078 -14.555967 2.771873 29.000000
17.580675 -14.394742 2.751675 29.000000
17.499517 -14.236693 2.731958 31.000000
17.555584 -14.145314 2.730275 59.500000
17.657745 -14.090950 2.735806 53.000000
17.706791 -13.994031 2.733160 62.500000
17.855433 -13.975302 2.745904 4.000000
16.236237 -11.753076 2.783077 30.000000
16.189447 -11.641869 2.768774 32.000000
16.119553 -11.514952 2.750620 30.000000
16.149187 -11.459667 2.749520 52.000000
16.250011 -11.416430 2.757496 47.500000
16.315018 -11.347681 2.759422 95.000000
16.324512 -11.278353 2.755021 58.000000
16.504965 -11.288563 2.776476 12.500000
16.472729 -11.152877 2.762172 16.000000
15.084404 -9.469768 2.791606 36.000000
15.011313 -9.325650 2.769927 35.500000
14.944057 -9.186458 2.749487 38.000000
14.870649 -9.045127 2.728118 36.000000
14.825862 -8.859064 2.707059 43.500000
14.946797 -8.751612 2.714801 51.666664
15.125772 -8.655602 2.731525 6.000000
15.129590 -8.552930 2.724092 24.333334
-15.786018 -7.891273 2.766211 35.000000
14.100243 -7.519411 2.791823 37.500000
14.019881 -7.363793 2.766696 33.500000
13.941635 -7.211281 2.742258 28.500000
13.865533 -7.061850 2.718508 31.500000
13.967806 -6.731227 2.708870 45.000000
14.049182 -6.689081 2.718508 37.000000
14.141161 -6.651270 2.730211 46.500000
-14.087414 -6.524197 2.712312 9.000000
14.283614 -6.581718 2.747650 49.666668
14.423463 -6.509378 2.764631 45.000000
-14.157010 -6.457698 2.718508 27.333334
14.572650 -6.439358 2.783448 43.333332
-13.016425 -6.310898 2.788531 36.000000
14.687522 -6.380221 2.797674 44.000000
-14.581554 -6.177495 2.766696 10.000000
-14.922412 -5.722199 2.792167 5.000000
14.974207 -5.592720 2.792626 42.000000
14.932220 -5.505826 2.780464 43.000000
14.882050 -5.407843 2.766352 41.000000
14.831350 -5.310393 2.752240 42.000000
14.781112 -5.240074 2.739848 39.000000
-14.916152 -5.188513 2.759124 5.000000
-14.872766 -5.121105 2.748109 33.000000
14.705168 -5.135320 2.721262 40.500000
-14.709759 -5.013344 2.715066 12.000000
14.660727 -5.016646 2.707150 37.500000
-13.601995 -4.969547 2.791560 35.000000
-15.394692 -4.292480 2.792167 22.000000
12.708765 -3.713894 2.794515 39.000000
12.656515 -3.612554 2.777994 45.000000
12.579315 -3.462635 2.753763 51.000000
12.502944 -3.315167 2.730083 43.666668
12.441444 -3.194446 2.711084 48.000000
-9.899492 -2.541679 2.731533 28.500000
-9.950925 -2.422218 2.737127 34.250000
-10.721838 -2.378940 2.726664 0.000000
-10.955031 -2.214890 2.774855 2.000000
-10.769491 -2.224373 2.730198 32.666668
-9.921273 -2.283289 2.720861 37.000000
-9.880502 -2.192266 2.704853 35.000000
11.949157 -2.240563 2.792461 49.000000
-10.882319 -2.129204 2.753008 39.666668
11.886185 -2.113085 2.772985 50.750000
-10.729581 -2.011888 2.710279 43.500000
-14.149009 -1.923064 2.752568 27.000000
-11.615812 -1.895915 2.703364 37.000000
-10.245907 -1.971196 2.788508 47.000000
11.788953 -1.924177 2.743659 28.000000
11.822025 -1.986839 2.753509 46.000000
-14.195866 -1.838693 2.759382 36.000000
-10.293568 -1.863229 2.795738 10.000000
11.737160 -1.821305 2.728213 41.000000
11.671894 -1.698606 2.709184 44.000000
-14.200907 -1.658107 2.756101 27.666666
-13.147110 -1.653871 2.796718 25.333334
-11.696463 -1.664731 2.713662 16.000000
-12.014675 -1.536983 2.782164 7.000000
-11.692824 -1.533164 2.708737 49.000000
-14.326756 -1.399672 2.774903 40.500000
-14.272881 -1.477429 2.766070 31.000000
-14.118111 -1.312185 2.733260 33.000000
-14.232636 -1.221506 2.753703 24.750000
11.714996 -1.218720 2.705379 48.250000
-14.153061 -1.136241 2.737046 36.000000
