# This PCD file was generated using the MATLAB® pcwrite function
# from Computer Vision Toolbox®.
# .PCD v.7 - Point Cloud Data file format
VERSION .7
FIELDS x y z intensity
SIZE 4 4 4 4
TYPE F F F F
COUNT 1 1 1 1
WIDTH 1214
HEIGHT 1
VIEWPOINT 0 0 0 1 0 0 0
POINTS 1214
DATA ascii
-10.762684 -11.728879 -0.017781 34.000000
-10.629541 -11.768097 -0.017714 39.500000
-9.682626 -11.716907 -0.016979 9.500000
-9.590383 -11.792553 -0.016979 31.000000
-8.931392 -11.715786 -0.016456 20.500000
-8.058470 -11.594620 -0.015772 37.000000
-7.947519 -11.648594 -0.015752 38.250000
-10.792565 -11.577788 -0.017680 37.000000
-9.265690 -11.540562 -0.016532 27.000000
-9.138732 -11.567598 -0.016467 25.000000
-9.010601 -11.553761 -0.016366 20.000000
19.688860 -11.505240 -0.025472 29.000000
-10.802008 -11.442789 -0.017577 38.000000
19.600353 -11.371068 -0.025311 39.000000
-10.843805 -11.236897 -0.017443 35.000000
19.538927 -11.253536 -0.025186 40.000000
19.483898 -11.140479 -0.025070 38.000000
-10.863134 -11.081505 -0.017334 35.500000
-10.905119 -10.950947 -0.017263 37.333332
19.393364 -10.967863 -0.024887 39.000000
-11.217002 -10.847275 -0.017430 5.000000
-11.060121 -10.847759 -0.017305 25.500000
-10.954837 -10.863445 -0.017233 37.000000
19.301765 -10.796234 -0.024704 41.000000
19.251656 -10.688947 -0.024597 43.000000
19.194057 -10.578215 -0.024480 40.000000
19.135956 -10.467950 -0.024364 40.000000
19.080866 -10.360064 -0.024253 39.000000
19.021767 -10.250731 -0.024136 41.000000
18.939186 -10.091441 -0.023971 40.500000
18.855646 -9.933044 -0.023806 41.000000
18.774471 -9.777614 -0.023645 41.500000
18.703033 -9.628568 -0.023497 39.000000
18.661949 -9.533368 -0.023408 46.000000
18.800064 -9.455376 -0.023506 60.666668
18.844795 -9.330055 -0.023488 61.000000
18.757353 -9.177038 -0.023325 51.000000
18.424112 -8.906563 -0.022859 60.000000
18.220387 -8.702461 -0.022555 39.500000
18.145483 -8.561838 -0.022412 41.000000
18.103456 -8.472574 -0.022327 42.000000
18.046537 -8.376923 -0.022224 41.000000
17.978500 -8.242661 -0.022092 41.500000
17.909695 -8.109128 -0.021960 43.000000
17.841768 -7.977334 -0.021831 42.000000
17.756054 -7.805509 -0.021666 42.500000
17.686270 -7.675533 -0.021536 46.000000
17.622927 -7.549617 -0.021415 45.000000
17.539139 -7.383641 -0.021257 41.500000
17.452118 -7.218258 -0.021096 43.500000
17.387840 -7.095847 -0.020977 45.000000
17.343298 -7.014190 -0.020897 48.000000
17.299965 -6.902017 -0.020805 43.500000
17.426311 -6.794158 -0.020893 61.333332
17.419315 -6.634439 -0.020821 75.000000
17.360556 -6.518487 -0.020714 74.000000
17.317211 -6.440214 -0.020638 75.000000
17.284809 -6.366423 -0.020575 74.000000
16.985310 -6.195580 -0.020196 70.000000
16.873018 -6.094627 -0.020039 44.000000
16.812956 -5.983567 -0.019934 46.500000
16.742579 -5.840267 -0.019807 46.000000
16.665396 -5.696139 -0.019673 44.500000
16.580622 -5.522067 -0.019521 47.000000
16.608683 -5.589439 -0.019574 44.000000
16.520903 -5.415869 -0.019420 48.000000
16.468235 -5.312748 -0.019329 49.000000
16.439116 -5.246391 -0.019275 47.000000
16.379665 -5.142536 -0.019177 46.000000
16.323488 -5.040478 -0.019083 46.000000
16.278133 -4.942618 -0.019003 48.500000
16.209167 -4.810646 -0.018886 47.000000
16.158726 -4.712899 -0.018802 49.000000
16.127333 -4.648818 -0.018748 49.000000
16.059883 -4.520387 -0.018636 48.333332
15.975319 -4.361396 -0.018498 47.000000
15.947195 -4.219343 -0.018426 45.333332
16.094788 -4.096501 -0.018551 73.000000
16.044582 -3.923211 -0.018450 80.000000
15.966594 -3.771436 -0.018326 81.000000
15.898357 -3.650017 -0.018221 81.000000
15.509094 -3.458203 -0.017749 43.500000
15.433399 -3.314364 -0.017632 43.666668
15.361719 -3.172900 -0.017521 43.000000
15.291306 -3.033380 -0.017413 42.666668
15.202602 -2.867147 -0.017281 42.000000
15.133499 -2.731156 -0.017177 42.000000
15.089099 -2.649756 -0.017113 43.000000
15.054081 -2.570562 -0.017059 42.500000
14.992968 -2.463276 -0.016972 43.000000
14.943204 -2.382815 -0.016903 44.000000
14.899828 -2.280070 -0.016837 44.000000
14.828905 -2.150115 -0.016737 48.500000
14.791360 -2.073525 -0.016684 51.000000
-7.587975 -1.939794 -0.008748 0.000000
14.739283 -1.971941 -0.016611 50.000000
14.672330 -1.845767 -0.016518 50.500000
14.637205 -1.771297 -0.016469 50.000000
14.575133 -1.671011 -0.016387 36.333332
14.488551 -1.499824 -0.016270 43.000000
14.527075 -1.573014 -0.016322 39.000000
14.430167 -1.379363 -0.016192 42.333332
14.363837 -1.247890 -0.016105 44.000000
14.270799 -1.070631 -0.015986 46.750000
14.212013 -0.953928 -0.015911 48.000000
14.178406 -0.884598 -0.015868 49.000000
14.112326 -0.769296 -0.015787 44.000000
14.051182 -0.644259 -0.015712 53.500000
13.963811 -0.475521 -0.015607 56.500000
13.868778 -0.297787 -0.015495 55.500000
13.903226 -0.364069 -0.015535 57.000000
13.802905 -0.166312 -0.015419 57.000000
13.722606 -0.014417 -0.015328 54.000000
-0.080755 0.200192 -0.006440 1.000000
13.647233 0.135684 -0.015245 49.250000
13.585425 0.263219 -0.015178 45.000000
-0.156987 0.324386 -0.095013 1.000000
13.644033 0.328688 -0.015245 32.000000
13.734900 0.374054 -0.015348 31.000000
-0.035472 0.444813 -0.052692 43.875244
13.817617 0.419753 -0.015442 30.000000
13.920173 0.466644 -0.015558 30.000000
-0.085411 0.590889 -0.016136 78.366409
14.022568 0.514184 -0.015674 30.000000
14.116807 0.562053 -0.015781 28.000000
-0.100079 0.684538 -0.039826 74.153847
14.222873 0.611036 -0.015902 31.000000
14.312785 0.659953 -0.016005 28.000000
0.072793 0.710929 -0.011875 38.275448
14.418509 0.710227 -0.016125 31.000000
14.508080 0.760337 -0.016228 30.000000
-0.108306 0.877238 -0.092383 86.870964
0.071795 0.866284 -0.058969 58.267857
0.106743 0.831749 -0.010651 2.000000
14.621442 0.812345 -0.016358 32.000000
14.730625 0.864841 -0.016483 29.000000
-0.175435 0.974655 -0.001106 9.800000
14.831637 0.917536 -0.016599 33.000000
14.948429 0.971911 -0.016733 35.000000
-18.529211 1.068385 -0.020732 15.000000
2.651073 1.104621 -0.003208 67.000000
15.017486 1.047481 -0.016815 54.000000
-18.629572 1.132909 -0.020848 4.000000
2.657326 1.161559 -0.092368 50.538460
14.974712 1.139075 -0.016775 55.500000
-18.687872 1.224821 -0.020919 6.000000
-18.490385 1.299461 -0.020705 9.000000
14.931381 1.230191 -0.016735 58.500000
-18.534081 1.361056 -0.020759 15.000000
14.874088 1.343141 -0.016682 59.333332
14.790133 1.499703 -0.016605 58.500000
14.822932 1.432508 -0.016635 60.000000
14.722599 1.633119 -0.016546 61.750000
13.490362 1.754493 -0.015196 3.500000
14.664715 1.743469 -0.016496 67.000000
13.251191 1.808078 -0.014939 0.000000
14.632502 1.809596 -0.016469 66.500000
13.201834 1.928245 -0.014903 0.250000
14.582118 1.919743 -0.016429 55.333332
13.108418 2.083150 -0.014826 1.250000
14.525022 2.028425 -0.016382 61.500000
14.486263 2.115887 -0.016353 63.000000
12.998653 2.296692 -0.014745 4.000000
13.045650 2.220527 -0.014782 2.666667
14.427003 2.223076 -0.016305 59.333332
12.945728 2.392282 -0.014705 5.500000
14.376461 2.354218 -0.016273 55.000000
14.341713 2.441171 -0.016250 49.000000
12.857325 2.564431 -0.014645 10.000000
14.305040 2.527492 -0.016226 47.000000
12.814655 2.660773 -0.014619 12.500000
14.251121 2.679872 -0.016198 44.250000
12.903715 2.742769 -0.014736 72.000000
14.213035 2.788486 -0.016179 36.000000
12.746239 2.826666 -0.014584 29.200001
14.187954 2.853064 -0.016165 36.500000
12.683208 2.988848 -0.014555 44.333332
12.710878 2.911180 -0.014566 45.000000
14.141042 2.974767 -0.016142 26.000000
12.635316 3.124542 -0.014539 49.250000
14.102367 3.113494 -0.016132 21.000000
12.576307 3.236058 -0.014505 50.000000
12.534454 3.309399 -0.014481 49.000000
12.475647 3.419950 -0.014450 50.500000
12.383960 3.604902 -0.014407 51.000000
12.421757 3.531396 -0.014425 52.500000
12.328314 3.715079 -0.014383 49.750000
-6.575616 3.842481 -0.008507 1.000000
12.271809 3.824582 -0.014358 52.500000
12.225496 3.915748 -0.014339 54.666668
12.153833 4.040663 -0.014307 53.000000
12.071607 4.203760 -0.014278 55.000000
12.110434 4.132165 -0.014293 57.000000
12.004240 4.328872 -0.014254 55.000000
11.939985 4.454659 -0.014235 51.666664
11.886339 4.562738 -0.014222 8.000000
-17.675592 4.795609 -0.020458 49.666668
-17.543589 4.937889 -0.020358 64.000000
-7.526473 5.283778 -0.010272 0.500000
-7.446245 5.332878 -0.010231 1.000000
-7.324549 5.403974 -0.010167 1.200000
-7.242633 5.449795 -0.010125 2.000000
-7.162362 5.495785 -0.010084 2.200000
11.445665 5.406431 -0.014140 40.200001
-7.032526 5.573812 -0.010024 2.200000
11.363398 5.552112 -0.014127 47.833336
-6.956680 5.621356 -0.009991 2.000000
-6.870767 5.677824 -0.009956 2.000000
11.321885 5.642413 -0.014130 37.500000
-6.773480 5.742306 -0.009919 2.000000
-6.707704 5.833060 -0.009929 2.166667
-6.548884 5.878016 -0.009830 2.000000
-6.455377 5.942234 -0.009801 1.500000
-6.847424 6.443775 -0.010503 3.000000
-6.890121 6.586723 -0.010647 6.500000
-6.912771 6.755403 -0.010797 7.400000
-6.853442 6.824794 -0.010804 6.000000
-7.865129 8.340437 -0.012805 0.000000
-7.770112 8.370355 -0.012757 2.500000
-7.617384 8.415398 -0.012679 7.750000
-7.522418 8.442981 -0.012631 9.000000
-7.450685 8.479704 -0.012609 5.600000
-7.340065 8.545692 -0.012583 3.000000
-7.272229 8.669838 -0.012640 3.500000
-7.221471 8.719953 -0.012647 3.500000
-7.156006 8.837028 -0.012702 1.600000
-7.100382 8.939209 -0.012752 0.000000
-7.082178 8.974030 -0.012770 0.000000
-6.841638 9.013529 -0.012640 0.000000
-6.796431 9.012621 -0.012609 3.000000
18.540173 9.349075 -0.023194 6.000000
18.546370 9.425396 -0.023238 2.000000
-7.872849 10.304710 -0.014485 3.000000
-7.751993 10.335904 -0.014432 14.166667
-7.650908 10.381224 -0.014405 22.000000
-8.082831 10.488095 -0.014791 3.000000
-7.578473 10.419385 -0.014392 23.000000
-7.471788 10.478886 -0.014376 23.500000
-7.366989 10.540706 -0.014365 26.000000
-7.294942 10.578550 -0.014354 18.000000
-7.172995 10.650392 -0.014343 14.800000
-7.063097 10.703619 -0.014325 16.000000
-6.995693 10.747743 -0.014325 20.000000
-6.871168 10.814703 -0.014312 22.000000
-6.729468 10.891686 -0.014301 22.750000
-6.588992 10.970240 -0.014294 24.750000
-6.431089 11.058635 -0.014290 29.600000
-6.310756 11.131548 -0.014293 59.000000
-6.241665 11.172727 -0.014295 24.500000
-6.122400 11.247963 -0.014305 20.799999
-5.968662 11.344585 -0.014319 15.750000
-5.851322 11.424695 -0.014338 10.333333
-5.788464 11.479121 -0.014360 3.000000
-5.865130 11.722614 -0.014642 1.000000
-5.170395 13.726507 -0.016384 2.000000
-5.075685 13.736174 -0.016358 14.333333
-7.738699 15.548599 -0.019400 1.333333
-7.634465 15.625232 -0.019426 0.333333
-7.538457 15.677760 -0.019432 0.000000
-7.350979 15.793010 -0.019458 1.000000
-7.299653 15.812392 -0.019454 1.000000
-7.021751 15.995945 -0.019513 0.666667
-6.876941 16.076138 -0.019531 4.000000
-6.745542 16.160624 -0.019561 5.000000
-6.671605 16.299444 -0.019673 1.000000
-6.627879 16.338860 -0.019695 0.000000
-6.612326 16.448669 -0.019802 1.000000
12.565999 18.140852 -0.024650 37.000000
12.338221 18.298946 -0.024652 46.000000
12.493567 18.280514 -0.024733 43.000000
12.768317 18.248600 -0.024878 40.000000
12.923437 18.286186 -0.025012 55.500000
13.060582 18.296747 -0.025110 44.000000
12.190857 18.327831 -0.024588 45.500000
13.181021 18.343332 -0.025231 38.000000
13.285471 18.366652 -0.025320 34.000000
13.371360 18.363626 -0.025374 40.000000
-7.367368 18.494589 -0.022237 0.000000
11.977695 18.444033 -0.024565 31.000000
12.130737 18.425205 -0.024641 44.000000
13.551948 18.489292 -0.025606 33.000000
13.669830 18.467007 -0.025664 32.000000
13.787869 18.444046 -0.025723 29.000000
11.978229 18.572330 -0.024686 43.000000
12.149412 18.580399 -0.024798 49.000000
-7.372382 18.677631 -0.022430 0.000000
16.915459 18.668243 -0.028140 49.000000
17.245327 18.675499 -0.028394 38.000000
11.884507 18.748543 -0.024795 49.500000
12.034166 18.788389 -0.024923 59.000000
16.712189 18.796944 -0.028095 55.000000
16.816616 18.735798 -0.028122 46.000000
17.120703 18.716654 -0.028334 45.500000
17.439545 18.708065 -0.028569 35.500000
-6.834590 18.859785 -0.022407 0.000000
-6.772608 18.873632 -0.022398 1.000000
11.730412 18.897148 -0.024845 41.000000
11.803418 18.816259 -0.024811 53.000000
16.541626 18.902016 -0.028057 50.000000
16.655703 18.852352 -0.028100 49.000000
17.776934 18.890831 -0.028975 39.000000
18.008415 18.897488 -0.029158 9.000000
11.576455 18.980173 -0.024833 45.000000
11.629744 18.933485 -0.024820 32.000000
16.318289 18.944992 -0.027930 47.000000
17.968212 18.974298 -0.029190 16.000000
-6.566159 19.047949 -0.022506 3.666667
2.462648 19.091793 -0.021502 23.500000
16.341923 19.093409 -0.028073 55.000000
16.506107 19.041735 -0.028149 61.000000
-6.440532 19.171026 -0.022590 2.500000
2.377836 19.144888 -0.021549 6.000000
2.558164 19.121628 -0.021549 16.000000
16.057796 19.184504 -0.027945 54.500000
16.255646 19.174740 -0.028079 49.000000
11.636952 19.214891 -0.025093 44.000000
11.500216 19.399410 -0.025191 35.000000
11.580187 19.326103 -0.025166 40.000000
14.600543 19.319336 -0.027050 30.666666
15.771134 19.392540 -0.027921 55.000000
15.918192 19.385971 -0.028019 50.000000
16.009363 19.310787 -0.028019 59.000000
11.455446 19.463020 -0.025227 35.000000
15.715160 19.448214 -0.027930 38.000000
15.223054 19.583063 -0.027706 50.000000
15.605125 19.562206 -0.027952 48.000000
15.706573 19.562990 -0.028024 65.000000
11.472952 19.633604 -0.025401 35.000000
15.476090 19.652462 -0.027942 51.000000
9.935335 19.754215 -0.024699 28.000000
10.004580 19.737179 -0.024717 1.000000
11.509569 19.839083 -0.025620 38.000000
14.913507 19.949814 -0.027822 2.000000
15.229394 19.976969 -0.028059 58.000000
15.324577 19.906528 -0.028062 56.000000
15.178130 20.171343 -0.028198 6.000000
11.630916 20.243191 -0.026078 22.666666
11.752534 20.705027 -0.026594 0.000000
11.686647 20.893663 -0.026741 9.000000
-7.033753 21.494398 -0.025262 9.000000
-6.971125 21.531610 -0.025280 12.000000
-6.880484 21.598503 -0.025320 8.000000
-6.767222 21.713875 -0.025405 3.500000
-6.679866 24.518328 -0.028385 0.000000
8.750963 26.002958 -0.030646 68.000000
8.870171 25.951931 -0.030635 80.000000
9.044232 25.927799 -0.030673 56.000000
8.670493 26.034117 -0.030651 68.000000
9.249115 26.118694 -0.030950 62.000000
9.571624 26.240803 -0.031200 72.000000
9.471594 26.351433 -0.031279 86.500000
9.703783 26.345728 -0.031361 75.000000
-6.412277 27.210655 -0.031227 1.000000
-6.288424 27.260033 -0.031249 1.000000
-6.124487 27.332176 -0.031287 1.000000
-5.762486 27.535473 -0.031424 1.000000
-5.685642 27.600451 -0.031477 3.000000
17.247114 32.004597 -0.040610 2.000000
17.144598 32.055096 -0.040606 10.000000
16.957766 32.190498 -0.040641 3.000000
16.577396 32.450916 -0.040704 2.000000
16.196703 32.714020 -0.040775 2.000000
15.887667 32.865219 -0.040775 3.000000
15.597701 33.056904 -0.040829 1.000000
15.302188 33.238773 -0.040874 2.000000
15.111189 33.374344 -0.040923 24.000000
15.210979 33.315792 -0.040909 3.000000
14.914209 33.497864 -0.040959 2.000000
15.019372 33.450844 -0.040959 2.000000
14.807285 33.540897 -0.040954 5.000000
14.714670 33.616562 -0.040990 4.000000
14.416026 33.797901 -0.041043 2.000000
14.518971 33.745094 -0.041034 2.000000
14.317564 33.861443 -0.041066 1.000000
13.819920 34.171154 -0.041173 3.000000
13.922668 34.116459 -0.041160 4.000000
13.725892 34.247818 -0.041213 3.000000
13.529479 34.381775 -0.041271 1.000000
13.630043 34.320511 -0.041249 2.000000
13.320393 34.484760 -0.041294 2.000000
13.075220 34.657516 -0.041376 6.500000
15.643610 34.841133 -0.042661 59.000000
15.782687 34.857407 -0.042741 22.000000
15.561734 34.952225 -0.042737 54.000000
15.476084 35.055832 -0.042804 48.000000
11.713632 35.543564 -0.041803 73.000000
11.827765 35.514175 -0.041812 2.000000
11.581079 35.643013 -0.041863 62.333332
11.414610 35.766697 -0.041937 70.000000
11.311824 35.832901 -0.041973 64.000000
11.115959 35.998814 -0.042084 1.000000
10.943534 36.110085 -0.042147 19.333334
-0.045986 0.272201 0.042332 7.841914
-0.004681 0.433324 0.006277 112.100197
0.033944 0.579858 0.003345 90.878052
0.104476 0.764698 0.003065 1.333333
2.703079 1.078936 0.047282 46.372547
2.649036 1.168414 0.055566 52.630348
2.681047 1.268471 0.048129 3.000000
2.700491 1.081835 0.188041 42.023811
2.650095 1.160289 0.195875 43.662037
-7.689095 5.785740 0.156206 0.000000
-4.606397 -16.365849 0.275989 3.000000
-4.509064 -16.374630 0.275704 8.800000
-6.936191 -15.846149 0.280794 25.000000
-7.106721 -15.695800 0.279690 36.000000
-7.023680 -15.775402 0.280318 32.333332
-7.160511 -15.618527 0.278911 34.000000
-7.200450 -15.512037 0.277612 38.000000
-7.288021 -15.445967 0.277245 31.333334
-8.750808 -15.304538 0.286182 2.000000
-7.422728 -15.313607 0.276249 28.666666
-7.339466 -15.304931 0.275535 36.000000
-7.465749 -15.199182 0.274886 38.000000
-7.493532 -14.957685 0.271575 30.000000
-7.551946 -14.840824 0.270309 29.000000
-7.344880 -14.835151 0.268718 36.000000
-7.536719 -14.639721 0.267290 37.000000
-7.582491 -14.559700 0.266478 34.000000
-7.642022 -14.451675 0.265374 33.500000
-7.903540 -14.234916 0.264303 33.000000
-7.760094 -14.292325 0.264000 27.666666
-7.620498 -14.247975 0.262291 41.000000
-11.916161 -14.100871 0.299686 21.000000
-11.894948 -14.165805 0.300271 5.000000
-7.965903 -14.137345 0.263416 30.333334
-7.820172 -14.189623 0.263005 37.000000
-8.052014 -14.082397 0.263329 26.000000
-7.960174 -13.427806 0.253396 36.000000
-7.891754 -13.456518 0.253234 38.000000
-7.781057 -13.460808 0.252390 40.500000
-7.998631 -13.348991 0.252617 38.000000
-8.226734 -13.206458 0.252574 34.333332
-8.083820 -13.253835 0.252011 34.666668
-8.304564 -13.146680 0.252422 34.000000
-8.253523 -12.975417 0.249630 44.000000
-8.397241 -12.812777 0.248678 19.666666
-8.187482 -12.694749 0.245216 24.000000
-8.216431 -12.652196 0.244891 40.000000
-8.095788 -12.639580 0.243658 35.000000
-8.281519 -12.408232 0.242164 21.000000
-11.814554 -12.320302 0.277093 32.500000
-8.280880 -12.240011 0.239892 20.000000
-11.898489 -12.099541 0.275470 41.000000
-11.821816 -12.135380 0.275016 37.000000
-8.144236 -12.119904 0.237035 46.000000
-11.987444 -12.000082 0.275340 33.000000
-11.891432 -12.016614 0.274431 34.000000
-11.565574 -12.060468 0.271250 62.000000
-10.594460 -12.029718 0.260213 31.000000
-10.471449 -12.041702 0.259044 27.000000
-10.036091 -12.002990 0.253980 26.666666
-8.475569 -12.032708 0.238918 20.000000
-12.052433 -11.951884 0.275535 34.000000
-8.130833 -11.897061 0.233919 30.500000
-7.930919 -11.964153 0.233010 26.000000
-12.110146 -11.859130 0.275145 2.000000
-11.189814 -11.816363 0.264173 29.000000
-11.049788 -11.816326 0.262615 35.000000
-10.920192 -11.825671 0.261295 39.333332
-10.633141 -11.846714 0.258411 32.500000
-9.458754 -11.819080 0.245735 31.000000
-9.074219 -11.825754 0.241970 28.000000
-8.992986 -11.834923 0.241288 30.500000
-8.344278 -11.846251 0.235217 29.500000
-8.232771 -11.885180 0.234698 23.000000
-11.092340 -11.787378 0.262745 42.000000
-10.738747 -11.776927 0.258720 38.000000
-9.887109 -11.699814 0.248657 3.000000
-9.556253 -11.750658 0.245865 33.666668
-9.274081 -11.776706 0.243333 31.666666
-9.035542 -11.699063 0.239957 31.000000
-8.830106 -11.734981 0.238399 33.000000
-8.540432 -11.741900 0.235694 27.500000
-8.411584 -11.783905 0.235023 31.000000
-9.653880 -11.644685 0.245540 31.000000
-9.581649 -11.631739 0.244631 43.000000
-9.062433 -11.657988 0.239697 31.000000
-8.651608 -11.611298 0.235055 36.000000
-8.590891 -11.643891 0.234893 32.000000
-9.955173 -11.557628 0.247618 37.000000
-9.885065 -11.586096 0.247228 40.500000
-11.001678 -10.909896 0.251513 0.000000
-11.084484 -10.815788 0.251402 34.000000
-11.182904 -10.724033 0.251513 36.333332
17.314939 -6.439369 0.299881 75.000000
17.278790 -6.364205 0.298907 73.000000
16.878328 -6.096545 0.291311 44.000000
16.960539 -6.186545 0.293064 60.000000
16.816404 -5.984792 0.289753 46.000000
16.744160 -5.840819 0.287870 47.000000
16.672672 -5.698629 0.286020 46.500000
16.582241 -5.522606 0.283715 47.000000
16.610296 -5.589983 0.284494 48.000000
16.522537 -5.416405 0.282254 46.500000
16.469881 -5.313280 0.280924 47.000000
16.433149 -5.244488 0.280015 47.000000
16.381332 -5.143065 0.278716 49.500000
16.325169 -5.040998 0.277353 47.000000
16.281738 -4.943710 0.276217 48.000000
16.212791 -4.811726 0.274529 48.000000
16.160448 -4.713401 0.273263 50.000000
16.125217 -4.648208 0.272419 45.000000
16.060343 -4.520513 0.270839 45.666668
15.982869 -4.363461 0.268945 44.500000
15.954128 -4.221169 0.267896 44.000000
16.075903 -4.145539 0.269497 42.000000
16.122272 -4.049622 0.269843 68.000000
16.226152 -3.940537 0.271055 4.500000
16.089045 -3.800411 0.268361 2.500000
15.984068 -3.696091 0.266316 2.000000
15.749934 -3.589862 0.262226 2.000000
15.510967 -3.458608 0.257973 51.000000
15.436593 -3.315028 0.256296 53.000000
15.361662 -3.172892 0.254630 49.000000
15.290608 -3.033242 0.253050 51.666668
15.205851 -2.867751 0.251189 52.333332
15.135450 -2.731515 0.249663 53.000000
15.094999 -2.650792 0.248786 53.000000
15.048163 -2.569558 0.247813 56.500000
14.982311 -2.437417 0.246406 54.666668
14.899193 -2.279973 0.244675 52.333332
14.830919 -2.150406 0.243268 51.000000
14.793381 -2.073808 0.242489 51.000000
-15.117770 -1.941994 0.247423 4.000000
14.739993 -1.972031 0.241407 52.333332
14.672391 -1.845772 0.240054 51.500000
14.633411 -1.735865 0.239210 43.000000
-14.734231 -1.611060 0.240606 9.000000
14.763189 -1.622000 0.241093 55.000000
-14.689491 -1.501250 0.239697 23.500000
14.762833 -1.504819 0.240887 75.666664
-14.669713 -1.417700 0.239243 9.000000
14.690071 -1.357648 0.239481 75.000000
-14.488058 -1.216600 0.236013 14.500000
14.613198 -1.211766 0.238031 76.333336
14.537547 -1.067634 0.236624 78.333336
14.460486 -0.925044 0.235217 82.333336
14.401449 -0.807703 0.234146 85.500000
14.139500 -0.726174 0.229829 66.000000
14.050338 -0.644229 0.228319 47.000000
13.961980 -0.475455 0.226777 51.500000
13.879773 -0.319870 0.225371 53.000000
13.802094 -0.166319 0.224067 50.500000
13.722139 -0.014420 0.222752 53.333332
13.646443 0.135685 0.221535 51.750000
13.591641 0.263333 0.220675 44.500000
13.658237 0.329030 0.221778 32.000000
13.749090 0.374441 0.223272 31.000000
13.835793 0.420305 0.224700 30.000000
13.934336 0.467118 0.226323 31.000000
14.032720 0.514557 0.227946 30.000000
14.126945 0.562457 0.229504 31.000000
14.225003 0.611127 0.231127 29.000000
14.338875 0.661156 0.233010 33.000000
14.432597 0.710921 0.234568 31.000000
14.530143 0.761493 0.236191 33.000000
14.635498 0.813126 0.237944 32.000000
14.740672 0.865430 0.239697 32.000000
14.845660 0.918404 0.241450 32.000000
14.996491 1.022421 0.244004 44.333332
14.972749 1.138932 0.243755 51.000000
14.929423 1.230030 0.243171 55.500000
14.870811 1.342837 0.242381 56.666668
14.788193 1.499519 0.241288 65.500000
14.817008 1.431936 0.241645 62.000000
14.718681 1.632681 0.240395 63.500000
14.662792 1.743241 0.239697 64.000000
-18.373365 1.901934 0.299849 60.000000
14.624630 1.808619 0.239210 59.500000
-18.342352 1.986142 0.299492 66.000000
14.558303 1.939854 0.238415 48.000000
-18.342701 2.073675 0.299654 65.000000
14.506069 2.049023 0.237814 48.000000
14.470513 2.113584 0.237392 47.500000
14.415889 2.221359 0.236776 51.000000
14.353483 2.350418 0.236105 50.000000
14.265097 2.520413 0.235153 52.666668
14.177285 2.689044 0.234244 61.666668
14.225413 2.605719 0.234763 60.000000
12.760301 2.866299 0.212300 31.333334
14.105654 2.836465 0.233562 63.250000
12.729941 2.936589 0.212072 48.000000
14.037844 2.972288 0.232929 62.750000
12.695671 3.012833 0.211813 48.000000
13.977809 3.078333 0.232339 63.333332
12.632689 3.123888 0.211245 48.750000
12.576596 3.236129 0.210806 50.500000
12.534744 3.309479 0.210449 51.000000
12.478836 3.420813 0.210043 52.000000
12.384257 3.604985 0.209378 50.000000
12.425901 3.532565 0.209703 51.000000
12.319282 3.733436 0.208962 52.000000
12.254648 3.840374 0.208469 56.000000
12.216274 3.912798 0.208231 56.666668
12.154137 4.040768 0.207917 57.500000
12.068764 4.202775 0.207452 56.666668
12.108847 4.131623 0.207690 58.000000
12.007370 4.329999 0.207203 59.250000
11.940918 4.455002 0.206889 53.833336
11.884780 4.562140 0.206651 7.000000
-17.762968 4.759573 0.298518 37.000000
-17.645805 4.817366 0.296927 49.500000
-17.543852 4.937972 0.295856 65.000000
-17.564095 5.092911 0.296862 55.500000
-17.660765 5.211244 0.298907 27.000000
11.448509 5.407761 0.205535 38.200001
11.369093 5.554897 0.205407 48.000000
11.325766 5.644357 0.205418 35.500000
-7.916288 10.992375 0.219896 0.000000
-7.066442 10.969166 0.211813 0.000000
-7.030802 11.027654 0.212300 0.000000
-7.878808 11.463732 0.225804 1.000000
-7.770452 11.524498 0.225630 7.000000
-7.665213 11.576452 0.225382 5.500000
-7.593409 11.626065 0.225414 5.000000
-7.467704 11.696677 0.225271 5.000000
-7.343461 11.761093 0.225079 5.666667
-7.170071 11.853192 0.224878 8.000000
-7.029883 11.932450 0.224817 8.000000
-6.871048 12.022796 0.224791 6.800000
-6.717255 12.113264 0.224846 2.750000
-6.608063 12.185766 0.225024 0.500000
-6.552473 12.220304 0.225089 0.000000
-5.169717 13.724707 0.238074 2.000000
-5.075943 13.736874 0.237728 7.333333
-7.787042 16.194742 0.291701 0.000000
-6.111368 -23.596878 0.395686 173.666672
-5.952682 -23.541847 0.394182 255.000000
-5.819989 -23.482330 0.392722 255.000000
-5.688548 -23.423952 0.391293 255.000000
-5.556772 -23.361050 0.389800 255.000000
-5.469654 -23.319983 0.388826 255.000000
-5.381947 -23.274706 0.387787 255.000000
-5.253716 -23.217850 0.386424 255.000000
-5.082845 -23.137119 0.384541 255.000000
-4.956079 -23.078737 0.383178 255.000000
-4.872792 -23.043325 0.382334 255.000000
-4.412733 -23.001455 0.380191 48.000000
-4.746393 -22.979824 0.380906 255.000000
-4.622201 -22.923563 0.379607 255.000000
-4.334520 -22.983765 0.379672 8.000000
-4.502538 -22.886196 0.378633 255.000000
-7.928731 -22.241911 0.383308 25.000000
-7.812179 -22.283140 0.383308 6.000000
-8.042359 -22.192568 0.383178 24.000000
-8.126666 -22.063860 0.381685 19.000000
-9.186311 -21.917589 0.385775 27.000000
-9.233171 -21.741516 0.383438 49.500000
11.289002 -21.704464 0.397136 1.000000
-9.410946 -21.623005 0.382810 37.333332
-9.319753 -21.661039 0.382788 60.000000
11.331137 -21.619299 0.396228 5.000000
12.010175 -21.419392 0.398630 6.000000
12.047898 -21.329323 0.397656 8.000000
10.366022 -21.215893 0.383308 10.000000
10.457362 -21.233454 0.384217 18.000000
12.087156 -21.242702 0.396747 6.000000
10.500533 -21.042393 0.381750 16.666666
10.698312 -20.969471 0.382139 5.500000
11.316762 -20.947382 0.386489 1.000000
10.485943 -20.794695 0.378049 21.000000
11.175299 -20.841843 0.383892 4.000000
11.588820 -20.820997 0.386814 7.000000
11.974838 -20.892332 0.390904 5.000000
10.881827 -20.762037 0.380516 13.000000
10.945132 -20.724211 0.380451 26.000000
10.663116 -20.659407 0.377400 12.000000
10.727967 -20.625805 0.377400 13.000000
11.743366 -20.266350 0.380224 4.000000
11.882807 -20.140839 0.379607 1.000000
10.871078 -20.047100 0.370193 8.500000
10.915456 -19.904490 0.368505 24.000000
3.375044 -19.828159 0.326500 15.000000
3.458438 -19.754887 0.325558 70.000000
3.556808 -19.767918 0.326045 20.000000
10.846416 -19.632048 0.364090 12.000000
11.844830 -19.443123 0.369576 5.000000
11.522902 -19.116812 0.362337 12.000000
11.606100 -18.850700 0.359351 5.000000
11.780017 -18.605375 0.357468 2.000000
11.644869 -18.520401 0.355131 6.000000
15.033417 -18.328056 0.384801 1.000000
13.433675 -17.931051 0.363701 0.000000
13.475493 -17.869600 0.363311 22.000000
13.501398 -17.729496 0.361753 15.500000
13.616488 -17.706930 0.362597 4.000000
13.855624 -17.443892 0.361623 1.000000
13.907860 -17.397152 0.361558 6.000000
14.351948 -17.001219 0.361169 12.500000
13.682121 -16.521236 0.348217 10.500000
15.165437 -16.492292 0.363701 10.000000
15.369427 -16.401159 0.364870 20.000000
14.762837 -16.361303 0.357728 7.000000
15.013446 -16.224405 0.358832 21.000000
14.682424 -16.169758 0.354547 7.000000
-19.600721 -14.303578 0.393890 9.000000
-19.942835 -14.267146 0.398045 8.000000
-19.833010 -14.282979 0.396747 14.000000
-19.801353 -13.885663 0.392592 9.000000
-19.564856 -13.811721 0.388761 30.000000
-19.492029 -13.852262 0.388177 5.000000
-19.674223 -13.704519 0.389216 12.000000
-19.917709 -13.505586 0.390644 34.000000
-19.643955 -13.410252 0.386099 30.000000
-19.457352 -13.462869 0.384087 10.000000
-19.761002 -13.308902 0.386749 32.000000
-19.997471 -13.286285 0.389735 43.000000
-19.846401 -13.006913 0.385191 23.000000
19.648294 -11.481536 0.369414 24.000000
19.597782 -11.369576 0.367791 40.000000
19.539829 -11.254056 0.366038 38.000000
19.481342 -11.139018 0.364285 38.000000
19.385597 -10.963474 0.361526 36.500000
19.302727 -10.796771 0.359026 36.000000
19.242138 -10.683661 0.357273 36.000000
19.181034 -10.571036 0.355521 37.000000
19.136955 -10.468496 0.354092 36.000000
19.074850 -10.356797 0.352339 37.000000
19.026316 -10.253181 0.350846 37.000000
18.970263 -10.146206 0.349223 37.000000
18.910194 -10.037803 0.347535 38.000000
18.860250 -9.935471 0.346042 38.000000
18.777332 -9.779106 0.343672 38.000000
18.697025 -9.625475 0.341367 38.000000
18.677309 -9.541215 0.340458 45.000000
18.779181 -9.481891 0.341497 50.500000
18.859447 -9.411193 0.342146 88.000000
18.932531 -9.299479 0.342406 28.666666
18.288467 -8.840989 0.329746 19.000000
18.217999 -8.701321 0.327733 41.500000
18.146721 -8.562423 0.325721 41.000000
18.076256 -8.425327 0.323741 41.500000
17.985233 -8.245737 0.321176 42.000000
17.910990 -8.109714 0.319163 41.000000
17.841253 -7.977107 0.317248 43.000000
17.755556 -7.805293 0.314846 41.500000
17.687620 -7.676118 0.312996 42.000000
17.622452 -7.549417 0.311210 40.500000
17.538681 -7.383452 0.308906 39.500000
17.453522 -7.218846 0.306601 38.500000
17.389263 -7.096427 0.304880 39.000000
17.348440 -7.016270 0.303777 40.000000
17.303272 -6.903326 0.302413 40.500000
17.432714 -6.796673 0.303733 58.666668
17.417034 -6.633563 0.302543 74.500000
17.354534 -6.516227 0.300920 74.000000
-10.945823 -2.908368 0.380261 0.000000
2.712195 1.077880 0.311465 29.093023
-18.576376 1.200036 0.302179 12.800000
2.654014 1.165571 0.326224 35.582176
2.686389 1.260112 0.333084 10.500000
-18.580853 1.776041 0.302997 7.000000
-18.463739 1.823397 0.301180 36.000000
-18.403219 2.227175 0.300920 54.000000
-18.559540 2.364363 0.303712 0.000000
18.530598 9.344248 0.336888 20.000000
18.508282 9.406040 0.337017 0.000000
-19.789549 12.675419 0.381490 1.000000
-19.612093 12.692405 0.379218 52.000000
-19.485104 12.740980 0.377919 66.000000
-19.436495 12.840371 0.378146 69.000000
-19.431459 12.998459 0.379499 38.000000
12.849236 18.241980 0.362208 30.000000
12.941183 18.250460 0.363182 34.000000
13.098372 18.349688 0.365973 31.000000
12.640875 18.496044 0.363668 33.500000
12.772176 18.500505 0.364934 37.000000
12.927143 18.475595 0.366038 38.000000
13.274981 18.474091 0.369284 37.000000
13.344675 18.448498 0.369609 31.000000
13.492026 18.529343 0.372076 37.000000
12.343818 18.621216 0.362662 38.000000
12.556826 18.623190 0.364610 39.500000
12.962622 18.650766 0.368700 40.000000
12.025026 18.774015 0.361915 37.500000
12.152564 18.713306 0.362208 40.000000
12.261636 18.752026 0.363701 43.000000
13.758234 18.770735 0.377789 39.000000
11.912180 18.857777 0.362078 31.000000
12.047688 18.809502 0.362597 33.000000
13.928738 18.878679 0.380841 13.000000
11.547863 18.933296 0.360000 27.000000
11.653338 18.971897 0.361429 35.000000
11.721299 18.948799 0.361688 30.000000
-15.396178 19.012707 0.397136 49.000000
-15.275129 19.046013 0.396325 57.500000
2.460537 19.075405 0.312217 18.500000
11.905838 19.045948 0.364610 34.000000
-15.172491 19.163601 0.396779 50.500000
2.378510 19.150314 0.313255 2.000000
2.556237 19.107227 0.312931 12.000000
11.591500 19.276251 0.365129 36.000000
11.639569 19.219213 0.364740 26.000000
15.060690 19.249088 0.396747 24.000000
15.019779 19.321569 0.397266 14.000000
11.408894 19.523981 0.367077 22.000000
11.651853 19.515175 0.368960 13.000000
14.567431 19.615063 0.396617 4.000000
9.939425 19.762346 0.359091 11.000000
10.003268 19.734591 0.359156 1.000000
11.439697 19.862143 0.372076 5.000000
12.219683 20.177095 0.382918 1.000000
11.984109 20.215677 0.381490 49.000000
11.991546 20.373863 0.383762 32.000000
12.036444 20.597904 0.387268 1.000000
12.041918 20.756695 0.389540 32.000000
10.714499 -28.718327 0.497573 11.000000
10.652404 -28.280308 0.490561 11.000000
10.647375 -27.999973 0.486276 29.000000
12.323618 -26.917116 0.480563 6.000000
10.517483 -26.892698 0.468747 2.000000
11.473416 -26.821177 0.473551 19.000000
11.590890 -26.862116 0.474915 5.000000
13.045316 -26.699541 0.482381 1.000000
12.609572 -26.651676 0.478615 6.000000
12.724233 -26.676907 0.479784 15.000000
10.496187 -26.591675 0.464072 6.000000
10.490870 -26.335636 0.460177 13.000000
14.583309 -25.629593 0.478680 3.000000
14.916704 -25.650047 0.481667 11.000000
15.130408 -25.645380 0.483355 4.000000
10.626351 -25.503078 0.448491 36.000000
14.958799 -25.537493 0.480433 11.000000
15.149609 -25.494572 0.481407 4.000000
10.501904 -25.429132 0.446608 18.000000
10.670774 -25.384768 0.446998 18.000000
10.798602 -25.243675 0.445699 8.000000
10.885172 -25.010305 0.442778 11.000000
10.589643 -24.971863 0.440310 33.000000
10.746331 -24.904835 0.440310 25.000000
10.928324 -24.895416 0.441349 35.000000
11.095946 -24.851824 0.441804 18.000000
10.943338 -24.718334 0.438817 40.000000
11.157541 -24.780378 0.441154 42.000000
11.213127 -24.491594 0.437259 17.000000
11.663592 -24.453228 0.439791 11.000000
13.596147 -24.427452 0.453815 16.000000
11.028652 -24.289991 0.433039 41.000000
13.327863 -24.123474 0.447387 1.000000
14.713189 -24.151482 0.459073 32.500000
14.856228 -24.129578 0.459982 28.000000
11.547978 -24.016373 0.432585 16.000000
11.073771 -23.987818 0.428884 37.000000
13.529051 -23.951523 0.446543 5.000000
13.651434 -23.817465 0.445634 8.000000
11.713730 -23.784481 0.430377 2.000000
11.007309 -23.648333 0.423430 38.000000
11.033968 -23.512260 0.421613 33.000000
11.160805 -23.589552 0.423625 11.000000
11.389614 -23.497713 0.423885 32.000000
12.029356 -23.487204 0.428365 18.000000
11.870345 -23.357304 0.425313 13.000000
11.699670 -23.201637 0.421807 9.000000
12.187200 -23.076019 0.423625 1.000000
12.529748 -23.019413 0.425443 8.000000
12.188239 -22.903452 0.421158 11.000000
12.609697 -22.993961 0.425703 1.000000
13.719069 -21.895630 0.419438 28.000000
13.771879 -21.751326 0.417912 42.000000
15.327370 -21.760237 0.432065 29.000000
13.866868 -21.649708 0.417349 37.333332
14.017524 -21.684380 0.419145 13.000000
15.360514 -21.614340 0.430442 62.000000
12.460361 -21.581974 0.404538 3.000000
15.421358 -21.556221 0.430247 71.000000
15.514712 -21.543367 0.430962 51.000000
15.626919 -21.556044 0.432195 20.000000
17.111555 -17.918741 0.402200 4.000000
18.885439 -17.771860 0.420963 4.000000
19.026028 -17.680077 0.421613 16.000000
19.238070 -17.597546 0.423236 12.500000
18.955128 -17.503546 0.418821 9.000000
19.390553 -17.459333 0.423560 3.000000
19.383057 -17.287863 0.421613 14.000000
19.554241 -17.275806 0.423560 3.000000
-7.746857 -12.011773 0.479901 35.666668
-7.659913 -12.042198 0.479185 35.000000
-8.231122 -11.843011 0.484241 36.000000
-8.078866 -11.820939 0.480729 34.000000
-7.930062 -11.800988 0.477373 35.000000
-7.803386 -11.852468 0.476456 35.000000
-8.694404 -11.706998 0.489610 34.333332
-7.917749 -11.782856 0.476635 36.000000
-8.795048 -11.688390 0.491131 21.000000
-8.505244 -11.680693 0.485136 36.333332
-8.346025 -11.691989 0.482317 36.000000
-8.218675 -11.667998 0.479185 38.000000
-12.453972 -4.646441 0.446300 0.000000
-12.517884 -4.447572 0.446031 1.000000
-12.345756 -3.997093 0.435696 1.000000
-12.370588 -3.919424 0.435696 26.666666
-12.407687 -3.717765 0.434891 0.000000
-12.305998 -3.780170 0.432233 38.000000
-14.766277 -1.896842 0.499856 6.000000
14.738916 -1.971892 0.499274 50.000000
-14.756296 -1.848458 0.499319 17.000000
14.673992 -1.845980 0.496567 51.000000
14.621790 -1.746148 0.494420 47.000000
14.729733 -1.641657 0.497619 53.000000
14.757787 -1.504318 0.498066 80.333336
-14.657743 -1.370046 0.494286 43.500000
-14.548351 -1.359856 0.490594 39.000000
14.685061 -1.357181 0.495158 78.666664
-14.749097 -1.269631 0.497037 26.666666
14.608222 -1.211341 0.492160 75.000000
14.532604 -1.067266 0.489252 78.333336
14.458237 -0.924895 0.486433 78.000000
14.403219 -0.807802 0.484353 80.000000
14.105452 -0.724425 0.474219 63.000000
14.048269 -0.644128 0.472172 52.250000
13.964945 -0.475558 0.469152 43.250000
13.868970 -0.297791 0.465763 44.000000
13.903398 -0.364073 0.466971 44.000000
13.806132 -0.166362 0.463581 45.750000
13.724215 -0.014414 0.460796 49.000000
13.647551 0.135688 0.458246 42.500000
13.589774 0.263309 0.456367 40.000000
13.672328 0.329370 0.459186 32.000000
13.800476 0.397607 0.463548 32.500000
13.944306 0.467453 0.468447 33.000000
14.042645 0.514921 0.471803 34.000000
14.136827 0.562850 0.475024 33.000000
14.238835 0.611722 0.478514 33.000000
14.344668 0.661424 0.482138 32.000000
14.438349 0.711205 0.485360 31.000000
14.543835 0.762210 0.488984 33.000000
14.703699 0.840167 0.494487 31.500000
14.867186 0.919735 0.500124 33.000000
2.709965 1.080614 0.457361 27.745098
2.656854 1.168035 0.456550 28.184784
2.690548 1.261490 0.439223 3.500000
14.787777 1.499474 0.499051 67.000000
14.818573 1.432087 0.499856 67.000000
14.719283 1.632756 0.497238 65.250000
14.664406 1.743433 0.495829 62.000000
14.630840 1.844430 0.495124 43.250000
-13.537960 2.049841 0.459722 5.500000
-13.570798 2.216488 0.461682 15.400000
14.215152 2.626912 0.485360 55.500000
14.487069 2.606634 0.494218 78.000000
14.166954 2.710173 0.484286 57.000000
12.766502 2.867666 0.439320 34.666668
14.103485 2.836033 0.483011 60.500000
12.726397 2.935768 0.438515 47.500000
14.023911 2.980844 0.481378 57.666668
12.692141 3.011985 0.437978 47.000000
13.980885 3.079021 0.480662 58.333332
12.632089 3.123741 0.436904 49.250000
12.567297 3.233742 0.435696 51.000000
12.537066 3.310092 0.435361 49.000000
12.478273 3.420647 0.434421 47.750000
12.384672 3.605103 0.433079 50.500000
12.420538 3.531047 0.433548 52.000000
12.314731 3.732057 0.432045 54.200001
12.256990 3.841108 0.431267 54.000000
12.217350 3.913138 0.430730 57.000000
12.147943 4.038710 0.429824 55.000000
12.067330 4.202280 0.429030 56.333332
12.107405 4.131132 0.429522 56.000000
12.004068 4.328812 0.428448 56.750000
11.937012 4.453551 0.427777 53.833336
11.890848 4.564469 0.427643 5.000000
-11.965370 4.817345 0.433079 6.000000
-12.302396 5.065656 0.446703 2.000000
-12.373825 5.277884 0.451669 4.000000
-12.090415 5.262085 0.442721 23.000000
-12.368201 5.321469 0.452072 19.000000
-12.201746 5.432568 0.448447 1.000000
11.445013 5.406113 0.424985 39.400002
-12.143165 5.521158 0.447877 33.250000
11.366585 5.553666 0.424757 42.166664
-12.077830 5.652534 0.447732 19.000000
11.329817 5.646394 0.425025 29.000000
-5.175941 13.741232 0.493010 1.000000
-5.076521 13.738448 0.491758 3.666667
-17.984539 17.965641 0.412653 41.500000
-17.854601 18.004814 0.411614 60.000000
-17.820412 18.083603 0.412134 51.000000
-17.853052 18.230944 0.414211 14.000000
17.039459 18.805094 0.411939 41.000000
16.969324 18.906002 0.412393 36.500000
17.252058 18.919924 0.415640 35.000000
17.365490 18.924566 0.416938 37.000000
17.742493 18.973312 0.421677 9.000000
16.833586 19.053694 0.412718 37.000000
16.919935 19.030605 0.413367 37.000000
17.631058 19.013283 0.420920 20.333334
16.679466 19.180763 0.412621 42.000000
16.784199 19.118507 0.412978 41.000000
16.541670 19.265476 0.412199 39.000000
16.214893 19.372101 0.410089 36.500000
16.376419 19.317089 0.411095 37.000000
16.105495 19.489094 0.410413 36.500000
15.877574 19.523422 0.408498 38.000000
16.007227 19.557009 0.410251 35.000000
15.662938 19.634678 0.407719 39.000000
15.810459 19.629154 0.409147 34.500000
15.638440 19.730801 0.408693 35.000000
15.638789 19.902020 0.410879 29.333334
14.965633 19.954128 0.404895 44.000000
15.135593 19.983828 0.406940 40.000000
15.348507 20.002562 0.409277 39.000000
15.465641 19.981264 0.410164 33.666668
15.280741 20.044321 0.409147 39.000000
-19.728674 20.273277 0.459203 37.000000
-19.598166 20.266153 0.457645 49.000000
-19.498369 20.290138 0.456801 56.000000
15.020502 20.225124 0.408952 34.000000
-19.426247 20.342613 0.456606 61.000000
-19.367743 20.409349 0.456736 61.000000
-19.352924 20.522467 0.457905 47.000000
-19.395014 20.696976 0.460437 9.000000
12.668801 21.218416 0.401162 1.000000
-6.717849 27.165977 0.454269 2.000000
-6.558272 27.254309 0.455048 2.500000
-6.395998 27.333923 0.455697 2.500000
-6.276969 27.406675 0.456411 1.000000
-6.154273 27.465191 0.456898 2.000000
-5.995608 27.567801 0.457970 2.000000
-5.869823 27.615337 0.458294 2.000000
10.544539 -33.280903 0.566716 3.000000
10.541689 -32.912434 0.561003 62.000000
10.583439 -32.688900 0.557757 60.000000
10.868228 -32.519428 0.556588 49.000000
10.669931 -32.433445 0.554251 47.500000
10.944745 -32.409336 0.555290 46.000000
11.137731 -32.309685 0.554770 46.000000
11.258910 -32.331188 0.555744 48.000000
11.011638 -32.272591 0.553537 43.000000
11.412479 -32.281494 0.555809 51.000000
11.544212 -32.170937 0.554835 55.000000
11.697974 -32.174892 0.555744 40.666668
12.293267 -32.025059 0.556848 14.000000
12.794502 -31.972435 0.559023 9.000000
13.181196 -31.916723 0.560549 3.000000
13.374683 -31.957512 0.562366 3.000000
13.885777 -31.904644 0.564834 6.000000
12.930790 -31.876606 0.558406 12.000000
10.775325 -29.160765 0.504650 11.000000
18.382351 -27.857136 0.541786 7.000000
18.161015 -27.710697 0.537825 5.000000
18.272379 -27.315582 0.533476 18.000000
-4.569434 -16.365805 0.570503 9.333333
-4.483651 -16.389513 0.570503 6.666667
-7.313071 -16.151539 0.595290 3.000000
-7.354941 -16.042379 0.592539 35.500000
-7.422891 -15.991245 0.591935 39.000000
-7.315494 -15.631111 0.579452 45.000000
-8.689990 -15.422251 0.594351 8.000000
-7.272443 -15.412814 0.572203 48.000000
-8.710770 -15.346199 0.592471 1.000000
-7.333977 -15.293468 0.569474 39.666668
-7.381487 -15.147713 0.565761 41.000000
-7.353251 -14.970153 0.559989 45.000000
-7.327520 -14.800087 0.554486 42.000000
-7.901462 -14.717659 0.560861 13.000000
-7.453977 -14.705376 0.553546 33.666668
-7.375765 -14.780571 0.554620 42.000000
-7.872499 -14.499343 0.553949 41.000000
-7.733625 -14.569364 0.553815 17.000000
-7.615798 -14.530552 0.550817 31.666666
-7.518784 -14.548742 0.549855 34.500000
-7.993279 -14.396543 0.552875 42.000000
-8.036516 -14.367871 0.552741 31.000000
-7.878216 -14.348167 0.549586 41.500000
-8.320017 -14.238004 0.553680 22.000000
-8.213083 -14.259925 0.552517 32.333332
-8.044324 -14.276378 0.550190 17.000000
-7.962835 -14.028525 0.541600 24.000000
-8.063198 -13.035065 0.514621 11.000000
-7.978687 -13.035411 0.513144 3.000000
-8.038583 -12.904478 0.510460 23.000000
-11.907872 -12.733935 0.585358 54.000000
-8.021724 -12.787724 0.506836 39.000000
-7.993537 -12.654304 0.502540 40.000000
-11.794395 -12.533424 0.577841 48.000000
-10.474270 -12.513688 0.547909 13.000000
-11.757660 -12.357587 0.572707 23.500000
-10.435044 -12.348207 0.542808 10.000000
-10.612269 -12.011850 0.538155 40.000000
-9.512454 -12.079495 0.516231 38.000000
-9.125819 -12.009615 0.506433 3.000000
-10.665339 -11.920157 0.537036 41.000000
-10.183710 -11.974284 0.527775 29.000000
-9.470978 -11.898152 0.510594 27.666666
-9.341433 -11.939296 0.508983 17.000000
-9.288700 -11.987932 0.509185 11.000000
-10.359655 -11.875496 0.529117 48.000000
-10.200392 -11.842421 0.524777 34.000000
-9.738104 -11.859537 0.515225 42.500000
-9.600675 -11.881210 0.512876 32.000000
-10.762931 -11.729230 0.534486 42.000000
-10.767832 -11.624090 0.532003 37.000000
-10.599431 -11.624144 0.528177 32.000000
-10.500311 -11.624996 0.525963 39.000000
-9.727952 -11.548204 0.506970 6.000000
-9.573170 -11.547331 0.503614 8.000000
16.832291 -6.020342 0.600212 48.666668
16.735048 -5.837638 0.595089 48.500000
16.663586 -5.695520 0.591263 49.500000
16.571293 -5.518960 0.586431 47.000000
16.610706 -5.590121 0.588445 49.000000
16.523010 -5.416553 0.583814 49.000000
16.466579 -5.312214 0.580928 50.000000
16.433678 -5.244656 0.579183 48.000000
16.376171 -5.141448 0.576297 49.500000
16.329584 -5.042361 0.573814 49.000000
16.276627 -4.942155 0.571130 48.500000
16.213463 -4.811924 0.567841 48.500000
16.161150 -4.713606 0.565224 49.000000
16.122099 -4.647310 0.563345 46.000000
16.061108 -4.520737 0.560213 46.333332
15.975973 -4.361578 0.556029 47.000000
15.939329 -4.244100 0.553815 45.500000
16.050823 -4.165915 0.556767 46.000000
16.141439 -4.040928 0.558680 54.750000
16.240807 -3.917194 0.560929 7.666667
15.981067 -3.695397 0.550727 2.000000
16.027761 -3.759277 0.552741 2.000000
15.653491 -3.567880 0.539050 4.000000
15.514027 -3.459300 0.533681 44.500000
15.435143 -3.314725 0.530057 48.333332
15.364822 -3.173541 0.526768 47.000000
15.287930 -3.032723 0.523301 49.333332
-11.319355 -2.818036 0.594387 33.000000
-11.266132 -2.854957 0.592215 12.666667
15.204527 -2.867510 0.519498 47.000000
-11.386835 -2.777889 0.597236 39.000000
15.136788 -2.731756 0.516433 43.500000
-14.975473 -2.645969 0.510594 0.000000
-11.475806 -2.609324 0.599679 16.500000
-11.131983 -2.641723 0.582987 35.000000
15.088486 -2.649648 0.514352 43.000000
-15.062836 -2.515250 0.512742 1.000000
-14.966087 -2.571647 0.509856 14.500000
15.049551 -2.569795 0.512607 43.500000
-15.997819 -2.413731 0.543211 0.000000
-15.066717 -2.467273 0.512607 1.000000
14.981110 -2.437213 0.509610 46.000000
-15.542204 -2.270204 0.527372 16.500000
14.899352 -2.279984 0.506075 47.666668
-15.485465 -2.187367 0.525090 43.000000
14.828476 -2.150058 0.503077 53.000000
-15.316233 -2.053199 0.518849 35.500000
14.790956 -2.073468 0.501467 54.000000
-15.408463 -1.782823 0.520795 21.000000
-15.268771 -1.701882 0.515829 27.666666
-15.134377 -1.606710 0.510997 11.000000
-15.125843 -1.533850 0.510460 35.500000
-11.742437 0.233664 0.598458 7.000000
15.001987 1.022783 0.504867 46.333332
2.649286 1.158501 0.564979 33.428570
14.972267 1.138899 0.504151 55.500000
14.928958 1.229988 0.502943 56.500000
14.867047 1.342509 0.501198 58.000000
14.778952 1.969318 0.500594 74.500000
14.823692 2.070176 0.502540 67.000000
14.980494 2.188095 0.508312 21.000000
14.917050 2.274640 0.506634 21.000000
14.884893 2.389418 0.506164 20.000000
14.822285 2.522992 0.504822 23.333334
14.778634 2.611192 0.503883 20.000000
-5.985021 35.161568 0.578987 3.000000
-5.830619 35.258400 0.580123 3.500000
-5.674275 35.346729 0.581129 2.000000
-5.570668 35.411793 0.581908 2.000000
-5.921847 -39.529625 0.648844 33.000000
-6.391137 -39.286293 0.646118 45.000000
-6.259503 -39.254833 0.645274 38.000000
-6.126888 -39.215027 0.644300 45.000000
-6.001238 -39.218269 0.644040 34.000000
10.884305 -36.744804 0.622096 28.000000
10.945736 -36.530361 0.619045 58.000000
10.979247 -36.227863 0.614500 54.000000
11.085977 -36.170250 0.614110 52.000000
11.172315 -36.047382 0.612617 50.000000
11.254412 -35.912872 0.610929 55.000000
11.333357 -35.770588 0.609111 32.000000
-5.754774 -19.846842 0.693812 14.000000
3.376271 -19.835369 0.675557 0.000000
3.459008 -19.758179 0.673477 56.000000
3.555273 -19.759388 0.674081 44.000000
-7.018305 -19.622938 0.699718 7.000000
-5.869314 -19.663151 0.688980 21.000000
-5.927367 -19.411770 0.681463 17.000000
-5.830534 -19.311655 0.677302 2.000000
-8.070803 -18.677330 0.683141 14.500000
-8.056936 -18.406561 0.674618 12.000000
-11.519526 -14.534026 0.622672 2.000000
-11.790410 -14.221807 0.620256 3.000000
18.287775 -8.840655 0.682000 22.000000
18.217350 -8.701018 0.677839 39.500000
18.142506 -8.560433 0.673544 39.000000
18.073891 -8.424229 0.669517 38.000000
17.977470 -8.242186 0.664014 39.500000
17.903261 -8.106215 0.659853 42.000000
17.839025 -7.976122 0.656094 43.000000
17.749722 -7.802738 0.650994 42.500000
17.676319 -7.671215 0.646967 43.000000
17.618523 -7.547734 0.643544 43.500000
17.529270 -7.379494 0.638578 44.000000
17.442301 -7.214197 0.633746 45.000000
17.357653 -7.051799 0.629048 45.000000
17.303238 -6.903298 0.625491 45.000000
17.433887 -6.797121 0.628265 61.333332
17.411386 -6.631415 0.625558 72.500000
17.354532 -6.516226 0.622404 72.000000
17.307470 -6.436591 0.619988 73.000000
17.271334 -6.361459 0.617974 73.000000
16.949467 -6.182506 0.605760 54.000000
-12.893250 -4.626613 0.697997 40.000000
-12.926545 -4.592768 0.699015 32.000000
-12.737085 -4.234621 0.683952 11.000000
