# This PCD file was generated using the MATLAB® pcwrite function
# from Computer Vision Toolbox®.
# .PCD v.7 - Point Cloud Data file format
VERSION .7
FIELDS x y z intensity
SIZE 4 4 4 4
TYPE F F F F
COUNT 1 1 1 1
WIDTH 1227
HEIGHT 1
VIEWPOINT 0 0 0 1 0 0 0
POINTS 1227
DATA ascii
17.857965 6.595233 2.305405 5.000000
10.391741 6.663522 2.379678 40.000000
10.477676 6.718804 2.399364 60.000000
11.708039 6.656498 2.352965 51.000000
10.226855 6.786991 2.366050 22.000000
18.169228 6.840225 2.351090 0.000000
10.066127 6.864071 2.348635 14.000000
10.320883 6.943192 2.397849 64.000000
11.106235 7.075451 2.300647 7.000000
9.636440 7.584509 2.363967 26.250000
9.852091 7.567974 2.394821 35.000000
9.652581 7.733176 2.384221 28.000000
9.581700 7.901353 2.394064 4.000000
11.147925 7.916563 2.388762 22.000000
-12.715973 8.349653 2.384355 12.000000
-12.585699 8.463618 2.377232 21.000000
-12.460435 8.493564 2.363605 1.000000
-11.916726 8.914848 2.332635 24.000000
-11.784483 8.873800 2.312195 35.000000
-17.192770 8.991984 2.349648 2.000000
-17.023703 9.040236 2.334259 4.000000
-12.305667 8.966872 2.386523 13.000000
-16.963707 9.076808 2.329931 21.000000
-12.272088 9.061028 2.391013 24.250000
-12.014796 9.106513 2.362986 27.000000
-12.004980 9.158592 2.366702 48.000000
-17.098261 9.287463 2.356380 21.000000
-16.992363 9.299190 2.345800 23.000000
9.986409 9.292945 2.383255 7.000000
-17.008270 9.377457 2.352052 15.000000
-16.954428 9.417342 2.348686 17.000000
9.968295 9.364220 2.389451 11.500000
-16.901188 9.492257 2.347484 3.500000
9.185340 9.692872 2.333002 31.000000
9.300626 9.691828 2.346770 18.000000
11.206383 9.666266 2.319628 3.000000
-11.043042 9.763193 2.310337 1.000000
-10.924116 9.843028 2.304763 0.000000
-17.120796 9.936553 2.397256 3.000000
-16.880373 9.868047 2.367922 15.000000
9.316924 9.893797 2.374306 27.000000
-16.936256 10.008023 2.382349 10.000000
-16.745712 10.002263 2.362151 15.000000
9.296369 9.976022 2.382337 26.666666
-16.761847 10.083476 2.368883 26.000000
9.029519 10.148775 2.373273 39.000000
9.210833 10.094223 2.387386 20.000000
9.274480 10.100064 2.395646 11.000000
-16.737112 10.284668 2.378982 24.000000
-9.047706 10.259066 2.389795 5.000000
-16.755373 10.368539 2.386196 36.000000
-13.390274 10.552249 2.367183 10.000000
10.742480 10.512497 2.355863 9.000000
-16.260223 10.636336 2.353014 33.000000
-16.140501 10.630582 2.340511 41.000000
-13.598051 10.646913 2.397990 24.000000
-13.302033 10.618872 2.363333 28.000000
-16.490025 10.712840 2.381387 22.000000
-13.170635 10.718757 2.357831 3.000000
-10.065626 10.681382 2.300427 3.000000
10.924720 10.690807 2.395813 12.000000
-19.695807 10.778667 2.321800 3.000000
-16.265879 10.786574 2.363594 27.000000
-16.092323 10.817673 2.348205 9.000000
-15.806283 10.843060 2.321275 21.000000
-13.081222 10.852533 2.360032 15.000000
-16.288057 10.875104 2.371769 20.000000
-9.976062 10.856493 2.310956 52.000000
9.903841 10.922416 2.310956 40.000000
10.190288 10.889579 2.337590 20.000000
10.403398 10.909263 2.362779 4.333333
12.703109 10.922569 2.326199 15.500000
-19.947556 10.998022 2.355539 182.000000
-15.909377 10.987438 2.341472 22.000000
-12.946836 11.018620 2.360582 23.000000
12.694910 11.019966 2.334176 21.000000
-16.014973 11.134844 2.362151 8.000000
-15.918103 11.141834 2.353014 8.000000
-13.099372 11.077670 2.382037 26.000000
-9.846350 11.059074 2.320867 94.000000
-9.420636 11.274955 2.302904 18.000000
-12.552520 11.453996 2.359482 25.000000
9.736819 11.587452 2.372277 17.000000
-19.473564 11.923979 2.361300 16.500000
-9.342121 11.923023 2.374135 56.000000
-9.239814 11.907561 2.362366 51.000000
-9.176364 11.941602 2.360508 41.000000
12.011638 12.053639 2.362782 19.000000
-15.525784 12.151906 2.387638 6.000000
-15.096306 12.124738 2.344839 2.000000
-15.033437 12.152131 2.340991 7.000000
-14.732495 12.062705 2.305886 7.000000
-9.201452 12.131262 2.386523 53.000000
-9.149028 12.141171 2.382806 62.000000
11.432410 12.064104 2.307770 18.000000
-14.866143 12.250344 2.332816 3.000000
11.481372 12.192261 2.325374 99.000000
-19.117008 12.334236 2.352659 24.000000
-8.799597 12.474225 2.392716 11.000000
10.728052 12.767082 2.315472 4.000000
-18.373043 12.946360 2.324269 6.000000
-10.794806 13.169909 2.364433 44.000000
-18.318508 13.255513 2.338259 3.000000
-10.732934 13.263622 2.369109 29.000000
10.566964 13.408944 2.370484 0.000000
-10.186092 13.517403 2.350130 39.000000
-9.812334 13.635214 2.332526 22.000000
-10.126524 13.705209 2.366083 45.000000
9.714808 13.690296 2.330875 11.000000
-9.893874 13.840018 2.362232 3.000000
10.097367 13.766033 2.370484 20.000000
10.232829 13.813815 2.386988 22.500000
9.959227 13.895533 2.373785 9.000000
-9.300213 14.008558 2.334726 28.000000
9.652361 13.971016 2.357831 1.000000
9.869991 14.048731 2.383962 3.500000
-17.348688 14.113981 2.312749 4.000000
-9.476531 14.081326 2.356731 97.000000
9.811037 14.200787 2.396615 12.500000
-17.488968 14.319656 2.337435 0.000000
-16.873415 14.539066 2.303285 51.000000
-12.497341 14.856849 2.351090 3.000000
-16.824316 14.963604 2.328384 19.000000
-16.700401 15.042392 2.324269 8.000000
-6.859473 15.121630 2.305570 7.000000
-6.956391 15.208091 2.322073 3.000000
-6.896674 15.461134 2.350680 3.000000
-11.415745 15.649158 2.345800 14.000000
-10.920496 15.735939 2.319592 9.500000
-11.398394 15.833372 2.362632 10.000000
-11.702230 15.936492 2.394371 1.000000
-17.989460 20.070707 2.314462 10.000000
-18.742262 20.518204 2.386329 10.000000
-18.782179 20.692066 2.399676 4.000000
-18.565117 20.844360 2.396938 23.000000
-18.462566 20.860798 2.392147 1.000000
-18.386202 21.039410 2.399334 10.000000
15.434597 29.968124 2.305161 47.000000
15.374878 30.083979 2.310346 46.000000
15.321804 30.213993 2.316622 44.000000
15.262682 30.333277 2.322080 44.000000
15.179906 30.526348 2.331359 43.500000
15.097567 30.722904 2.340910 43.000000
15.039447 30.849098 2.346914 45.000000
14.978946 30.971640 2.352645 45.000000
14.921273 31.101299 2.358922 44.000000
14.862935 31.230902 2.365198 44.000000
14.774938 31.426987 2.374750 44.500000
14.685595 31.622950 2.384301 46.000000
14.627913 31.759550 2.391123 45.000000
14.567859 31.892467 2.397673 47.000000
3.165640 34.784637 2.388531 16.500000
-3.473802 -28.664013 2.479414 2.000000
-3.376260 -28.611456 2.473939 2.000000
-3.236236 -28.581476 2.470003 54.000000
-4.173096 -23.739468 2.492552 27.000000
-4.213293 -23.534330 2.472390 28.000000
-4.252962 -23.333094 2.452641 28.000000
-4.292135 -23.135752 2.433303 28.000000
-4.329371 -22.934484 2.413553 27.000000
-4.901400 -20.030373 2.497282 26.000000
-4.929889 -19.876125 2.479970 29.000000
-4.960362 -19.733450 2.464100 33.000000
-4.989007 -19.586933 2.447750 31.000000
-5.017774 -19.444277 2.431880 33.000000
-5.055299 -19.214931 2.406153 20.500000
-5.478374 -17.145348 2.499213 6.000000
-5.484719 -16.981014 2.477758 6.000000
-5.512215 -16.884607 2.466206 37.000000
-5.549230 -16.730591 2.447502 32.000000
-5.582552 -16.569082 2.427697 29.000000
-5.611111 -16.398273 2.406518 28.000000
-5.945477 -14.752808 2.493058 18.500000
-5.967182 -14.607553 2.473238 26.000000
-6.348244 -14.489180 2.479432 7.000000
-6.264221 -14.482637 2.473238 7.000000
-5.989038 -14.466085 2.454036 26.000000
-6.137568 -14.438053 2.458992 5.000000
-6.017444 -14.342955 2.437932 28.000000
-6.675918 -11.010427 2.482144 37.333332
-6.703809 -10.862943 2.460691 40.000000
-6.731063 -10.717942 2.439744 40.333332
-6.758348 -10.575928 2.419428 40.000000
-6.779819 -10.464030 2.403528 41.000000
-3.761275 -9.953968 2.444131 7.500000
-3.822070 -9.941227 2.446370 5.666667
-6.943838 -9.589013 2.498790 13.000000
-7.005601 -9.300123 2.457488 0.000000
-7.057278 -9.127758 2.435185 0.000000
-18.664448 -6.760120 2.403989 9.000000
-16.806063 -6.444510 2.499213 5.000000
-16.504925 -6.388588 2.457404 12.000000
-16.171093 -6.317854 2.410643 14.000000
-14.740808 -6.027619 2.496155 5.000000
-14.429552 -5.953330 2.446604 29.000000
-13.084511 -5.689308 2.492711 27.000000
-12.875320 -5.646509 2.456226 31.000000
-12.680942 -5.608834 2.422494 25.000000
-11.767217 -5.424764 2.497791 28.000000
-11.600526 -5.392169 2.465991 32.000000
-11.451939 -5.366914 2.437978 30.000000
-11.282316 -5.330719 2.405421 31.000000
-10.546446 -5.187210 2.480617 30.000000
-10.410877 -5.161211 2.452532 31.000000
-10.268573 -5.130917 2.422794 28.000000
-7.794192 -5.137395 2.494854 41.333332
-9.560404 -5.004434 2.478606 33.000000
-9.444638 -4.981697 2.452638 29.000000
-9.329107 -4.958287 2.426670 34.000000
-7.818154 -5.013465 2.482186 37.799999
-8.793230 -4.852122 2.493418 33.000000
-7.834407 -4.920233 2.472477 39.000000
-8.644857 -4.823447 2.457756 31.000000
-8.503665 -4.797437 2.424022 34.000000
-7.849715 -4.844356 2.465248 39.500000
-8.041793 -4.704894 2.490035 31.000000
-7.887580 -4.714961 2.455953 34.200001
13.341972 4.176007 2.442458 38.000000
13.467949 4.169026 2.463110 28.000000
13.407324 4.289236 2.459324 41.500000
13.578177 4.343796 2.490646 53.000000
13.505673 4.414334 2.482385 47.000000
12.991318 4.473269 2.400465 38.000000
13.120926 4.471839 2.421806 39.000000
13.503834 4.507839 2.487204 34.000000
14.649928 4.484526 2.401388 14.000000
13.200496 4.591733 2.441770 32.000000
10.212422 5.427754 2.440967 43.000000
10.468283 5.521635 2.497964 28.000000
14.632726 5.558451 2.453417 13.000000
10.838663 6.432968 2.429649 16.000000
10.706170 6.583904 2.422835 13.000000
10.703424 6.675290 2.431668 45.666668
10.988267 6.709900 2.481891 11.000000
10.429510 6.804090 2.400499 37.000000
10.349138 7.152730 2.425106 29.000000
10.500642 7.112142 2.444792 33.000000
10.355580 7.221480 2.433687 19.666666
10.253046 7.278429 2.423844 32.666668
10.582033 7.264675 2.474320 11.000000
10.133652 7.534150 2.434192 13.000000
10.349991 7.644621 2.480377 48.000000
10.472477 7.583596 2.492491 43.000000
9.878391 7.662435 2.409964 33.500000
10.106868 7.713318 2.450849 50.000000
10.233520 7.708694 2.469777 16.500000
10.333952 7.784364 2.494005 27.000000
9.709771 7.955849 2.419806 45.000000
9.783452 7.964982 2.431920 15.000000
11.699647 8.034933 2.479632 4.000000
-13.013678 8.226903 2.413157 0.000000
11.678252 8.238100 2.496842 14.000000
13.146085 8.201831 2.428641 1.000000
-12.879121 8.312755 2.402627 23.000000
-17.931461 8.672269 2.412164 3.000000
-17.856049 8.844404 2.413126 0.000000
10.607841 8.806801 2.408726 4.000000
10.628330 9.051816 2.439016 18.000000
-10.671841 9.140418 2.454849 35.000000
10.780036 9.122744 2.467240 9.000000
-10.696797 9.220204 2.467240 22.000000
10.683505 9.244503 2.468273 8.000000
-10.649477 9.296661 2.469765 27.000000
10.657455 9.389274 2.481467 19.666666
-10.689012 9.510185 2.499595 20.000000
-14.899398 9.683180 2.467306 15.000000
9.879270 9.667742 2.414922 8.000000
-14.738144 9.777174 2.455754 3.000000
9.755065 9.826295 2.419052 11.400000
-15.016916 9.894317 2.497013 11.000000
-14.597749 9.950448 2.453003 7.000000
-14.508256 9.989905 2.445851 13.500000
9.621168 9.963011 2.419741 10.000000
9.774489 9.995330 2.442458 1.000000
-9.646207 10.108296 2.441081 30.000000
-9.467517 10.238314 2.436262 37.000000
-9.920369 10.265665 2.494088 19.000000
-9.735165 10.298217 2.475845 33.500000
-14.501531 10.451168 2.481976 17.000000
-9.476965 10.411432 2.459668 6.000000
9.334701 10.491776 2.453472 14.000000
-9.525455 10.564250 2.485139 150.000000
-9.460669 10.558906 2.476878 95.000000
-9.277982 10.620575 2.463799 12.000000
-9.164741 10.624954 2.451407 25.000000
9.312805 10.600544 2.465175 8.000000
9.558695 10.608557 2.494777 25.000000
-9.503433 10.673922 2.496842 0.000000
-9.015291 10.721183 2.447277 9.000000
-7.108419 10.711201 2.478106 2.000000
-7.012222 10.764299 2.476483 224.285721
-6.920218 10.791777 2.471292 255.000000
-6.846677 10.826142 2.469272 255.000000
-6.712599 10.877060 2.463909 255.000000
-6.579944 10.929216 2.459177 255.000000
-6.507141 10.963634 2.457663 255.000000
-6.410923 10.997356 2.453877 255.000000
-6.261091 11.057399 2.449524 255.000000
-6.130114 11.109236 2.445928 255.000000
-5.960904 11.173129 2.441195 255.000000
-5.830609 11.224381 2.438230 255.000000
-13.198020 11.304087 2.412844 17.000000
-5.759384 11.259670 2.437978 255.000000
-5.664145 11.291316 2.435138 255.000000
-5.515373 11.348352 2.432299 255.000000
-5.423566 11.386075 2.431163 255.000000
-5.350794 11.417517 2.430659 255.000000
-5.278413 11.449763 2.430406 204.000000
10.225151 11.420154 2.402627 1.000000
-10.339499 11.503357 2.424305 11.000000
-9.992529 11.621611 2.402317 56.000000
10.039331 11.573384 2.401388 15.000000
-12.701488 11.737020 2.401291 68.000000
-10.340499 11.687808 2.445984 16.000000
-10.123676 11.662390 2.420589 50.000000
-8.082853 11.690552 2.483074 7.000000
-16.471643 11.762122 2.451116 33.000000
-16.386242 11.779049 2.443903 24.000000
-10.410709 11.841917 2.471380 5.000000
-10.015238 11.797121 2.425544 40.000000
-16.722277 11.861954 2.482855 18.000000
-9.835032 11.947705 2.425545 20.333334
10.208057 11.918361 2.459611 22.000000
-16.635477 12.037650 2.486702 6.000000
-12.922772 12.016993 2.450252 1.000000
-12.795279 11.973608 2.433198 15.000000
-10.091842 12.001440 2.457753 12.000000
-9.721427 11.987860 2.419144 26.666666
-9.679400 12.038747 2.421209 20.000000
9.725406 12.027035 2.424306 17.000000
-13.211056 12.131179 2.490411 12.000000
-9.576966 12.091754 2.417699 71.333336
-9.292278 12.171394 2.400149 43.000000
9.768005 12.236031 2.454036 19.000000
-9.212212 12.345675 2.414395 59.000000
-9.179797 12.423911 2.421209 56.000000
9.363485 12.434793 2.439790 19.000000
9.458257 12.397608 2.444126 10.333333
9.701664 12.390944 2.466631 24.333334
-9.201515 12.535519 2.437313 45.000000
-8.965243 12.458097 2.405724 76.000000
9.371717 12.527434 2.452178 0.000000
-12.566981 12.602118 2.471157 5.000000
11.816596 12.627489 2.401291 10.000000
-12.560792 12.675311 2.477758 11.000000
-9.075444 12.695160 2.445984 1.000000
-9.097290 12.810605 2.462708 21.000000
-9.383284 12.867695 2.496155 48.000000
-8.964864 12.879556 2.459611 29.000000
-11.540792 13.044493 2.418345 5.000000
-9.100532 12.987250 2.485626 35.000000
-11.471333 13.089788 2.416695 42.500000
-11.378498 13.149615 2.414494 4.000000
-11.373150 13.269281 2.426597 1.000000
2.750600 13.617173 2.427083 31.333334
2.884115 13.615031 2.431443 28.333334
-11.375909 13.702349 2.472807 67.000000
-11.090672 13.705622 2.448052 26.000000
10.180067 13.970598 2.400191 19.000000
10.544684 14.095371 2.444201 21.000000
14.244512 14.120745 2.428995 13.000000
-10.598561 14.203461 2.460705 17.500000
10.277843 14.198283 2.433748 26.000000
10.838069 14.206414 2.481059 2.000000
-9.990788 14.353472 2.428247 13.000000
-14.034475 14.517899 2.445346 6.000000
-13.849751 14.508135 2.428995 14.000000
-9.989326 14.496627 2.444476 22.500000
-9.700861 14.512879 2.423846 17.000000
-6.455466 14.472023 2.483767 3.000000
-9.911866 14.628759 2.453553 11.000000
-5.976140 14.680698 2.484387 0.000000
-8.029004 18.778322 2.473237 0.000000
-7.948163 18.834206 2.475642 4.500000
19.942341 19.893671 2.418840 1.000000
19.882030 20.021355 2.422947 9.500000
19.800482 20.191414 2.428423 22.000000
19.746813 20.327379 2.433556 4.000000
19.688070 20.458963 2.438176 15.000000
19.617605 20.578928 2.441427 4.000000
19.583008 20.672283 2.445192 19.000000
19.527599 20.809376 2.450496 14.000000
19.468710 20.943495 2.455458 4.000000
19.404850 21.073114 2.459908 38.500000
19.348349 21.211441 2.465383 43.000000
19.300350 21.292788 2.467779 6.000000
19.289375 21.415504 2.474965 3.000000
19.205439 21.525490 2.477190 36.000000
19.134190 21.650099 2.481125 25.000000
19.085724 21.801491 2.488141 23.500000
19.025902 21.940874 2.493788 8.000000
18.977690 22.024693 2.496525 16.000000
14.508760 32.028950 2.404495 46.000000
14.444041 32.154461 2.410499 46.000000
14.385175 32.294460 2.417594 45.000000
14.327180 32.438053 2.424963 46.000000
14.263622 32.570637 2.431512 45.000000
14.199374 32.703140 2.438061 45.000000
14.142322 32.853882 2.445976 44.000000
14.078197 32.989914 2.452798 35.000000
14.011802 33.122189 2.459347 34.000000
13.949342 33.265408 2.466716 35.000000
-2.960371 -29.923262 2.582082 31.000000
-3.023186 -29.608530 2.555730 32.000000
-3.084060 -29.293699 2.529379 32.000000
-3.144276 -28.990671 2.504054 32.000000
-3.962774 -24.823637 2.599528 30.000000
-4.005560 -24.595078 2.576898 29.000000
-4.050866 -24.390045 2.556737 28.000000
-4.091603 -24.165359 2.534519 28.000000
-4.132998 -23.952423 2.513535 28.000000
-4.747787 -20.813381 2.585286 34.000000
-4.778234 -20.647482 2.566531 32.000000
-4.811316 -20.497061 2.549700 33.000000
-4.842582 -20.342773 2.532387 35.000000
-4.870131 -20.176916 2.513633 31.000000
-5.349379 -17.898485 2.593835 5.000000
-5.367750 -17.756439 2.575680 5.000000
-5.385281 -17.614454 2.557526 5.000000
-5.412502 -17.506607 2.544323 5.000000
-5.440285 -17.402540 2.531671 5.000000
-5.463886 -17.287140 2.517367 6.000000
-5.883550 -15.074973 2.536416 1.000000
-5.906473 -14.925827 2.515976 7.500000
-6.526718 -11.798868 2.599247 36.000000
-6.557716 -11.624053 2.572748 37.666668
-6.588224 -11.466608 2.549276 37.000000
-6.615637 -11.348637 2.532241 34.500000
-6.638073 -11.204442 2.510473 34.000000
-8.146997 -10.605872 2.578048 7.000000
-6.847624 -10.110251 2.577265 40.000000
-6.873600 -9.978788 2.557439 39.000000
-6.899322 -9.849701 2.538165 35.333332
-7.297613 -9.751373 2.570656 6.000000
-7.243590 -9.742844 2.562396 9.000000
-7.161654 -9.727983 2.549592 9.500000
-7.009379 -9.679195 2.522333 10.000000
-6.902368 -9.691055 2.511181 19.000000
-7.112237 -8.764288 2.592552 7.250000
-7.115705 -8.601501 2.564121 10.000000
-7.156664 -8.459867 2.545228 13.000000
-7.204624 -8.355477 2.534124 0.000000
-16.966969 -6.445148 2.520118 5.000000
-15.354124 -6.166090 2.593400 9.000000
-15.030692 -6.091113 2.541990 15.000000
-7.660509 -5.922994 2.587942 42.400002
-13.525809 -5.780410 2.569813 27.000000
-7.681380 -5.759333 2.565870 43.857143
-13.290480 -5.729281 2.528508 28.000000
-7.708117 -5.618906 2.549316 40.400002
-12.123014 -5.496693 2.565933 29.000000
-11.941373 -5.459624 2.531105 32.000000
-7.729573 -5.468857 2.530571 38.000000
-10.990011 -5.277331 2.573134 28.000000
-10.839514 -5.247029 2.541745 29.000000
-7.760664 -5.327885 2.515854 42.799999
-10.696353 -5.219268 2.512007 23.000000
-7.778767 -5.215311 2.502944 41.000000
-10.043175 -5.097395 2.586955 29.000000
-9.856078 -5.060878 2.544869 32.000000
-9.669486 -5.022898 2.502783 33.000000
-9.223117 -4.939175 2.597511 26.000000
-9.101641 -4.910981 2.567632 34.000000
-8.947229 -4.882138 2.530525 32.000000
-8.361602 -4.769289 2.572657 33.000000
-8.215145 -4.737282 2.534444 30.000000
-8.136730 -4.726191 2.514822 32.000000
14.077911 3.288986 2.525755 28.000000
14.449379 3.447658 2.595284 25.000000
14.449966 3.495814 2.597349 4.000000
14.295041 3.937510 2.590465 8.000000
14.056490 4.014708 2.553979 35.000000
14.171981 3.975549 2.571534 32.000000
14.172511 4.096045 2.577385 21.000000
14.166709 4.336606 2.588400 35.000000
13.858401 4.577862 2.549849 31.000000
13.509429 4.746822 2.501661 1.000000
13.586627 4.894192 2.523001 14.500000
13.572274 4.985515 2.526099 5.500000
13.587322 5.136948 2.537802 9.500000
15.388296 5.083234 2.540132 8.000000
15.333516 5.172205 2.536416 14.500000
10.551459 5.523206 2.513659 33.000000
15.068862 5.508457 2.514737 11.000000
10.636945 5.696311 2.546701 43.000000
10.477744 5.824654 2.530180 16.000000
10.700642 5.817175 2.570656 39.799999
10.677606 5.891923 2.573960 41.000000
10.426352 6.034195 2.542571 31.500000
10.640114 6.046854 2.583047 51.500000
10.580476 6.205036 2.588829 30.666666
10.444872 6.333117 2.578091 43.000000
10.223704 6.521890 2.559505 21.750000
11.682280 6.542391 2.581076 2.000000
10.035017 6.904624 2.570931 12.833333
11.113889 7.325476 2.565933 11.000000
10.579149 7.610293 2.512177 34.000000
10.502559 7.655790 2.505363 39.000000
10.627288 7.797956 2.540948 27.000000
-16.258522 8.736011 2.562753 13.000000
-16.191082 8.798360 2.558627 0.000000
-16.180580 8.924795 2.565778 29.000000
-11.432603 8.951425 2.536769 23.000000
-16.378828 8.967143 2.592734 6.000000
-11.441564 9.016561 2.545030 9.000000
-11.345825 9.057281 2.536356 29.600000
-16.225622 9.217433 2.591084 14.000000
-11.336548 9.167059 2.547095 42.000000
-11.202096 9.208879 2.533524 36.857143
-11.045813 9.316330 2.524550 32.000000
-15.437101 9.378526 2.508015 29.666666
-15.435297 9.521849 2.518193 18.000000
-10.691376 9.572629 2.507168 5.000000
-9.330275 9.597882 2.580319 36.000000
10.723631 9.577909 2.511987 14.500000
-10.744858 9.742842 2.534016 22.000000
10.742759 9.686412 2.527132 10.000000
-13.134065 9.761334 2.564908 27.000000
-12.890317 9.770106 2.535177 2.000000
-10.921777 9.840920 2.568436 16.000000
-10.762709 9.851938 2.549160 15.000000
-15.815578 9.859652 2.587783 29.000000
10.823259 9.914174 2.564305 14.500000
-10.734115 9.981742 2.560863 12.000000
-10.626249 10.006592 2.550078 5.666667
-10.339977 9.985172 2.511298 17.250000
-10.191298 10.092177 2.505791 16.000000
-15.221324 10.166717 2.541573 8.000000
-10.352148 10.187241 2.537458 10.000000
-10.119873 10.244240 2.515773 2.000000
-8.784698 10.187955 2.593190 12.000000
12.242331 10.228919 2.500491 1.000000
-12.624748 10.274494 2.551281 5.000000
-10.017107 10.257731 2.504873 32.666668
-9.912630 10.322360 2.500284 17.000000
-18.347946 10.495216 2.559798 6.000000
-12.149640 10.472495 2.514118 14.000000
-9.879098 10.549646 2.525066 50.000000
9.744731 10.545483 2.508545 4.000000
-9.781895 10.645190 2.525755 9.000000
-15.303015 10.739253 2.595852 26.333334
-15.144305 10.746592 2.578431 24.000000
-14.984738 10.704296 2.556976 28.000000
-12.295789 10.665977 2.551281 7.000000
-10.052592 10.802746 2.578074 44.000000
11.928618 10.823800 2.524647 11.000000
14.545979 11.032997 2.534971 10.000000
14.964046 11.129498 2.589434 2.000000
-9.254856 11.219052 2.540900 1.000000
-17.952671 11.344820 2.571821 6.000000
-9.355495 11.268749 2.558798 14.000000
-9.262664 11.324801 2.556045 21.666666
-9.180928 11.345601 2.549849 11.000000
11.457033 11.282403 2.520312 4.000000
-17.794106 11.401695 2.559317 70.000000
-17.664772 11.397257 2.545852 71.000000
-17.718784 11.511111 2.558836 5.000000
-17.308537 11.556453 2.520365 4.000000
-8.511089 11.671498 2.523690 17.000000
-8.412240 11.689644 2.516117 6.000000
9.165189 11.705620 2.597349 10.000000
-8.745797 11.836537 2.571189 103.000000
-8.348506 11.756137 2.519100 36.666668
-8.260820 11.828366 2.520592 77.500000
8.934973 11.788472 2.584269 19.000000
9.056118 11.755384 2.592530 25.500000
-13.753644 11.855082 2.521218 16.000000
-13.578798 11.929264 2.509666 27.000000
-8.191240 11.967492 2.533671 2.500000
11.370252 11.998511 2.590922 7.000000
-13.642171 12.061092 2.528370 7.000000
-13.473355 12.101623 2.514617 12.500000
-13.369200 12.122449 2.505815 9.000000
-8.169027 12.056533 2.544342 1.000000
11.286268 12.136972 2.597736 0.000000
10.566615 12.336986 2.546016 13.000000
10.109388 12.382033 2.505446 21.500000
-10.909023 12.487640 2.598974 13.000000
-13.269075 12.574289 2.538272 7.000000
9.765495 12.635075 2.502969 9.000000
10.389688 12.563443 2.555307 5.500000
10.238882 12.826026 2.572340 22.000000
-12.722651 13.165486 2.542123 45.000000
-9.005647 13.201785 2.504827 26.000000
9.576815 13.186247 2.554378 3.000000
-12.708060 13.316824 2.555876 26.000000
-9.672016 13.351547 2.584109 50.000000
-9.205282 13.313966 2.537035 14.000000
-9.116426 13.274413 2.524028 41.000000
-9.001813 13.285627 2.515356 41.000000
9.801271 13.318308 2.591851 13.000000
-12.884300 13.416863 2.582832 14.000000
-12.614489 13.470702 2.562478 5.000000
-12.441545 13.625230 2.561927 2.000000
-12.393127 13.701324 2.565228 12.000000
-12.323156 13.753683 2.564128 26.000000
-11.539546 13.988631 2.517917 71.000000
-12.051259 14.060446 2.571280 38.000000
-11.576522 14.214465 2.545424 1.000000
-6.568591 14.561297 2.503794 9.666667
-14.998689 14.662185 2.540082 29.000000
-6.736231 14.726777 2.538274 13.000000
-15.077114 14.831760 2.561241 29.000000
-6.427514 14.782275 2.526505 0.000000
-15.170410 15.064967 2.589133 23.500000
-13.886206 15.395158 2.510747 3.000000
13.098961 16.101036 2.513633 6.000000
13.316034 16.056339 2.526136 1.000000
13.111921 16.325438 2.535753 4.000000
-17.696892 17.299852 2.559206 2.000000
-17.626085 17.558533 2.572784 5.000000
-17.434690 17.698362 2.569081 5.000000
-16.881289 18.134670 2.562086 3.000000
-17.128590 18.284803 2.590888 4.000000
-16.944725 18.433712 2.589242 4.000000
-16.501959 18.411116 2.556737 1.000000
-16.791138 18.498564 2.583482 31.000000
-8.063042 19.446877 2.549459 3.000000
-8.011224 19.582052 2.562203 1.000000
-7.958621 19.629200 2.565088 1.000000
-7.929490 19.735168 2.575668 1.000000
18.942099 22.123560 2.500974 6.000000
18.903492 22.219383 2.505081 16.000000
18.856750 22.306053 2.508161 26.000000
18.793594 22.445076 2.513808 28.500000
18.729643 22.584011 2.519454 21.000000
18.668470 22.727467 2.525615 1.500000
18.606506 22.870823 2.531775 12.000000
18.542240 23.012543 2.537763 2.000000
18.284164 23.665476 2.568050 2.000000
18.203888 23.792503 2.572499 2.500000
18.132513 23.932043 2.578317 1.000000
18.058947 24.069818 2.583964 3.000000
17.998850 24.226637 2.591664 10.000000
17.931665 24.375383 2.598508 8.000000
14.105152 33.935524 2.513108 16.000000
14.042555 34.086674 2.521022 11.000000
13.974619 34.226681 2.528118 7.000000
13.914924 34.388794 2.536850 4.000000
13.943462 34.773106 2.561957 55.000000
-4.076582 -31.174889 2.699806 3.000000
-2.694397 -31.236628 2.692278 16.000000
-2.765540 -30.926327 2.666269 30.000000
-2.831821 -30.584145 2.637522 31.000000
-2.896360 -30.245821 2.609117 29.000000
-3.779948 -25.753271 2.691692 30.000000
-3.826018 -25.509119 2.667417 30.000000
-3.873603 -25.284595 2.645199 30.000000
-3.917971 -25.048235 2.621746 30.000000
-4.547431 -21.824394 2.699739 34.000000
-4.580612 -21.642950 2.679060 32.000000
-4.619379 -21.492569 2.662229 28.000000
-4.649627 -21.307247 2.641069 31.000000
-4.683050 -21.141329 2.622314 30.000000
-4.714606 -20.971542 2.603079 31.000000
-5.187492 -18.629719 2.685155 5.000000
-5.214827 -18.502741 2.669202 5.000000
-5.246847 -18.394825 2.655999 5.000000
-5.265057 -18.241213 2.636194 5.000000
-5.321187 -18.010195 2.607588 12.000000
-5.259030 -18.007805 2.604837 20.000000
-5.647111 -16.252823 2.696839 34.000000
-5.668043 -16.149239 2.682593 31.000000
-5.696932 -15.990202 2.660604 31.500000
-5.729957 -15.846115 2.641093 33.000000
-5.752602 -15.753796 2.628705 14.000000
-6.456888 -12.382509 2.691997 15.000000
-6.459309 -12.245991 2.668904 4.000000
-6.506898 -12.104936 2.649218 13.500000
-6.449822 -12.135462 2.649218 3.000000
-6.504737 -11.920737 2.617797 37.000000
-6.706788 -10.867758 2.695389 33.000000
-6.734276 -10.723065 2.672535 32.000000
-6.763912 -10.584637 2.651196 37.000000
-6.782402 -10.468023 2.632610 36.000000
-6.797392 -10.383550 2.619393 37.000000
-6.819117 -10.275434 2.602872 34.333332
-3.766965 -9.953251 2.642168 7.000000
-3.821842 -9.940628 2.644096 5.666667
-7.041557 -9.347856 2.688141 0.000000
-7.033828 -9.216683 2.663069 1.333333
-7.051761 -9.061773 2.637399 6.000000
-7.077894 -8.920594 2.615610 7.333333
-7.514904 -6.667466 2.684972 42.500000
-7.535849 -6.580893 2.673870 41.000000
-7.546755 -6.507347 2.663198 42.333332
-7.570877 -6.394636 2.648566 40.500000
-15.785921 -6.224610 2.659675 13.000000
-15.542316 -6.185040 2.621892 5.000000
-7.610280 -6.215728 2.626104 36.250000
-7.634119 -6.076890 2.607772 39.250000
-14.209016 -5.914643 2.688907 32.000000
-13.986920 -5.873813 2.650356 29.000000
-13.754335 -5.827042 2.609740 28.000000
-12.695163 -5.612475 2.675718 33.000000
-12.498105 -5.572357 2.637861 29.000000
-12.322919 -5.540721 2.604548 35.000000
-11.471620 -5.376138 2.673912 29.000000
-11.302508 -5.340259 2.638392 28.000000
-11.140807 -5.306732 2.604524 33.000000
-10.440051 -5.175673 2.676500 27.000000
-10.298193 -5.145718 2.644264 36.000000
-10.177523 -5.125439 2.617401 35.000000
-9.551290 -4.999663 2.676545 32.000000
-9.429091 -4.973496 2.646666 35.000000
-9.327717 -4.957548 2.622570 34.000000
-8.786808 -4.848579 2.682132 28.000000
-8.693849 -4.832973 2.658378 33.000000
-8.604445 -4.818723 2.635657 33.000000
-8.505123 -4.798259 2.609837 28.000000
14.546065 3.567473 2.616624 1.000000
14.444870 3.711544 2.605610 24.500000
14.599782 3.678049 2.630392 0.000000
14.434000 3.854104 2.610084 12.500000
14.549223 3.811490 2.627639 15.000000
13.412575 4.034148 2.699946 44.500000
13.346545 4.098334 2.691365 31.333334
13.256831 4.162095 2.678494 31.333334
14.295723 4.180361 2.602168 36.000000
13.271354 4.289088 2.688590 41.000000
13.314692 4.256943 2.694647 28.000000
14.611244 4.322501 2.662059 45.000000
14.654848 4.410570 2.673762 26.500000
10.090647 5.201482 2.607551 57.000000
10.236713 5.155248 2.632623 53.000000
10.337183 5.369737 2.675605 31.000000
10.783411 6.083702 2.613198 32.000000
10.495905 6.523003 2.608241 29.500000
10.682123 6.522955 2.641696 33.000000
10.825342 6.494158 2.664412 7.000000
10.818059 6.794052 2.696215 49.000000
10.001270 7.782974 2.674738 31.000000
10.062827 7.780242 2.684651 27.000000
-12.600562 8.508134 2.656276 28.600000
-12.259594 8.546007 2.610888 34.666668
-17.388046 8.616375 2.694507 29.000000
-12.504924 8.581548 2.649668 33.000000
-12.429276 8.587192 2.639342 30.000000
-12.259330 8.699377 2.626262 25.000000
-12.550688 8.846980 2.682711 9.000000
-12.270416 8.765330 2.634523 9.000000
10.408459 8.889590 2.638618 20.000000
-16.432985 9.131460 2.610338 22.000000
-12.473858 9.119493 2.699577 15.000000
-11.759234 9.147727 2.602856 20.000000
10.604396 9.143785 2.699189 6.000000
-12.159021 9.215827 2.665501 26.000000
-11.947440 9.194210 2.633834 21.000000
10.208212 9.201199 2.649218 28.000000
10.364055 9.224314 2.674582 16.500000
-16.666958 9.330129 2.652148 17.000000
-12.223992 9.325676 2.686153 55.000000
10.202530 9.254333 2.655276 17.000000
-16.609957 9.366871 2.647747 19.000000
-16.426979 9.400209 2.627942 13.000000
-19.861881 9.605886 2.671847 33.000000
-16.606756 9.572461 2.661500 18.000000
-16.389492 9.654145 2.641145 20.000000
-19.209805 9.741470 2.608369 31.000000
-16.679388 9.684272 2.678004 18.000000
9.710800 9.741355 2.651490 9.000000
-19.753464 9.835760 2.672328 28.333334
-19.531185 9.827435 2.647802 32.000000
-16.488562 9.782412 2.662050 7.000000
-13.476566 9.755404 2.607646 0.000000
-9.507475 9.841835 2.637861 17.000000
-9.320738 9.770649 2.603033 55.000000
9.308910 9.819836 2.608333 14.000000
9.693489 9.846962 2.663604 20.000000
-19.408939 9.919239 2.639627 34.000000
-9.714689 9.930714 2.677989 1.000000
-19.363564 9.972888 2.637703 27.000000
-16.201237 9.959276 2.640595 1.000000
-9.607066 10.007662 2.674204 40.000000
-9.435132 9.984266 2.648083 44.000000
-9.330980 10.030794 2.640890 23.000000
9.230103 9.985068 2.621204 12.000000
9.342751 9.980352 2.635338 20.000000
9.598906 9.999161 2.671932 0.000000
-19.448442 10.094044 2.653573 2.000000
-9.413448 10.055908 2.655276 31.000000
9.267772 10.089223 2.640890 32.000000
-9.176946 10.245844 2.651490 12.000000
-9.018714 10.197387 2.624233 23.000000
-8.865576 10.216668 2.607576 20.000000
9.192211 10.166035 2.642025 28.000000
-9.411117 10.266848 2.684804 30.333334
-8.962214 10.262728 2.626504 39.000000
9.026680 10.271435 2.635969 11.500000
9.218872 10.292657 2.663604 33.000000
9.386963 10.283639 2.684047 24.000000
-9.121461 10.379082 2.663604 12.000000
9.283110 10.430123 2.691618 18.000000
10.664745 10.535219 2.619034 18.000000
10.827669 10.529449 2.638653 5.000000
-15.582376 10.693460 2.624091 0.000000
-12.767649 10.660275 2.607027 41.000000
-8.855915 10.739260 2.683290 35.000000
-6.838763 10.738845 2.687129 0.000000
10.364210 10.732552 2.606642 9.000000
-18.676161 10.760965 2.610292 34.000000
-15.466090 10.757223 2.615839 7.000000
-6.834282 10.806584 2.698694 0.000000
-6.751091 10.787233 2.685890 0.000000
-6.687295 10.836098 2.687542 0.000000
12.751474 10.808322 2.620034 19.000000
-18.705833 10.895849 2.621593 30.500000
-13.209437 10.889018 2.683212 0.000000
-6.588857 10.905378 2.689194 0.000000
12.634027 10.880389 2.613375 34.750000
-13.008194 11.000565 2.670205 0.000000
-6.356707 10.983564 2.678455 0.000000
-6.284663 11.018187 2.677216 0.000000
12.565019 10.976622 2.615079 8.000000
-6.092094 11.122812 2.676666 255.000000
-5.961432 11.174127 2.673086 255.000000
-5.811120 11.229898 2.668749 149.750000
-12.816442 11.331062 2.681354 15.000000
-9.710841 11.329832 2.606987 38.000000
-5.700748 11.290373 2.669507 42.666668
-5.560314 11.305034 2.659043 2.000000
-18.221380 11.394848 2.602598 33.500000
-12.455057 11.436975 2.650384 29.000000
-5.745828 11.409427 2.696215 16.000000
-5.305429 11.413920 2.656565 2.000000
-5.276101 11.444748 2.659869 1.000000
12.371539 11.440139 2.641093 6.000000
-18.134705 11.539741 2.603079 6.000000
-12.584336 11.483030 2.670205 22.000000
-10.195419 11.487501 2.683399 40.500000
-9.595491 11.484227 2.614559 4.000000
-5.488508 11.522413 2.693737 2.000000
9.530189 11.487324 2.607675 1.000000
-10.180148 11.616550 2.698544 26.000000
10.079849 11.644691 2.690742 33.333332
9.595148 11.714634 2.645537 17.000000
10.001655 11.677378 2.686153 9.000000
-9.281515 11.788309 2.621271 37.000000
-9.108994 11.853930 2.611805 52.000000
-9.093863 11.911596 2.618230 45.333332
-9.036715 11.914070 2.612494 55.000000
9.668877 11.918854 2.681334 18.000000
-9.488276 12.188227 2.698544 10.000000
-18.105022 12.419988 2.658862 11.000000
-9.226799 12.365210 2.695446 56.500000
-18.232557 12.591888 2.683388 9.000000
-18.205948 12.658178 2.685312 30.000000
-8.690925 12.740420 2.694414 57.000000
14.537032 12.699345 2.680204 13.000000
-18.109823 12.760883 2.682907 1.000000
-8.627014 12.790100 2.695332 59.000000
-8.574845 12.828314 2.695791 62.000000
-17.661133 12.949679 2.652130 1.000000
-10.630767 13.053202 2.638616 12.000000
-10.541113 13.110500 2.636757 1.000000
-10.435746 13.063273 2.620653 2.000000
-10.365170 13.058854 2.613220 61.000000
10.918613 13.077056 2.670205 10.000000
-13.081595 13.452100 2.605387 9.000000
9.942842 13.378287 2.612601 20.000000
-13.302077 13.507964 2.632343 13.000000
-13.218005 13.507215 2.624091 24.000000
2.773612 13.608518 2.677233 35.500000
2.873070 13.593467 2.678293 34.200001
10.309127 13.780495 2.697458 2.000000
-16.368055 14.103621 2.616544 3.000000
-6.290714 14.102676 2.697856 16.000000
-6.247974 14.125972 2.698544 4.000000
-6.072450 14.086531 2.679957 2.000000
-5.915010 14.085009 2.668943 1.000000
-16.669128 14.778845 2.697815 30.500000
-16.086849 14.860117 2.652130 9.000000
-16.133152 14.997103 2.667519 7.000000
-15.217109 15.254330 2.609330 7.000000
-11.399046 15.326467 2.652148 5.000000
-15.719028 15.560711 2.678579 5.000000
-15.170972 15.595204 2.634818 12.000000
-7.006032 15.706295 2.695600 0.000000
-14.609500 16.717714 2.688678 2.000000
-17.128241 18.751244 2.626272 8.000000
17.868275 24.530491 2.606037 26.000000
17.816822 24.622019 2.609802 31.000000
17.774275 24.726412 2.614935 20.000000
17.726614 24.824291 2.619384 33.000000
17.680819 24.925365 2.624175 32.000000
17.636860 25.029655 2.629308 59.000000
17.587849 25.127384 2.633757 52.000000
17.542948 25.231596 2.638891 45.000000
17.495302 25.332495 2.643682 52.000000
17.458466 25.449778 2.650184 50.000000
17.405355 25.544018 2.654291 52.000000
17.360764 25.651382 2.659766 53.000000
17.315666 25.758715 2.665242 52.000000
17.265636 25.859388 2.670033 53.000000
17.219553 25.966646 2.675509 53.000000
17.168581 26.067209 2.680300 57.000000
17.123692 26.177715 2.686118 55.000000
17.076107 26.284853 2.691593 53.000000
17.028017 26.391951 2.697069 55.000000
14.762239 35.516407 2.630181 22.000000
14.691632 35.662235 2.637549 26.000000
14.623267 35.815353 2.645463 30.000000
13.472980 35.863285 2.619811 61.000000
13.263939 35.992168 2.623086 46.000000
13.403388 36.021381 2.628271 43.000000
14.551094 35.960999 2.652832 38.000000
13.190477 36.142372 2.631000 45.000000
14.479635 36.110249 2.660473 2.000000
13.121630 36.307487 2.640005 43.000000
14.416221 36.281651 2.669751 43.000000
14.348952 36.445587 2.678484 42.000000
13.050528 36.468765 2.648738 40.000000
13.848803 36.514812 2.670570 60.000000
12.977209 36.626190 2.657198 41.000000
14.004828 36.579205 2.678484 60.000000
14.277892 36.602024 2.686671 55.000000
14.167149 36.657864 2.687490 77.000000
12.905673 36.791050 2.666203 42.000000
12.830609 36.948277 2.674663 42.000000
12.754684 37.105396 2.683123 43.000000
12.683041 37.277512 2.692674 48.000000
-4.283746 -31.231575 2.706993 1.000000
-4.180315 -31.205379 2.703571 3.000000
-3.644271 -26.262939 2.741889 21.000000
-3.732954 -26.001324 2.716379 29.000000
-4.406014 -22.561853 2.783895 30.000000
-4.442073 -22.372627 2.762255 30.000000
-4.476987 -22.183399 2.740614 30.000000
-4.512352 -22.001953 2.719936 30.000000
-5.020688 -19.441544 2.788028 27.000000
-5.058769 -19.214581 2.758872 18.000000
-5.111283 -19.048965 2.738517 5.000000
-5.144094 -18.933405 2.724214 5.000000
-5.165721 -18.779627 2.704410 4.000000
-5.487552 -16.989784 2.798419 5.000000
-5.527438 -16.841707 2.778289 36.500000
-5.562431 -16.682390 2.756300 34.000000
-5.584531 -16.574955 2.741435 34.000000
-5.616435 -16.413860 2.719137 33.500000
-6.394149 -12.598111 2.723418 15.000000
-6.421112 -12.504948 2.709789 18.000000
-6.587312 -11.465014 2.790798 37.500000
-8.948946 -11.425327 2.797617 9.000000
-8.832113 -11.423285 2.783484 6.333333
-8.645073 -11.364653 2.752567 9.000000
-8.500345 -11.321413 2.729096 3.500000
-6.620099 -11.315532 2.766980 34.333332
-6.650414 -11.165110 2.742887 34.500000
-6.680003 -11.017162 2.719345 37.000000
-8.172428 -10.255816 2.767806 3.333333
-8.209637 -10.109958 2.748752 6.400000
-6.859153 -10.058912 2.796491 39.000000
-6.884458 -9.961103 2.781268 40.333332
-6.906489 -9.826982 2.758882 37.000000
-7.259616 -9.743035 2.790819 7.333333
-7.164867 -9.732353 2.775895 8.500000
-6.993341 -9.657218 2.738734 9.000000
-6.905910 -9.696065 2.734257 16.500000
-6.946428 -9.592590 2.720377 14.000000
-7.147602 -8.723341 2.799914 0.000000
-7.118047 -8.604342 2.772445 8.500000
-7.145014 -8.472998 2.751723 15.500000
-7.193217 -8.377683 2.741442 32.333332
-18.475443 -6.973943 2.742001 54.666668
-18.488432 -6.890481 2.739618 65.000000
-7.483001 -6.917215 2.723443 37.000000
-18.660589 -6.755039 2.755571 9.000000
-18.507658 -6.798495 2.737692 54.000000
-7.495543 -6.820547 2.708468 41.750000
-16.499132 -6.386346 2.773024 10.000000
-16.158760 -6.313035 2.719137 13.000000
-14.745564 -6.029564 2.783218 5.000000
-14.438790 -5.957141 2.728834 29.000000
-13.299382 -5.730367 2.791560 27.000000
-13.093998 -5.690716 2.752189 33.000000
-12.896194 -5.652979 2.714332 30.000000
-11.963142 -5.469577 2.776342 30.000000
-11.793065 -5.436680 2.740822 30.000000
-11.630415 -5.406062 2.706954 30.000000
-10.916003 -5.262789 2.783507 30.500000
-10.714116 -5.227936 2.738286 26.000000
-10.561206 -5.194469 2.703364 34.000000
-10.028776 -5.090087 2.792204 33.000000
-9.851030 -5.058289 2.749314 31.000000
-9.666856 -5.021532 2.704496 33.000000
-9.211554 -4.932982 2.792639 31.000000
-9.104185 -4.912354 2.764755 23.000000
-8.945275 -4.881083 2.723443 32.500000
14.027034 3.251293 2.775660 7.000000
14.089899 3.335870 2.791181 13.500000
13.680877 4.548469 2.779193 43.000000
13.754375 4.492966 2.789289 18.000000
13.296257 4.622442 2.713575 8.000000
13.525200 4.559591 2.751432 44.000000
13.185463 4.739256 2.700956 41.333332
13.370424 4.789937 2.737803 10.000000
13.690601 4.759552 2.794084 42.000000
13.365889 4.883287 2.743103 60.000000
13.327580 4.964428 2.741589 53.000000
13.516302 4.986427 2.777174 51.000000
13.242167 5.123008 2.737046 25.000000
13.531130 5.137292 2.790046 5.000000
13.154904 5.184506 2.725689 17.000000
10.653906 5.323455 2.735600 2.000000
10.492195 5.366818 2.706946 21.000000
10.511312 5.530290 2.728138 26.666666
10.589055 5.627929 2.754405 9.000000
9.666638 5.778492 2.796059 6.000000
16.338314 5.914387 2.723473 9.000000
10.133252 6.100715 2.716796 28.000000
16.352201 6.094328 2.735241 7.000000
10.388629 6.195308 2.778283 26.000000
10.384026 6.374515 2.798729 27.000000
10.712781 7.158051 2.719345 3.000000
10.849360 7.298717 2.759821 29.000000
10.861492 7.406429 2.774690 21.000000
10.933312 7.405192 2.787080 23.000000
10.687425 7.486196 2.754039 0.000000
10.450373 7.592697 2.726366 4.000000
10.672873 7.601740 2.765603 2.500000
10.229241 7.755978 2.709432 33.000000
10.499069 7.754733 2.754864 8.000000
10.630664 7.800433 2.782950 3.000000
10.226889 7.855878 2.721823 16.000000
11.891172 7.972429 2.759760 5.500000
13.482024 8.352695 2.770827 51.000000
13.445960 8.447721 2.774269 1.000000
-12.910704 8.564864 2.706805 24.000000
11.512430 8.615533 2.771874 1.000000
-17.901213 8.731002 2.765473 5.000000
-17.742140 8.722526 2.745119 36.000000
-17.527481 8.754168 2.720363 22.000000
-18.138973 8.776535 2.797931 21.000000
-17.426203 8.840814 2.713212 0.000000
-17.609598 8.864409 2.737417 5.000000
10.696098 9.048509 2.700704 19.000000
10.840161 9.054143 2.722661 12.000000
-10.905942 9.089719 2.736794 25.666666
10.965268 9.100309 2.746889 19.000000
-12.360280 9.287073 2.701068 44.666668
-11.103303 9.333298 2.796103 30.000000
10.694519 9.309654 2.733261 12.000000
-15.014570 9.524849 2.786960 20.500000
-10.919734 9.475659 2.787017 18.000000
-10.824747 9.473039 2.772884 36.666668
10.762621 9.458522 2.762032 22.000000
-12.595394 9.734825 2.781153 29.000000
-10.349344 9.749323 2.740832 63.000000
-10.228206 9.757220 2.724932 18.000000
-8.864644 9.834825 2.794515 31.000000
-16.966949 9.922632 2.729165 9.000000
-12.422457 9.916715 2.777022 1.000000
-10.481143 9.935809 2.783988 1.000000
-10.325005 9.911709 2.759003 23.000000
-16.695824 9.976418 2.700559 33.000000
-14.758027 9.991934 2.793464 15.000000
9.802583 10.020558 2.702218 34.000000
9.963036 9.994490 2.720389 36.500000
-17.072247 10.056318 2.751170 4.000000
-14.664463 10.097393 2.790677 20.000000
-12.336487 10.104493 2.785972 5.000000
-10.392072 10.102324 2.793831 11.000000
-10.216228 10.152334 2.776417 10.500000
9.795693 10.076651 2.709032 7.000000
-16.891844 10.165695 2.737417 16.000000
-12.273980 10.248090 2.793544 2.000000
-10.062714 10.222031 2.765060 22.000000
-16.958151 10.498116 2.769324 4.000000
-16.707300 10.488599 2.739067 13.000000
-16.677618 10.543149 2.739618 0.000000
-9.552523 10.531265 2.740832 14.000000
-9.322277 10.474133 2.702975 35.000000
-9.105413 10.708555 2.709638 30.600000
9.199867 10.737461 2.725689 26.000000
9.269462 10.750150 2.736289 7.000000
-13.771502 10.817667 2.744842 2.500000
-11.828982 10.793780 2.797674 5.000000
-8.999506 10.760874 2.704186 34.599998
-13.560372 10.965307 2.733383 2.000000
-11.594837 10.987716 2.790790 17.000000
-9.147828 11.236347 2.793074 29.000000
-8.994638 11.190985 2.767710 30.750000
-6.630555 11.251953 2.756517 6.000000
10.695052 11.215221 2.707494 3.000000
-6.723478 11.274197 2.770559 26.666666
-6.260126 11.261092 2.719345 49.000000
11.264500 11.303888 2.788037 3.000000
-6.400651 11.429183 2.764777 82.000000
10.449534 11.524232 2.717819 10.000000
-12.798928 11.605359 2.707988 16.000000
-10.617233 11.627354 2.750863 8.000000
-10.498573 11.570189 2.729522 32.000000
-5.668942 11.617904 2.728431 22.000000
-8.446957 11.683909 2.779256 41.250000
-8.332003 11.752934 2.777174 37.400002
10.178639 11.659775 2.704051 16.000000
-12.752837 11.784471 2.721614 15.000000
-10.249361 11.807177 2.731588 15.000000
-8.020274 11.814677 2.752694 26.333334
-7.940712 11.803676 2.742346 33.000000
12.599401 11.798563 2.705510 34.000000
-10.255965 11.890042 2.743290 2.000000
-10.124854 11.888248 2.728146 19.000000
-8.310511 11.864226 2.792317 27.000000
-8.178934 11.887021 2.781465 22.333334
-7.966875 11.923269 2.764303 1.000000
12.660056 11.930232 2.726569 1.000000
-12.599730 12.091155 2.737099 5.000000
-13.033446 12.196482 2.797800 11.000000
-12.842749 12.208578 2.777360 14.500000
-12.374560 12.254205 2.729666 10.000000
9.771132 12.200819 2.730899 10.000000
-12.361197 12.318122 2.735241 2.000000
-12.484284 12.519190 2.771166 19.000000
9.887245 12.546415 2.790790 11.000000
-9.293447 12.744497 2.755682 4.000000
-8.753211 12.745536 2.701298 50.000000
-11.524273 12.821526 2.702104 30.500000
-8.829066 12.769829 2.712312 31.000000
-8.569368 12.907716 2.706805 55.000000
-8.598188 13.039837 2.728834 52.000000
-11.589528 13.099578 2.741435 12.000000
-8.573636 13.121918 2.738472 54.333332
-8.594637 13.305644 2.767385 29.000000
11.664536 13.404373 2.785102 4.500000
-14.036071 14.164041 2.768774 25.000000
-10.113750 14.194666 2.731834 20.000000
-6.401267 14.230174 2.726080 8.000000
10.218282 14.209774 2.743293 0.000000
-10.070675 14.276093 2.738338 10.000000
-9.619245 14.342012 2.706749 18.000000
-6.292191 14.347609 2.737095 4.000000
-6.265935 14.410668 2.745356 10.000000
-5.988840 14.387267 2.722638 3.000000
-13.358212 14.537133 2.741268 13.000000
-16.892464 14.741432 2.715127 23.000000
-9.792012 14.749337 2.774882 14.000000
-9.612140 14.728147 2.756610 15.500000
-9.736928 14.766827 2.772405 15.000000
-16.627686 14.929678 2.706231 14.500000
-16.567341 15.064573 2.711761 14.500000
-16.133444 15.476828 2.707433 2.000000
-17.777576 19.709387 2.744769 2.000000
-17.279911 19.773478 2.715556 19.000000
-17.570551 19.979023 2.751352 1.000000
-17.489019 20.140100 2.758347 1.000000
16.979422 26.499004 2.702544 53.000000
16.930321 26.606014 2.708020 49.000000
16.860973 26.774860 2.717089 51.000000
16.788424 26.940275 2.725816 54.000000
16.737259 27.047108 2.731291 50.000000
16.663662 27.214041 2.740189 50.000000
16.584860 27.374077 2.748402 49.000000
16.537815 27.490932 2.754905 53.000000
16.488155 27.604336 2.761065 53.000000
16.435911 27.714272 2.766882 52.000000
16.387180 27.831020 2.773385 53.000000
16.335871 27.944294 2.779545 56.000000
16.256809 28.112381 2.788614 49.500000
16.176657 28.280359 2.797683 50.000000
12.609168 37.445763 2.701953 47.000000
12.533100 37.610126 2.710958 47.000000
12.457375 37.778175 2.720237 44.000000
12.379477 37.942322 2.729243 44.000000
12.304350 38.117744 2.739067 40.000000
12.225813 38.285465 2.748345 43.000000
12.147546 38.456871 2.757897 39.000000
12.068323 38.628162 2.767448 29.000000
11.989320 38.803146 2.777272 27.000000
-3.492250 -27.374981 2.853803 29.000000
-3.409668 -27.413454 2.856683 35.000000
5.438042 -26.848734 2.832819 47.000000
5.519958 -26.819826 2.831584 49.000000
-4.214136 -23.539038 2.895943 31.000000
-4.256022 -23.349884 2.874303 30.000000
-4.293142 -23.141178 2.850258 30.000000
-4.331938 -22.948082 2.828137 30.000000
-4.371062 -22.762772 2.806978 29.000000
-4.876564 -20.188118 2.883750 27.000000
-4.905090 -20.030315 2.863395 27.000000
-4.936496 -19.887909 2.845241 29.000000
-4.965124 -19.737823 2.825987 28.000000
-4.991879 -19.583914 2.806182 24.000000
-5.391008 -17.633186 2.890089 4.000000
-5.409023 -17.495352 2.870269 4.000000
-5.436840 -17.391521 2.856023 5.000000
-5.466442 -17.295227 2.843015 4.000000
-5.481058 -17.153748 2.822576 4.000000
-6.338671 -13.094666 2.804431 1.000000
-6.285341 -13.142099 2.808217 18.500000
-6.468311 -12.055929 2.887651 31.000000
-6.500453 -11.912861 2.864316 34.000000
-6.530615 -11.791324 2.844904 36.500000
-6.559487 -11.627192 2.817644 35.333332
-9.127720 -11.466805 2.825253 2.000000
-9.021267 -11.443426 2.808974 7.000000
-6.766953 -10.552921 2.879469 37.333332
-6.802859 -10.391900 2.852904 40.000000
-6.787177 -10.439367 2.860068 43.000000
-6.821225 -10.278581 2.833503 37.000000
-6.848710 -10.146067 2.811713 38.500000
-3.769323 -9.959489 2.846000 6.000000
-3.820515 -9.937204 2.845311 6.000000
-7.065496 -9.049967 2.850515 0.000000
-7.137318 -8.766828 2.806661 0.000000
-16.963768 -6.443931 2.844254 3.000000
-16.799538 -6.442008 2.820098 4.000000
-15.349912 -6.164399 2.889920 8.000000
-15.034669 -6.092725 2.834160 15.000000
-13.747437 -5.821290 2.877873 28.000000
-13.508753 -5.770333 2.831688 32.000000
-12.507452 -5.576525 2.890336 26.000000
-12.304255 -5.532330 2.847382 28.000000
-12.147797 -5.507930 2.815166 27.000000
-11.293591 -5.336045 2.869022 33.000000
-11.153586 -5.312819 2.837682 30.000000
-10.427600 -5.169501 2.889550 29.000000
-10.296705 -5.144974 2.857744 34.000000
-10.173007 -5.123165 2.827865 23.000000
-9.548648 -4.998281 2.880426 33.000000
-9.433776 -4.975968 2.850475 33.000000
-9.332787 -4.960243 2.824656 29.000000
14.458013 3.543304 2.869545 18.000000
14.511515 3.556314 2.880145 1.000000
14.275434 3.713065 2.843424 30.000000
14.446907 3.685156 2.874088 42.000000
14.565060 3.666599 2.895288 5.000000
