# This PCD file was generated using the MATLAB® pcwrite function
# from Computer Vision Toolbox®.
# .PCD v.7 - Point Cloud Data file format
VERSION .7
FIELDS x y z intensity
SIZE 4 4 4 4
TYPE F F F F
COUNT 1 1 1 1
WIDTH 1201
HEIGHT 1
VIEWPOINT 0 0 0 1 0 0 0
POINTS 1201
DATA ascii
-5.895845 -2.318823 -0.558181 27.000000
-5.770197 -2.311365 -0.547649 29.500000
-5.632732 -2.297471 -0.589538 30.250000
-5.478572 -2.284867 -0.575310 28.333334
-5.323104 -2.269347 -0.560865 26.250000
-5.197059 -2.259085 -0.573978 26.250000
-4.998830 -2.281184 -0.580929 38.750000
-11.023392 -2.112799 -0.597463 2.250000
-11.036290 -1.971840 -0.596772 3.000000
-11.035562 -1.828961 -0.595444 66.250000
-11.055941 -1.672031 -0.595210 94.199997
-11.077916 -1.515524 -0.595178 60.000000
-11.093111 -1.375840 -0.595018 64.250000
-11.108397 -1.209694 -0.594806 69.000000
-11.120617 -1.060995 -0.594646 69.500000
-11.098736 -0.912517 -0.592786 62.166664
-11.104465 -0.813514 -0.592680 63.500000
-11.129284 -0.745050 -0.593743 61.500000
-11.117649 -0.630335 -0.592750 22.416668
-11.190823 -0.455318 -0.596188 10.666667
-11.198194 -0.337036 -0.596358 8.200000
-11.206085 -0.212224 -0.596613 7.750000
-9.945219 -0.118040 -0.529425 47.000000
-9.605797 -0.000819 -0.511326 54.000000
-9.620637 0.127643 -0.512160 63.400002
-9.635674 0.264130 -0.513106 56.500000
-10.071470 0.355221 -0.536441 26.000000
-9.810864 0.376896 -0.522621 25.000000
-9.586142 0.398425 -0.510714 25.000000
-8.387740 0.507140 -0.593642 29.000000
-8.230807 0.523608 -0.582648 22.000000
-8.061912 0.538297 -0.570809 23.000000
-7.896986 0.552212 -0.559252 24.000000
-7.740015 0.565674 -0.548259 23.000000
-7.587016 0.578463 -0.537547 29.000000
-7.449924 0.591555 -0.527963 26.000000
-7.327671 0.605018 -0.583500 26.500000
-7.129104 0.622369 -0.567957 26.500000
-6.725339 0.661794 -0.595393 26.000000
-6.547751 0.675401 -0.579946 24.500000
-6.389994 0.689663 -0.566255 25.000000
-6.244131 0.703632 -0.553617 28.000000
-6.057583 0.721175 -0.537468 27.500000
-5.953248 0.730917 -0.599039 30.333334
-5.789721 0.744697 -0.565758 27.500000
-5.644685 0.759117 -0.568468 30.000000
-5.478642 0.774793 -0.584976 28.000000
-5.337905 0.789138 -0.570468 31.500000
-5.265944 0.871862 -0.564323 43.444443
-5.280402 1.028423 -0.568762 45.444443
-5.295480 1.178922 -0.573569 39.625000
-5.307605 1.322440 -0.578300 40.875000
-5.323013 1.469324 -0.583820 43.625000
-5.336281 1.618325 -0.589550 41.875000
-5.349616 1.770385 -0.595753 38.500000
-5.364582 1.930645 -0.555895 42.866665
-5.377053 2.074954 -0.558593 42.142857
-5.391145 2.227749 -0.565359 42.875000
-5.400206 2.387010 -0.569329 33.611111
-5.390707 2.458959 -0.522022 1.000000
-5.515480 3.443249 -0.572867 64.583336
-5.484235 3.558950 -0.576014 14.200000
-5.537656 3.731172 -0.588313 5.833333
-5.549373 3.880077 -0.596586 5.600000
3.218745 3.916790 -0.583654 57.933334
3.309547 3.914066 -0.578015 43.000000
3.115940 4.038908 -0.579326 29.722221
3.161041 3.983793 -0.576060 56.000000
3.383874 3.968998 -0.597327 9.500000
-5.629000 4.636855 -0.582196 30.736841
-5.592422 4.746164 -0.575060 61.333332
-5.633697 4.880060 -0.526554 4.000000
-6.082840 5.890486 -0.598199 7.500000
-6.002023 5.898170 -0.594487 9.000000
-5.935632 5.906631 -0.591575 9.000000
-5.768474 5.867875 -0.581309 29.250000
-5.697358 5.924570 -0.580675 19.000000
-5.728018 5.981697 -0.585091 79.000000
-5.747036 6.128632 -0.593548 35.333332
-12.969028 6.342172 -0.517261 7.000000
-12.816141 6.367535 -0.512749 4.000000
-12.668137 6.368639 -0.508023 7.000000
-12.547133 6.382001 -0.504370 7.500000
-12.422722 6.392636 -0.500575 8.000000
-5.860683 7.373171 -0.501359 33.000000
-5.871681 7.483207 -0.506320 33.666668
-5.882761 7.619707 -0.512415 33.500000
-5.894357 7.760054 -0.518723 34.666668
-5.909234 7.933792 -0.526590 34.000000
-5.919597 8.079281 -0.533146 35.000000
-5.934123 8.234107 -0.540269 33.333332
-5.951333 8.396125 -0.547817 33.500000
-5.960279 8.521725 -0.553557 33.000000
-5.973549 8.655984 -0.559830 35.000000
-5.989032 8.826056 -0.567768 35.000000
-6.001995 8.996292 -0.575670 36.000000
-6.015619 9.140598 -0.582474 40.500000
-6.027654 9.285431 -0.589278 35.500000
-6.048890 9.447582 -0.597145 35.000000
-6.320982 12.432433 -0.499716 26.000000
-6.332303 12.552163 -0.503726 26.000000
-6.351480 12.739294 -0.510028 25.000000
-6.369199 12.926836 -0.516330 26.000000
-6.372032 13.087895 -0.521558 40.000000
-6.401315 13.306893 -0.529077 5.000000
-6.477437 13.629375 -0.540678 5.500000
-6.479483 13.800848 -0.546264 4.000000
-6.483340 13.922605 -0.550274 3.000000
-6.503263 14.080807 -0.555717 3.000000
-6.508155 14.267672 -0.561876 32.000000
-6.467137 14.356510 -0.564167 18.000000
-6.527973 14.613999 -0.573477 24.000000
-6.540312 14.766011 -0.578633 22.000000
-6.558189 14.932885 -0.584362 24.000000
-6.575075 15.100018 -0.590091 26.000000
3.002414 15.087232 -0.551170 14.500000
-6.590983 15.267402 -0.595820 25.000000
-8.117908 25.888435 -0.501054 7.000000
-8.574492 26.187263 -0.508883 3.000000
11.034447 26.224167 -0.525427 43.500000
11.167285 26.194000 -0.525870 49.000000
11.305674 26.175920 -0.526572 50.500000
11.452131 26.175524 -0.527642 58.000000
11.601292 26.179726 -0.528824 53.500000
11.755630 26.194136 -0.530228 53.000000
11.900449 26.185740 -0.531188 57.000000
12.068851 26.227503 -0.533182 48.000000
10.910717 26.275923 -0.525427 44.000000
12.196633 26.287411 -0.535176 44.000000
10.496647 26.444059 -0.525427 45.000000
10.911831 26.513479 -0.529489 12.000000
10.649569 26.585442 -0.528898 32.000000
10.780998 26.670506 -0.531262 28.000000
-8.316103 26.815294 -0.518484 8.000000
9.961390 26.799686 -0.528012 47.000000
10.543797 26.808146 -0.532000 40.000000
-8.170676 26.943558 -0.519961 35.000000
10.964423 26.880909 -0.536136 19.000000
-8.036766 26.958729 -0.519518 36.000000
-7.911872 27.004019 -0.519666 23.000000
9.932412 26.980972 -0.530966 51.000000
10.402518 26.944754 -0.533403 19.000000
9.828296 27.091368 -0.532222 25.000000
10.232157 27.135994 -0.535582 45.000000
10.367821 27.108040 -0.535989 61.000000
-7.931571 27.389839 -0.526609 16.000000
10.786250 27.679573 -0.548618 49.000000
11.116538 27.751177 -0.552090 2.000000
11.322403 27.758549 -0.553641 16.000000
9.838010 28.077236 -0.549431 50.000000
9.982946 28.066322 -0.550132 53.500000
10.126636 28.050982 -0.550760 42.000000
10.235257 28.075390 -0.551868 8.000000
9.770724 28.168461 -0.550612 37.000000
14.181685 28.320148 -0.584919 50.000000
14.348433 28.319044 -0.586286 20.000000
14.070255 28.431509 -0.585843 50.000000
9.775693 28.471361 -0.555930 34.000000
14.019643 28.554550 -0.587468 2.000000
9.786574 28.797289 -0.561691 36.000000
9.791679 29.112192 -0.567230 39.000000
10.052561 30.201511 -0.587837 48.000000
9.987658 30.324110 -0.589610 49.000000
9.905972 30.397165 -0.590422 51.000000
9.861973 30.588003 -0.593524 52.000000
-5.216177 -26.319515 -0.495514 31.000000
-5.240273 -25.596642 -0.482515 39.000000
-5.561185 -24.418468 -0.462500 0.000000
-6.016603 -24.293783 -0.462204 1.000000
-5.451162 -24.287535 -0.459693 34.000000
-5.356213 -24.341383 -0.460284 150.333328
-5.908927 -24.184359 -0.459767 1.000000
-6.027663 -24.014868 -0.457256 1.000000
-5.499221 -23.800793 -0.451125 1.000000
-5.449858 -23.253839 -0.441081 3.000000
-5.562122 -23.079172 -0.438422 32.000000
-5.496067 -23.123766 -0.438939 183.000000
-5.615500 -21.934708 -0.418148 35.500000
-5.661788 -21.689379 -0.413975 29.000000
-5.679808 -21.482029 -0.410356 28.000000
-5.698651 -21.282509 -0.406884 28.000000
-5.714203 -21.075361 -0.403265 28.000000
-5.731682 -20.879900 -0.399868 28.000000
14.989684 -20.132196 -0.463534 23.000000
15.048061 -20.078606 -0.463386 43.000000
15.106249 -20.024845 -0.463238 46.000000
15.185875 -19.934332 -0.462795 50.500000
15.290052 -19.811615 -0.462167 53.000000
15.396994 -19.693094 -0.461650 48.000000
15.480973 -19.609352 -0.461392 46.000000
15.555731 -19.514275 -0.460875 53.500000
15.664221 -19.399035 -0.460469 58.500000
15.746642 -19.314175 -0.460210 58.000000
15.822203 -19.221212 -0.459767 58.000000
15.952106 -19.071783 -0.459176 60.000000
16.083315 -18.924604 -0.458659 62.000000
16.164536 -18.839512 -0.458437 62.000000
16.241323 -18.749512 -0.458105 55.000000
16.317677 -18.659237 -0.457773 55.000000
16.370934 -18.601877 -0.457625 57.000000
16.449093 -18.514038 -0.457366 56.000000
16.529499 -18.428900 -0.457182 57.000000
16.606747 -18.340401 -0.456923 54.000000
16.683563 -18.251629 -0.456665 56.000000
16.762581 -18.165443 -0.456480 54.500000
16.893293 -18.021044 -0.456172 50.333332
17.022404 -17.875286 -0.455852 53.500000
17.152033 -17.730471 -0.455582 55.333332
17.281454 -17.585737 -0.455335 55.500000
17.352888 -17.492769 -0.455040 54.000000
17.436516 -17.412199 -0.455077 55.500000
17.514135 -17.325636 -0.454966 54.000000
17.589848 -17.237293 -0.454818 55.500000
17.693495 -17.122263 -0.454708 58.500000
17.792055 -17.002464 -0.454486 60.500000
17.870552 -16.917076 -0.454449 65.000000
17.917786 -16.855368 -0.454301 59.000000
17.891768 -16.725254 -0.452307 21.000000
18.076761 -16.686604 -0.454326 67.000000
18.234219 -16.516384 -0.454351 62.666668
18.362907 -16.372261 -0.454338 59.500000
18.435387 -16.281591 -0.454228 58.000000
18.516399 -16.198467 -0.454338 62.000000
18.623861 -16.087036 -0.454486 60.500000
18.697969 -15.997812 -0.454449 62.000000
18.776173 -15.912091 -0.454523 54.500000
18.850973 -15.823453 -0.454523 90.000000
18.926853 -15.735695 -0.454560 77.500000
19.005440 -15.650173 -0.454671 35.000000
19.057610 -15.592920 -0.454745 52.000000
19.137074 -15.507951 -0.454892 54.000000
19.209959 -15.417620 -0.454892 32.000000
19.290203 -15.333128 -0.455077 48.000000
19.417873 -15.187273 -0.455262 43.666668
19.574959 -15.014946 -0.455606 37.333332
19.702957 -14.868811 -0.455852 62.500000
19.785639 -14.785400 -0.456148 31.000000
19.861500 -14.696736 -0.456296 50.000000
19.937014 -14.607722 -0.456443 60.000000
19.992506 -14.552077 -0.456665 60.000000
-6.554936 -12.260848 -0.498140 63.000000
4.131406 -12.329023 -0.465886 50.599998
4.233357 -12.298617 -0.466029 46.400002
-6.593423 -12.240194 -0.498140 0.000000
-6.740002 -12.054870 -0.494846 0.000000
-6.617678 -11.207720 -0.466344 10.500000
-6.660192 -11.119650 -0.464410 31.500000
-6.673892 -10.985340 -0.460543 30.500000
-6.686166 -10.851302 -0.456676 29.000000
-6.697847 -10.681628 -0.451735 29.000000
-6.713874 -10.522528 -0.447223 28.500000
-6.728401 -10.364991 -0.442759 28.333334
-6.739553 -10.205620 -0.438200 27.500000
-6.744595 -10.075058 -0.434404 29.500000
-7.144725 -9.961352 -0.439226 6.777778
-6.980310 -9.979917 -0.436362 8.000000
-6.784890 -9.898056 -0.429964 59.333332
-6.731589 -9.953738 -0.430537 34.000000
-7.188557 -9.768213 -0.434548 6.000000
-7.199046 -9.675914 -0.432113 6.000000
-7.211192 -9.586968 -0.429821 6.000000
-7.217883 -9.471549 -0.426670 7.000000
-7.249636 -9.013524 -0.414448 5.000000
-7.270571 -8.900469 -0.411775 4.500000
-6.854731 -8.878589 -0.401892 8.000000
-7.291100 -8.741850 -0.407860 7.333333
-7.302387 -8.589506 -0.403945 7.000000
-7.314965 -8.441746 -0.400221 7.666667
-3.423387 -6.084021 -0.460509 3.461539
-3.501974 -6.023699 -0.435613 8.200000
-7.205458 -5.285198 -0.475667 26.166666
-7.172251 -5.168980 -0.470600 27.666666
-7.221710 -5.101960 -0.470671 106.666664
-7.240371 -5.035939 -0.469466 6.000000
-13.521762 -3.233812 -0.498140 0.000000
-4.920624 -2.808950 -0.433272 0.666667
-10.970411 -2.684433 -0.404661 4.666667
-10.932255 -2.752888 -0.403926 93.599998
-4.943993 -2.716400 -0.446082 37.517242
-10.985579 -2.560501 -0.404160 0.833333
-8.958277 -2.595841 -0.496469 27.000000
-8.823589 -2.586886 -0.489452 26.000000
-8.685218 -2.575974 -0.482223 29.000000
-8.535524 -2.560781 -0.474356 24.000000
-4.961961 -2.561864 -0.454576 37.923077
-8.334270 -2.543163 -0.463832 26.000000
-8.133337 -2.523911 -0.453307 27.000000
-7.995790 -2.508792 -0.446078 26.000000
-7.881261 -2.500084 -0.440124 29.000000
-7.755458 -2.487018 -0.433533 26.000000
-7.586063 -2.472087 -0.424709 31.000000
-7.432115 -2.460814 -0.416736 28.000000
-11.004254 -2.431560 -0.403790 1.000000
-7.314496 -2.447397 -0.410570 27.000000
-7.157291 -2.432290 -0.402384 28.500000
-6.672616 -2.389087 -0.418311 29.000000
-6.515958 -2.375410 -0.429614 27.750000
-6.362863 -2.361219 -0.439952 30.333334
-4.974245 -2.422995 -0.439206 36.562500
-11.011454 -2.270376 -0.402837 1.000000
-6.227016 -2.348028 -0.412202 28.500000
-6.084683 -2.337981 -0.460500 28.666666
-5.900259 -2.320552 -0.447909 29.000000
-5.768887 -2.310843 -0.439030 28.000000
-5.630490 -2.296553 -0.429587 27.000000
-5.474814 -2.283290 -0.419063 26.333334
-5.331285 -2.272835 -0.409432 28.000000
-5.175504 -2.258428 -0.438256 25.200001
-5.003026 -2.283109 -0.436542 31.687500
-11.023449 -2.110837 -0.402143 2.000000
-11.039268 -1.970384 -0.401785 2.250000
-11.032585 -1.826490 -0.400675 68.250000
-11.045021 -1.668410 -0.400231 98.400002
-11.077839 -1.513542 -0.400603 69.750000
-11.088050 -1.373226 -0.400317 68.750000
-11.101450 -1.233468 -0.400209 72.750000
-11.111182 -1.102188 -0.400066 76.500000
-11.125076 -0.924426 -0.399983 65.000000
-11.128052 -0.743014 -0.399601 74.500000
-11.156383 -0.621710 -0.400353 15.750000
-11.184092 -0.464843 -0.401069 9.500000
-11.198041 -0.324522 -0.401391 5.250000
-11.206652 -0.219092 -0.401606 4.000000
-9.345420 0.417837 -0.497957 26.000000
-9.144572 0.437646 -0.487326 27.000000
-8.959651 0.457010 -0.477546 26.000000
-8.750770 0.473926 -0.466489 26.000000
-8.565798 0.490900 -0.456709 24.000000
-8.388783 0.507203 -0.447353 26.000000
-8.223711 0.523156 -0.438636 28.000000
-8.054637 0.537811 -0.429706 25.000000
-7.893522 0.551970 -0.421201 24.000000
-7.732401 0.565118 -0.412696 24.000000
-7.603138 0.579692 -0.405892 31.000000
-6.941031 0.639014 -0.431665 25.500000
-6.825721 0.650029 -0.424671 29.000000
-6.544867 0.675104 -0.464822 26.500000
-6.386898 0.689329 -0.453829 28.000000
-6.236876 0.702808 -0.443399 27.000000
-6.058006 0.721226 -0.430996 29.000000
-5.911985 0.732187 -0.420849 25.000000
-5.797663 0.745713 -0.412956 29.000000
-5.629088 0.763032 -0.434190 25.666666
-5.484787 0.775657 -0.439681 26.000000
-5.337805 0.789124 -0.428270 26.000000
-5.263632 0.871476 -0.423490 39.833332
-5.277108 1.027784 -0.426775 43.111111
-5.291556 1.178047 -0.430323 41.937500
-5.305979 1.322053 -0.434054 41.500000
-5.321038 1.473563 -0.435446 41.647060
-5.335329 1.622323 -0.445905 42.133335
-5.347221 1.769587 -0.447091 41.812500
-5.359363 1.916986 -0.413119 43.555557
-5.372540 2.073202 -0.406835 46.142857
-5.388852 2.226812 -0.411934 44.375000
-5.380404 2.342785 -0.414577 37.750000
-5.409834 2.426756 -0.418875 32.666668
-5.416286 2.470627 -0.420567 1.000000
-5.513560 3.449475 -0.459466 70.272728
-5.486912 3.568877 -0.443297 15.833333
-5.518870 3.663950 -0.410283 9.166667
3.230441 3.911751 -0.402719 64.187500
3.166186 3.997777 -0.404783 41.388889
-11.342688 5.176334 -0.446722 0.000000
-11.042567 5.229222 -0.437770 1.000000
-10.584730 5.279656 -0.423806 3.000000
-9.957048 5.690835 -0.410915 0.500000
-6.071665 5.879704 -0.449905 7.500000
-5.983551 5.898501 -0.447247 9.000000
-5.897071 5.905233 -0.444235 8.666667
-5.715424 5.897005 -0.437148 27.583334
-5.732604 5.980374 -0.440975 145.500000
-5.747745 6.129399 -0.447283 35.333332
-5.761159 6.280808 -0.453679 35.000000
-12.367092 6.413227 -0.499143 3.000000
-12.268939 6.411321 -0.495992 4.000000
-12.091199 6.439780 -0.490836 1.500000
-5.775172 6.436661 -0.460323 34.333332
-11.906733 6.462139 -0.485393 0.000000
-11.786799 6.469076 -0.481741 1.000000
-11.637661 6.482705 -0.477301 2.000000
-11.528606 6.493386 -0.474078 2.000000
-11.383463 6.506187 -0.469781 3.000000
-11.090374 6.478096 -0.460185 0.000000
-5.788163 6.574743 -0.466277 36.333332
-9.790458 6.666089 -0.424379 4.000000
-9.670539 6.673637 -0.420989 8.000000
-9.533283 6.690124 -0.417289 9.000000
-9.432409 6.708208 -0.414711 4.000000
-9.070443 6.733676 -0.404757 5.500000
-5.801657 6.716666 -0.472443 35.333332
-8.917316 6.751362 -0.400746 9.333333
-5.813843 6.860437 -0.478680 35.000000
-5.829791 7.012189 -0.485413 36.000000
-5.844223 7.165879 -0.492216 36.000000
-5.856794 7.273978 -0.497107 33.000000
-5.856371 7.320412 -0.499020 33.000000
-6.047609 9.449211 -0.401964 32.500000
-6.061738 9.603642 -0.406905 35.000000
-6.073084 9.756933 -0.411775 34.500000
-6.083700 9.877323 -0.415642 34.000000
-6.098398 10.006598 -0.419867 34.500000
-6.112610 10.173210 -0.425238 35.000000
-6.128016 10.345552 -0.430824 32.500000
-6.143933 10.484659 -0.435407 34.000000
-6.155190 10.579925 -0.438558 33.000000
-6.159912 10.664977 -0.441279 33.000000
-6.166142 10.753634 -0.444144 31.000000
-6.180415 10.897333 -0.448870 30.000000
-6.195678 11.085999 -0.455029 29.500000
-6.213048 11.241004 -0.460185 33.000000
-6.224163 11.387684 -0.464983 31.000000
-6.239877 11.545227 -0.470211 29.000000
-6.247039 11.645792 -0.473505 31.000000
-6.264115 11.811090 -0.479019 28.000000
-6.278080 11.973213 -0.484390 26.000000
-6.296941 12.148191 -0.490263 25.500000
-6.316257 12.327132 -0.496278 25.000000
-7.074361 20.510555 -0.400680 21.000000
-7.101637 20.801401 -0.405924 21.000000
-7.136116 21.119139 -0.411685 22.000000
-7.168658 21.437300 -0.417446 19.000000
-4.977451 22.032917 -0.417151 21.000000
-9.507380 24.074255 -0.478010 9.000000
-9.375694 24.072170 -0.477087 8.500000
2.928051 24.231573 -0.450756 0.000000
3.033181 24.146055 -0.449427 7.500000
3.191726 24.178055 -0.450387 17.500000
-5.598852 24.426271 -0.462795 12.000000
-5.444396 24.457066 -0.462721 54.000000
-5.325684 24.466787 -0.462426 48.500000
-5.209497 24.487732 -0.462352 30.000000
-9.293080 24.658480 -0.486651 1.000000
-9.284105 24.871143 -0.490270 1.000000
-5.248138 25.055906 -0.472766 0.000000
-5.752277 -20.699953 -0.396766 28.000000
-5.768551 -20.508532 -0.393442 28.000000
-5.785869 -20.324907 -0.390266 27.000000
-5.804305 -20.149069 -0.387238 30.000000
-5.820569 -19.969473 -0.384136 31.000000
-5.835767 -19.789976 -0.381034 29.000000
-5.854468 -19.625912 -0.378228 26.000000
-5.869887 -19.454269 -0.375273 30.000000
-5.886619 -19.290377 -0.372467 32.000000
-5.904734 -19.134214 -0.369808 30.000000
-5.917166 -18.962858 -0.366853 28.000000
-5.937003 -18.818312 -0.364416 34.000000
-5.948699 -18.650970 -0.361536 34.000000
-6.311925 -18.383263 -0.358951 5.000000
-6.213071 -18.376781 -0.358249 5.000000
-5.939766 -18.422838 -0.357473 32.000000
3.499341 -18.431557 -0.346469 0.000000
-6.067381 -18.324314 -0.356476 15.500000
-5.974066 -18.331841 -0.356070 255.000000
-5.980391 -17.241137 -0.337015 0.000000
-6.165337 -17.078110 -0.335316 1.000000
-6.064929 -17.136587 -0.335710 98.666664
-6.231153 -16.525208 -0.326158 2.500000
-6.208977 -16.234194 -0.320987 2.000000
-6.191361 -15.962384 -0.316187 35.000000
-6.218248 -15.810220 -0.313749 32.000000
-6.232604 -15.630301 -0.310758 32.000000
-6.250072 -15.461699 -0.307988 31.000000
-8.466715 -15.312074 -0.323129 0.000000
-8.334941 -15.299999 -0.321763 0.000000
-6.260855 -15.349409 -0.306142 32.000000
-6.275739 -15.181149 -0.303372 32.000000
-6.287796 -15.009380 -0.300529 30.000000
-6.871204 -8.728753 -0.398025 61.599998
-7.328184 -8.271565 -0.395948 7.750000
-7.332896 -8.146865 -0.392726 7.000000
-6.974594 -7.675908 -0.371600 11.500000
-6.986185 -7.544516 -0.368413 33.000000
-7.006100 -7.377882 -0.364546 33.000000
-7.021562 -7.210507 -0.360607 34.750000
-7.035377 -7.067457 -0.357301 36.000000
-7.047984 -6.926175 -0.354055 39.250000
-7.059514 -6.765128 -0.350331 36.500000
-7.056308 -6.826109 -0.351763 37.000000
-7.062345 -6.704258 -0.348899 36.000000
-7.078897 -6.615177 -0.347144 35.500000
-7.090037 -6.480961 -0.344172 34.333332
-7.110161 -6.317159 -0.340782 59.833332
-7.214711 -5.769742 -0.330995 0.000000
-7.200166 -5.284048 -0.319996 25.200001
-7.167890 -5.163937 -0.316529 32.333332
-7.219486 -5.098486 -0.316673 110.000000
-7.246861 -5.038556 -0.316243 5.333333
-10.327189 -2.711211 -0.382557 10.000000
-10.179545 -2.706666 -0.377401 25.000000
-9.974133 -2.685624 -0.370096 27.000000
-9.799809 -2.671736 -0.363937 28.000000
-9.621820 -2.655711 -0.357635 29.000000
-9.463281 -2.643974 -0.352050 27.000000
-9.281830 -2.624744 -0.345604 25.000000
-9.123656 -2.610996 -0.340019 27.000000
-8.965659 -2.596284 -0.334433 25.000000
-8.815522 -2.582850 -0.329133 26.000000
-8.665557 -2.568498 -0.323834 26.000000
-4.952693 -2.617910 -0.395761 37.666668
-9.675932 -2.491569 -0.357993 1.500000
-8.515770 -2.553234 -0.318535 26.000000
-8.392945 -2.545171 -0.314238 26.000000
-8.187973 -2.525100 -0.307005 27.000000
-7.987154 -2.504552 -0.299915 28.000000
-7.011695 -2.419797 -0.394836 27.000000
-6.862637 -2.404535 -0.387076 28.500000
-6.297585 -2.352064 -0.357840 28.000000
-19.625536 -1.031969 -0.362939 17.000000
-19.618172 -0.938908 -0.362717 8.000000
-11.064652 -0.896071 -0.397739 69.000000
-19.614412 -0.846090 -0.362570 1.000000
-11.101236 -0.811324 -0.398813 75.000000
-11.071702 -0.617065 -0.397309 41.000000
-19.645981 -0.322354 -0.362865 23.000000
-19.649620 -0.198911 -0.362902 32.000000
-19.664360 -0.106398 -0.363160 34.000000
-9.838210 -0.125367 -0.352527 18.666666
-19.666618 -0.013732 -0.363197 29.000000
-9.600120 -0.021770 -0.343972 52.400002
-9.605590 0.068738 -0.344172 61.000000
-9.617684 0.144391 -0.344638 59.750000
-9.629096 0.265631 -0.345139 56.000000
-10.031260 0.355556 -0.359641 27.000000
-9.802408 0.378285 -0.351477 26.000000
-9.561535 0.399074 -0.342883 28.000000
-9.344588 0.419434 -0.335149 26.000000
-9.143584 0.439198 -0.327988 27.000000
-8.938556 0.457498 -0.320683 25.000000
-8.753464 0.475604 -0.314095 25.000000
-8.556376 0.491858 -0.307077 26.000000
-8.367252 0.507367 -0.300345 25.000000
-7.453952 0.591875 -0.398026 24.000000
-7.324671 0.604770 -0.391222 25.000000
-7.132726 0.622693 -0.381122 26.500000
-6.679121 0.664241 -0.396455 26.000000
-5.400304 2.463337 -0.315954 2.000000
-5.891074 3.464570 -0.363794 0.000000
-5.530233 3.815051 -0.357628 0.000000
3.324825 3.905978 -0.384791 30.500000
-5.623729 4.640478 -0.388112 30.750000
-5.586828 4.748137 -0.390286 63.799999
-5.627677 4.874846 -0.396325 7.000000
-9.539435 5.048625 -0.386710 4.666667
-9.438161 5.096821 -0.384323 7.000000
-8.731543 5.063532 -0.361646 2.000000
-8.640985 5.083835 -0.359211 0.000000
-8.485066 5.082072 -0.354377 3.750000
-8.347268 5.107171 -0.350617 2.000000
-9.444128 5.183393 -0.385994 3.000000
-9.460264 5.269862 -0.387999 2.500000
-9.496532 5.368598 -0.390864 1.500000
-8.459553 5.643951 -0.364367 0.000000
-8.379059 5.653888 -0.362171 1.000000
-8.005322 5.769355 -0.353553 2.000000
-7.920494 5.784172 -0.351405 7.000000
-7.802064 5.773177 -0.347753 1.000000
-6.172452 5.917103 -0.306360 2.000000
-6.076666 5.898893 -0.303439 9.000000
-5.935218 5.908144 -0.300058 8.800000
-5.743829 6.127367 -0.300918 35.666668
-5.757092 6.278567 -0.305215 35.500000
-5.771394 6.434716 -0.309702 35.333332
-5.783572 6.571834 -0.313665 34.666668
-5.793651 6.709764 -0.317628 34.333332
-8.814440 6.761115 -0.398025 9.000000
-8.362332 6.798305 -0.386137 2.000000
-8.331650 6.816950 -0.385708 1.000000
-5.804232 6.851501 -0.321733 34.000000
-5.822615 7.028575 -0.327021 36.250000
-5.838797 7.184699 -0.331711 35.000000
-5.847326 7.288277 -0.334791 35.500000
-5.858954 7.373639 -0.337440 37.000000
-5.862579 7.474295 -0.340353 36.333332
-5.879872 7.618719 -0.344817 34.000000
-5.888816 7.730236 -0.348182 36.500000
-5.895691 7.815331 -0.350761 35.000000
-5.905254 7.931345 -0.354293 37.666668
-5.919219 8.081729 -0.358924 35.000000
-5.933381 8.236107 -0.363699 34.000000
-5.946384 8.392241 -0.368521 35.000000
-5.959957 8.524448 -0.372674 34.500000
-5.970981 8.655499 -0.376756 33.500000
-5.986128 8.825115 -0.382079 30.666666
-6.001742 8.999310 -0.387570 31.000000
-6.017575 9.147051 -0.392296 33.000000
-6.031785 9.295341 -0.397023 34.500000
-6.551630 14.917951 -0.300898 23.000000
-6.568594 15.085133 -0.303852 23.000000
-6.582993 15.248892 -0.306733 21.000000
-6.599573 15.420241 -0.309761 20.000000
-6.613573 15.588168 -0.312715 23.000000
-6.629690 15.763700 -0.315817 24.000000
-6.646300 15.943183 -0.318993 24.000000
-6.664910 16.130314 -0.322317 23.000000
-6.680893 16.314014 -0.325567 27.000000
-6.704803 16.520214 -0.329260 26.000000
-6.699694 16.733538 -0.332879 51.500000
-6.760346 17.118313 -0.339895 0.000000
-6.907080 17.816742 -0.352894 1.000000
-6.833021 17.875223 -0.353411 124.000000
-6.779759 17.989574 -0.355036 14.000000
2.801080 18.135811 -0.338898 63.500000
2.915943 18.123774 -0.339009 117.000000
3.061083 18.117363 -0.339329 117.333336
3.207577 18.117085 -0.339784 111.500000
-7.127418 19.093605 -0.376381 1.000000
-7.010796 19.085588 -0.375495 22.000000
-6.928059 19.107296 -0.375347 120.000000
-6.950438 19.358572 -0.379852 25.000000
-6.987382 19.655396 -0.385244 23.000000
-7.015881 19.933781 -0.390266 22.000000
-7.045339 20.220087 -0.395436 21.000000
-6.302224 -14.912191 -0.298978 31.000000
-6.312968 -14.807703 -0.297279 30.000000
-6.319954 -14.695949 -0.295433 30.000000
-6.331079 -14.595303 -0.293808 31.000000
-6.344222 -14.438992 -0.291260 30.500000
-6.398843 -13.848518 -0.281732 30.000000
-6.395464 -13.671487 -0.278741 31.000000
-6.554575 -13.564837 -0.278224 7.000000
-6.411885 -13.539974 -0.276673 69.500000
-6.444512 -13.444709 -0.275343 212.000000
-6.479069 -12.430391 -0.258873 10.666667
-6.536248 -12.318952 -0.257543 105.333336
4.134106 -12.337110 -0.240290 53.799999
4.232763 -12.296844 -0.240172 54.400002
-6.596529 -12.245962 -0.256879 0.000000
-6.611659 -11.197496 -0.240150 16.500000
-6.658195 -11.116310 -0.239300 32.500000
-6.666653 -10.973425 -0.237122 29.000000
-6.678825 -10.839390 -0.235127 30.000000
-6.696764 -10.679877 -0.232801 30.333334
-6.713808 -10.522429 -0.230511 29.000000
-6.722223 -10.391052 -0.228554 29.000000
-6.737249 -10.237162 -0.226326 29.000000
-6.738862 -10.066519 -0.223716 30.500000
-6.982834 -9.983525 -0.224996 8.666667
-7.145969 -9.948513 -0.226213 7.000000
-6.786592 -9.900511 -0.221673 69.333336
-6.732520 -9.955115 -0.221944 61.000000
-7.179720 -9.766909 -0.223864 7.000000
-7.196741 -9.662275 -0.222498 7.000000
-7.207377 -9.581898 -0.221427 7.000000
-7.212389 -9.464353 -0.219753 7.000000
-7.248592 -9.002534 -0.213450 6.500000
-7.264747 -8.879154 -0.211869 5.200000
-6.850628 -8.873274 -0.207024 10.000000
-7.289422 -8.739819 -0.210176 8.000000
-6.871980 -8.729714 -0.205178 77.000000
-7.292872 -8.578320 -0.207935 7.333333
-7.309668 -8.435658 -0.206138 8.000000
-7.325319 -8.294441 -0.204365 8.000000
-7.330186 -8.169668 -0.202704 8.000000
-11.940794 -7.380470 -0.259242 4.000000
-11.800711 -7.371042 -0.256952 3.000000
-11.324139 -7.323114 -0.249050 3.000000
-11.227549 -7.335922 -0.247683 2.000000
-10.172064 -6.691925 -0.224861 0.000000
-10.095446 -6.709937 -0.223864 0.000000
-10.051047 -6.726052 -0.223347 0.000000
-9.071014 -6.731840 -0.208612 0.500000
-10.538474 -6.628727 -0.229920 0.000000
-10.379074 -6.574060 -0.226892 0.000000
-10.491290 -6.416481 -0.227114 1.000000
-10.864875 -6.184674 -0.230881 1.666667
-10.756581 -6.212817 -0.229403 4.000000
-3.428074 -6.086471 -0.250287 4.333333
-3.501639 -6.025641 -0.249704 9.142858
-9.487286 -5.539503 -0.202888 3.000000
-13.830171 -3.261667 -0.262418 0.000000
-13.532022 -3.236266 -0.256952 0.000000
-4.920059 -2.809539 -0.262080 1.200000
-10.972993 -2.685053 -0.208625 14.666667
-10.933523 -2.753223 -0.208221 104.800003
-4.935086 -2.715999 -0.252436 36.290321
-10.985791 -2.572670 -0.208372 0.250000
-4.950995 -2.590259 -0.264985 36.555557
-7.868741 -2.494601 -0.295762 28.000000
-7.750471 -2.483927 -0.291608 26.000000
-7.584761 -2.470199 -0.285808 28.000000
-4.959278 -2.555032 -0.264505 37.333332
-10.998758 -2.442425 -0.208071 0.333333
-7.411728 -2.452628 -0.279720 30.000000
-7.265593 -2.442230 -0.274636 29.500000
-7.112121 -2.428092 -0.269265 28.000000
-6.991089 -2.411320 -0.264968 28.000000
-6.851390 -2.399242 -0.260098 29.000000
-6.670542 -2.383081 -0.253797 29.000000
-6.538968 -2.370947 -0.249213 29.000000
-6.409561 -2.358195 -0.244702 30.000000
-4.970682 -2.421256 -0.294320 35.750000
-11.013830 -2.270859 -0.207680 1.625000
-6.252386 -2.345087 -0.239259 29.500000
-6.090279 -2.335047 -0.279241 27.600000
-5.921206 -2.321800 -0.294370 28.400000
-5.754339 -2.304432 -0.276047 27.500000
-5.626894 -2.294522 -0.270637 28.500000
-5.482264 -2.281933 -0.274679 27.799999
-5.335637 -2.268038 -0.247972 26.600000
-4.997773 -2.280720 -0.292433 30.750000
-5.178989 -2.255533 -0.251559 25.666666
-11.021773 -2.110495 -0.207246 2.000000
-11.039729 -1.974035 -0.207113 2.000000
-11.035954 -1.829606 -0.206592 76.857140
-11.043106 -1.668126 -0.206256 100.199997
-11.068197 -1.512230 -0.206304 81.250000
-11.083351 -1.372640 -0.206249 95.000000
-11.095749 -1.232830 -0.206175 147.750000
-11.104668 -1.110356 -0.206101 173.000000
-11.113618 -1.052502 -0.206163 160.000000
-11.094776 -0.910239 -0.205584 124.000000
-11.094500 -0.810837 -0.205436 92.000000
-11.127309 -0.742967 -0.205953 112.500000
-11.110294 -0.619175 -0.205501 35.000000
-11.178328 -0.482183 -0.206630 6.000000
-11.195183 -0.306843 -0.206827 5.666667
-11.207512 -0.183872 -0.207006 2.250000
-11.215220 -0.060655 -0.207123 1.333333
-8.202055 0.523216 -0.294473 27.000000
-8.036842 0.538032 -0.288600 26.000000
-7.895544 0.553496 -0.283588 28.000000
-7.758217 0.568366 -0.278718 24.000000
-7.604932 0.581164 -0.273275 25.000000
-7.447660 0.592683 -0.267689 26.000000
-7.310311 0.604869 -0.262820 25.000000
-7.184909 0.617228 -0.258380 27.000000
-6.994809 0.634021 -0.251648 28.000000
-6.824610 0.651125 -0.245633 27.000000
-6.731033 0.663541 -0.242338 29.000000
-6.537630 0.678609 -0.273425 27.000000
-6.394193 0.690682 -0.286315 27.000000
-6.247921 0.704599 -0.279945 26.750000
-6.064817 0.722580 -0.271956 27.250000
-5.934446 0.735495 -0.266245 27.500000
-5.806076 0.747318 -0.260623 26.500000
-5.643860 0.762518 -0.253524 28.250000
-5.473701 0.774094 -0.294267 26.000000
-5.338334 0.789191 -0.287250 27.000000
-5.254763 0.824767 -0.283140 36.333332
-5.261637 0.893777 -0.284096 37.666668
-5.271827 1.026771 -0.285904 40.222221
-5.288224 1.177304 -0.288393 39.125000
-5.298149 1.320085 -0.290652 40.125000
-5.315268 1.476207 -0.293652 43.888889
-5.328435 1.641798 -0.277352 42.500000
-5.340380 1.772213 -0.247334 41.933334
-5.353667 1.922832 -0.253335 42.812500
-5.368802 2.077468 -0.259729 42.400002
-5.382591 2.229398 -0.256100 43.133335
-5.383986 2.375336 -0.262060 36.214287
-5.428598 2.508430 -0.214266 1.500000
-5.446680 2.667163 -0.217298 0.000000
-5.460959 2.810187 -0.220052 0.000000
-5.476831 2.905956 -0.222144 0.000000
-5.719499 3.340867 -0.237326 0.000000
-5.508112 3.439327 -0.289189 62.833332
-5.950151 3.500711 -0.247351 8.000000
-5.471993 3.546251 -0.284016 19.444445
-5.524500 3.679564 -0.237827 6.750000
3.234222 3.916357 -0.270373 68.000000
3.323679 3.902532 -0.272863 23.000000
3.136835 4.012079 -0.271091 2.000000
3.174448 3.989646 -0.271395 51.142857
-5.618782 4.638062 -0.261047 26.375000
-6.066703 4.714305 -0.275280 4.000000
-5.954253 4.656995 -0.270840 0.000000
-5.582407 4.746048 -0.262533 66.000000
-5.625136 4.874363 -0.266687 9.000000
-5.713280 5.896796 -0.294186 29.500000
-5.724945 5.974444 -0.296478 146.000000
-13.295134 6.321526 -0.271872 0.000000
-13.151686 6.329422 -0.269545 0.000000
-13.026428 6.344970 -0.267588 0.000000
-12.903128 6.360250 -0.265668 0.000000
-12.677691 6.373305 -0.262049 0.000000
-12.530526 6.398405 -0.259833 0.000000
-12.395430 6.403170 -0.257654 0.000000
-12.239861 6.420528 -0.255254 0.000000
-12.079243 6.433420 -0.252743 0.000000
-11.934805 6.453070 -0.250564 0.000000
-11.783587 6.467316 -0.248237 0.000000
-11.643141 6.485765 -0.246132 0.000000
-11.492496 6.496789 -0.243806 0.000000
-11.392299 6.511238 -0.242329 0.000000
-11.009998 6.547587 -0.236568 0.000000
-10.876173 6.560874 -0.234573 0.000000
-10.790489 6.578789 -0.233392 0.000000
-6.005960 9.036271 -0.200377 33.000000
-6.016014 9.144677 -0.202150 35.000000
-6.029187 9.291332 -0.204550 35.000000
-6.042910 9.441875 -0.207024 33.500000
-6.059249 9.599716 -0.209646 33.000000
-6.069605 9.751345 -0.212121 34.000000
-6.082490 9.910287 -0.214743 31.500000
-6.099088 10.043084 -0.216995 32.000000
-6.109310 10.167719 -0.219063 32.500000
-6.123777 10.338379 -0.221907 33.500000
-6.134696 10.468896 -0.224086 34.000000
-6.148407 10.606701 -0.226412 32.500000
-6.165961 10.792706 -0.229551 33.000000
-6.178060 10.933042 -0.231915 34.000000
-6.188841 11.073767 -0.234278 33.500000
-6.204367 11.225298 -0.236863 33.000000
-6.221341 11.382522 -0.239559 34.000000
-6.233309 11.533074 -0.242107 33.000000
-6.246671 11.689324 -0.244766 30.500000
-6.264462 11.856515 -0.247646 29.000000
-6.271751 11.961145 -0.249419 30.000000
-6.286096 12.127290 -0.252262 27.000000
-6.304643 12.304465 -0.255328 27.000000
-6.314897 12.420465 -0.257322 28.000000
-6.324479 12.536653 -0.259316 25.000000
-6.342871 12.722033 -0.262529 26.000000
-6.358059 12.904226 -0.265668 26.000000
-6.370180 13.031927 -0.267883 26.000000
-6.357351 13.162641 -0.269951 36.000000
-6.471900 13.617739 -0.278445 6.000000
-6.487635 13.818211 -0.281916 5.000000
-6.499901 13.958168 -0.284354 5.000000
-6.513035 14.101964 -0.286865 4.000000
-6.515385 14.283484 -0.289930 34.500000
-6.445545 14.308577 -0.289819 36.000000
-6.522892 14.602625 -0.295359 23.000000
-6.535295 14.754684 -0.298018 21.000000
-6.973301 -7.650316 -0.191169 17.333334
-6.992513 -7.527565 -0.189742 35.666668
-7.003199 -7.374839 -0.187821 31.000000
-7.017996 -7.229460 -0.186073 35.333332
-7.031281 -7.085629 -0.184350 37.750000
-7.046309 -6.924536 -0.182448 35.750000
-7.053883 -6.823763 -0.181248 37.000000
-7.062826 -6.747088 -0.180386 37.666668
-7.075649 -6.612158 -0.178847 37.500000
-7.087473 -6.478617 -0.177333 33.666668
-7.296396 -6.340425 -0.178515 6.000000
-7.109037 -6.316139 -0.175622 66.666664
-3.424800 -6.080616 -0.128882 6.333333
-3.505292 -6.031941 -0.128840 9.000000
-7.173148 -5.755006 -0.169837 0.500000
-7.200941 -5.385048 -0.166058 0.000000
-7.198396 -5.282756 -0.164896 27.400000
-7.173433 -5.167925 -0.163276 42.000000
-7.225063 -5.102429 -0.163350 112.333336
-7.247445 -4.983004 -0.162429 2.600000
-7.262052 -4.853169 -0.161306 0.000000
-7.271573 -4.665509 -0.159555 0.000000
-7.291986 -4.523047 -0.158470 0.000000
-7.301722 -4.371827 -0.157170 0.000000
-7.311220 -4.253562 -0.156210 0.000000
-4.922325 -2.812219 -0.104694 0.500000
-10.320450 -2.709442 -0.197054 12.000000
-10.161150 -2.701775 -0.194173 26.000000
-9.974971 -2.685850 -0.190776 26.000000
-9.800568 -2.671943 -0.187600 25.000000
-9.630208 -2.658026 -0.184498 24.000000
-4.933743 -2.712251 -0.103977 36.466667
-9.448481 -2.639838 -0.181174 24.000000
-9.286203 -2.625981 -0.178220 26.000000
-9.120264 -2.610025 -0.175191 25.000000
-8.962200 -2.595282 -0.172311 25.000000
-8.815837 -2.582942 -0.169652 25.000000
-8.669640 -2.569708 -0.166993 26.000000
-4.950610 -2.562310 -0.122284 39.500000
-9.680496 -2.492725 -0.184608 2.500000
-8.515951 -2.553288 -0.164187 27.000000
-8.329786 -2.540219 -0.160826 26.000000
-8.128624 -2.520894 -0.157170 26.000000
-7.990917 -2.505732 -0.154659 25.000000
-7.868637 -2.494568 -0.152443 28.000000
-7.750314 -2.483877 -0.150301 27.000000
-7.571219 -2.465798 -0.147052 28.000000
-4.958744 -2.511367 -0.199156 39.000000
-4.955051 -2.460786 -0.198225 43.000000
-7.411423 -2.452527 -0.144171 31.000000
-7.305066 -2.442824 -0.142251 27.000000
-7.145804 -2.426979 -0.139370 29.000000
-6.990602 -2.411152 -0.136564 29.000000
-6.856504 -2.401037 -0.134163 30.500000
-6.673689 -2.384192 -0.130877 27.000000
-6.545809 -2.373427 -0.128587 28.000000
-6.414458 -2.359994 -0.126224 30.000000
-4.968421 -2.415865 -0.146781 39.200001
-6.294595 -2.349696 -0.124082 28.000000
-6.227304 -2.346895 -0.122900 30.000000
-6.100385 -2.331883 -0.120610 28.000000
-5.960767 -2.321552 -0.118136 29.000000
-5.786951 -2.306278 -0.115046 29.000000
-5.616184 -2.289585 -0.112006 27.000000
-5.470686 -2.280475 -0.109458 28.666666
-5.327499 -2.270132 -0.106947 28.000000
-5.183632 -2.257012 -0.104411 25.000000
-4.999806 -2.280590 -0.149182 33.500000
-0.475960 -0.110652 -0.132390 12.476191
-0.454186 -0.116446 -0.135166 11.750000
0.499874 -0.100429 -0.137199 2.000000
-10.000907 0.029691 -0.184695 35.333332
-0.479391 -0.028416 -0.130817 23.328054
-0.442340 0.028003 -0.127922 8.961538
0.427624 0.033177 -0.124198 10.500000
0.480531 -0.021104 -0.128689 27.333931
-9.994040 0.071518 -0.184571 61.000000
-0.483277 0.131779 -0.135147 12.148620
-0.445543 0.060730 -0.129626 4.900000
0.422780 0.070430 -0.123579 9.583333
0.475307 0.131920 -0.129501 11.911505
-9.644212 0.144622 -0.178127 74.000000
-9.618642 0.265326 -0.177703 73.250000
-0.492078 0.275001 -0.144225 8.078571
-0.165130 0.342808 -0.109684 1.000000
0.439336 0.301710 -0.153631 2.000000
0.478169 0.274321 -0.138140 8.755039
-10.039983 0.355865 -0.185532 27.000000
-9.787045 0.377692 -0.180879 28.000000
-9.578027 0.399763 -0.177038 27.000000
-9.348991 0.419632 -0.172828 27.000000
-9.139902 0.439021 -0.168987 26.000000
-0.487310 0.401705 -0.141553 50.905510
-0.383092 0.417045 -0.142715 6.945179
-0.233832 0.417599 -0.130197 4.298077
0.040655 0.442425 -0.112125 17.703125
0.222928 0.434487 -0.132891 6.561702
0.366279 0.436559 -0.139056 7.176991
0.471081 0.410773 -0.138462 44.513512
-8.954750 0.458327 -0.165590 22.000000
-8.745607 0.475177 -0.161749 23.000000
-8.556414 0.491860 -0.158278 26.000000
-8.379178 0.508090 -0.155028 26.000000
-8.205919 0.523462 -0.151852 28.000000
-8.036638 0.538018 -0.148750 25.000000
-0.042801 0.450594 -0.102411 21.275986
-7.883306 0.552638 -0.145944 27.000000
-7.737940 0.566880 -0.143285 29.000000
-7.604527 0.581133 -0.140847 27.000000
-7.467115 0.594232 -0.138336 30.000000
-7.274935 0.613371 -0.134828 27.500000
-7.086730 0.631226 -0.131394 26.000000
-6.953292 0.641367 -0.128956 28.000000
-0.480059 0.548332 -0.132978 22.478260
-0.383577 0.567620 -0.142437 11.878505
-0.229630 0.569316 -0.139819 8.550186
-0.095390 0.563921 -0.136237 24.528776
0.074971 0.569509 -0.137997 34.289116
0.212523 0.584684 -0.139647 17.017921
0.369589 0.586468 -0.136176 15.037190
0.459271 0.560240 -0.125701 22.207546
-6.839769 0.652571 -0.126888 28.000000
-6.673462 0.668364 -0.123860 29.000000
-6.507161 0.682781 -0.120832 29.000000
-6.409556 0.692906 -0.119059 27.000000
-6.263152 0.706895 -0.116400 28.000000
-6.081871 0.725147 -0.113114 30.000000
-5.908548 0.742170 -0.109975 29.500000
-0.491809 0.720116 -0.122108 19.564102
-0.103461 0.732422 -0.110462 59.117924
0.067354 0.734417 -0.107688 55.506218
0.459106 0.677980 -0.116594 4.500000
-5.789978 0.755069 -0.107833 32.000000
-5.659533 0.765136 -0.105469 29.000000
-5.498888 0.778635 -0.150661 29.750000
-5.357428 0.792979 -0.146934 28.000000
-0.398640 0.745336 -0.130139 12.026470
-0.226648 0.753161 -0.138455 27.750000
0.216251 0.765301 -0.134564 29.344482
0.329646 0.755230 -0.130753 15.506024
0.346588 0.803992 -0.139164 20.666666
-5.262305 0.872176 -0.140558 38.272728
-5.252757 0.870565 -0.151196 42.571430
-0.478007 0.925395 -0.120216 27.181818
-0.369388 0.868664 -0.131299 17.571428
-0.242123 0.893448 -0.129126 43.811111
0.234883 0.860469 -0.125892 13.275862
-5.270213 1.027392 -0.145764 42.555557
-0.489589 1.040056 -0.132890 32.564102
-0.096630 0.972256 -0.107671 47.750000
0.075143 1.025561 -0.121414 81.733330
-0.381473 1.047203 -0.129925 25.356644
-0.233433 1.051470 -0.125524 48.786259
0.213112 1.063087 -0.132264 40.837437
0.319105 1.092647 -0.135461 34.200001
-5.284087 1.177352 -0.146975 41.812500
-0.515363 1.235647 -0.117955 1.000000
-5.297685 1.320963 -0.148236 40.062500
-0.521451 1.279994 -0.121773 1.625000
-5.311603 1.476175 -0.149652 42.277779
-5.325987 1.623974 -0.139951 40.692307
-5.341088 1.777874 -0.103961 41.428570
-5.353856 1.923439 -0.105063 39.125000
-5.366520 2.071979 -0.106240 41.285713
-5.379734 2.224107 -0.107510 40.875000
-5.384217 2.376001 -0.108688 37.000000
-5.420987 2.527412 -0.110461 5.750000
-5.430879 2.677149 -0.111821 3.166667
-5.445527 2.824075 -0.113288 3.142857
-5.458687 2.973832 -0.114800 3.000000
-5.472476 3.127939 -0.116410 3.125000
-5.497164 3.268030 -0.118107 3.444444
-5.502415 3.426391 -0.119709 26.400000
-5.477740 3.543811 -0.120487 71.500000
-5.522136 3.722109 -0.122986 6.166667
-5.535161 3.871572 -0.124746 4.000000
3.233482 3.914112 -0.137823 67.285713
3.317077 3.901632 -0.150115 44.250000
-5.546784 3.984342 -0.126125 4.000000
3.177470 3.992277 -0.135913 38.529411
-5.558407 4.059224 -0.127110 4.000000
-5.564390 4.172003 -0.128439 4.333333
-5.572996 4.330826 -0.130345 4.600000
-5.585273 4.468374 -0.132095 4.500000
-5.608856 4.618862 -0.134185 19.400000
-5.578970 4.743071 -0.135234 73.400002
-5.629472 4.924900 -0.138133 6.750000
-5.643795 5.064023 -0.140035 5.000000
-5.656805 5.221990 -0.142177 5.000000
-5.677443 5.391618 -0.144596 4.500000
-5.685546 5.519388 -0.146338 4.666667
-5.699461 5.655999 -0.148289 4.250000
-5.706370 5.752370 -0.149637 7.000000
-5.709646 5.893173 -0.151538 29.416668
-5.726279 5.975796 -0.152849 145.000000
-5.739238 6.122476 -0.154979 39.000000
-5.751026 6.271940 -0.157152 38.000000
-5.767889 6.430795 -0.159534 37.000000
-5.774847 6.561921 -0.161429 35.333332
-5.790276 6.705867 -0.163620 35.000000
-5.806215 6.875845 -0.166199 36.000000
-5.822237 7.050505 -0.168864 37.333332
-5.830205 7.174111 -0.170723 37.500000
-5.844803 7.308723 -0.172828 35.666668
-5.851587 7.436093 -0.174748 38.500000
-5.865680 7.526665 -0.176226 37.000000
-5.872638 7.634198 -0.177875 38.666668
-5.888981 7.781053 -0.180214 37.500000
-5.900868 7.925460 -0.182479 37.666668
-5.912550 8.072635 -0.184793 37.500000
-5.927597 8.228094 -0.187280 37.666668
-5.943408 8.388035 -0.189852 36.000000
-5.954752 8.516987 -0.191920 38.000000
-5.966975 8.649704 -0.194062 34.500000
-5.982965 8.820445 -0.196832 33.666668
-5.994281 8.957531 -0.199048 35.000000
16.317572 -39.511089 -0.047750 11.000000
15.887064 -39.164330 -0.047209 7.000000
-3.987183 -39.117298 -0.043921 26.000000
15.916081 -38.884708 -0.046932 5.000000
13.639609 -38.774963 -0.045914 14.000000
-4.068662 -38.710747 -0.043479 203.000000
15.986242 -38.708817 -0.046780 6.000000
14.043301 -38.375126 -0.045646 13.000000
15.966232 -38.318710 -0.046369 14.000000
13.567179 -38.185394 -0.045266 12.000000
14.032081 -37.974373 -0.045221 10.000000
15.974933 -38.002865 -0.046048 16.000000
17.120325 -38.023445 -0.046579 25.000000
14.280267 -37.911663 -0.045252 15.000000
14.566931 -37.948154 -0.045404 19.000000
14.926866 -37.816624 -0.045413 25.000000
16.308611 -37.795528 -0.045981 5.000000
16.899689 -37.850586 -0.046302 8.000000
17.436016 -37.769608 -0.046468 14.000000
13.519551 -37.675732 -0.044712 24.000000
14.074411 -37.723980 -0.044975 38.000000
15.038196 -37.750961 -0.045391 28.000000
15.309681 -37.740978 -0.045494 15.000000
17.240675 -37.656898 -0.046262 33.000000
17.571468 -37.750908 -0.046512 33.000000
-4.066673 -37.556446 -0.042196 32.000000
17.662781 -37.637585 -0.046441 40.000000
17.938526 -37.608902 -0.046544 3.000000
13.308718 -37.457943 -0.044403 13.000000
14.543004 -37.532951 -0.044962 33.000000
14.685615 -37.550411 -0.045038 38.000000
15.091077 -37.540234 -0.045194 51.000000
16.618761 -37.537731 -0.045856 11.000000
17.746725 -37.509598 -0.046351 39.000000
-4.168690 -37.400372 -0.042035 45.000000
13.679022 -37.379688 -0.044461 13.000000
16.994951 -37.430431 -0.045918 25.000000
13.479751 -37.196835 -0.044193 16.000000
15.770987 -37.190201 -0.045123 19.000000
13.721519 -37.133915 -0.044220 6.000000
15.447768 -37.074402 -0.044864 16.000000
18.361643 -36.989292 -0.046128 14.000000
18.484919 -36.945732 -0.046146 16.000000
18.602699 -36.891048 -0.046150 21.000000
18.749306 -36.893047 -0.046226 17.000000
19.948101 -36.924034 -0.046879 7.000000
-4.218285 -36.794968 -0.041370 26.000000
15.755597 -36.831547 -0.044747 21.000000
16.979996 -36.781788 -0.045252 8.000000
15.043303 -36.752415 -0.044359 6.000000
15.820510 -36.664345 -0.044604 19.000000
17.093781 -36.724636 -0.045248 9.000000
14.165808 -36.559475 -0.043796 2.000000
15.949986 -36.647469 -0.044645 28.000000
19.163143 -36.562416 -0.046110 5.000000
19.652430 -36.651623 -0.046454 25.000000
14.418730 -36.529282 -0.043867 6.000000
16.034491 -36.527588 -0.044560 23.000000
17.989092 -36.526474 -0.045480 25.000000
18.680952 -36.474380 -0.045775 12.000000
17.335812 -36.345280 -0.044980 36.000000
17.593494 -36.296829 -0.045056 32.000000
17.733772 -36.295292 -0.045123 23.000000
18.755087 -36.337315 -0.045677 11.000000
19.173307 -36.303959 -0.045860 3.000000
19.343639 -36.349480 -0.045994 21.000000
-4.269258 -36.233326 -0.040753 27.000000
17.430841 -36.250984 -0.044931 52.000000
17.758718 -35.774708 -0.044613 10.000000
-4.317234 -35.675705 -0.040141 26.000000
19.311176 -35.745083 -0.045382 29.000000
15.846210 -35.491085 -0.043416 11.000000
17.929119 -35.555271 -0.044479 8.000000
18.026226 -35.470242 -0.044444 14.000000
18.418789 -35.412334 -0.044587 28.000000
16.039122 -35.325268 -0.043336 12.000000
18.213881 -35.288746 -0.044359 27.000000
18.055517 -35.253227 -0.044243 24.000000
18.520290 -35.201180 -0.044430 26.000000
-4.466496 -35.060623 -0.039480 255.000000
-4.355340 -35.066544 -0.039471 255.000000
18.670914 -35.085331 -0.044394 9.000000
18.739462 -34.948948 -0.044296 6.000000
-4.583946 -33.859055 -0.038166 144.500000
-4.425371 -33.888252 -0.038175 105.000000
-4.321926 -33.925793 -0.038202 2.000000
-0.353818 -33.786125 -0.037742 9.000000
-0.247819 -33.807072 -0.037764 4.000000
-4.586857 -32.720043 -0.036906 92.000000
-4.639098 -32.353073 -0.036508 34.000000
-4.678049 -31.910908 -0.036026 32.000000
-4.717831 -31.492558 -0.035570 34.000000
-4.754427 -31.070322 -0.035110 31.000000
11.660073 -30.760136 -0.036745 69.666664
11.801765 -30.744654 -0.036785 12.000000
-4.776685 -30.573080 -0.034565 45.000000
-5.023365 -30.278105 -0.034283 3.000000
-4.829249 -30.285368 -0.034256 255.000000
-4.910234 -30.183187 -0.034158 255.000000
17.559267 -29.762190 -0.038599 11.000000
17.429955 -29.332058 -0.038112 20.000000
-4.844638 -29.200830 -0.033064 3.000000
-4.922343 -29.102640 -0.032970 255.000000
-5.007634 -29.051558 -0.032929 169.000000
17.283735 -28.879015 -0.037594 19.000000
17.143106 -28.440886 -0.037094 20.000000
17.004038 -28.010769 -0.036602 23.000000
-5.035941 -27.905180 -0.031674 34.500000
17.025188 -27.848003 -0.036459 43.000000
17.189867 -27.821865 -0.036531 24.000000
17.339855 -27.771130 -0.036571 18.000000
17.490795 -27.721207 -0.036613 21.000000
17.641672 -27.670559 -0.036656 22.000000
17.792450 -27.619019 -0.036698 25.000000
17.943130 -27.566761 -0.036741 16.000000
-5.099676 -27.515390 -0.031258 30.000000
18.091507 -27.510267 -0.036779 31.500000
18.356113 -27.534153 -0.036964 54.000000
18.550442 -27.543621 -0.037094 55.000000
18.666063 -27.528244 -0.037152 12.000000
18.823837 -27.481178 -0.037208 18.000000
18.972471 -27.420179 -0.037246 33.000000
19.134697 -27.377964 -0.037310 27.500000
19.290037 -27.325111 -0.037362 16.000000
19.396639 -27.293718 -0.037402 15.000000
-5.130497 -27.204428 -0.030923 32.000000
19.484613 -27.235907 -0.037406 48.000000
19.497618 -27.073936 -0.037268 20.000000
-5.158661 -26.889622 -0.030584 30.000000
-5.187957 -26.590612 -0.030262 30.000000
19.159985 -26.429615 -0.036464 63.000000
19.257069 -26.388676 -0.036490 76.000000
-5.215431 -26.291687 -0.029940 30.000000
19.358822 -26.353838 -0.036526 79.000000
19.455784 -26.312191 -0.036553 81.000000
19.552681 -26.270191 -0.036580 63.000000
-5.205501 -25.816406 -0.029418 41.000000
-5.485827 -25.545593 -0.029185 2.000000
-5.348137 -25.488916 -0.029091 154.500000
-5.232784 -25.537380 -0.029118 99.000000
-6.040510 -24.704212 -0.028408 1.000000
-5.451074 -24.267290 -0.027782 115.000000
-5.344360 -24.327843 -0.027822 132.000000
-5.524613 -24.238348 -0.027769 1.000000
-5.369135 -23.219301 -0.026621 0.000000
-5.589375 -23.068480 -0.026513 74.333336
-5.464677 -23.135323 -0.026554 137.000000
-5.615801 -21.920019 -0.025276 39.000000
-5.659459 -21.664986 -0.025012 30.000000
-5.678384 -21.461487 -0.024798 30.000000
-5.699193 -21.269674 -0.024597 30.000000
-5.714663 -21.062502 -0.024378 30.000000
-5.732063 -20.867022 -0.024172 29.000000
-5.751510 -20.683195 -0.023980 30.000000
-5.769860 -20.499460 -0.023788 28.000000
-5.788208 -20.319656 -0.023600 28.000000
-5.804376 -20.136103 -0.023408 27.000000
14.988716 -20.138233 -0.028041 13.000000
15.047113 -20.084642 -0.028032 63.000000
-5.820563 -19.956490 -0.023220 27.000000
