# This PCD file was generated using the MATLAB® pcwrite function
# from Computer Vision Toolbox®.
# .PCD v.7 - Point Cloud Data file format
VERSION .7
FIELDS x y z intensity
SIZE 4 4 4 4
TYPE F F F F
COUNT 1 1 1 1
WIDTH 1217
HEIGHT 1
VIEWPOINT 0 0 0 1 0 0 0
POINTS 1217
DATA ascii
-5.394050 7.399953 2.447346 34.666668
-5.360709 7.526743 2.469637 13.000000
-5.422188 8.005702 2.400569 33.000000
-5.430930 8.155733 2.432697 39.000000
-5.436817 8.305334 2.464503 34.333332
-5.403061 8.425887 2.485065 6.666667
-5.472457 9.057583 2.430699 35.500000
-5.478280 9.197292 2.458906 36.500000
-5.486508 9.344154 2.488904 38.500000
-5.523697 9.973335 2.406273 35.000000
-5.523695 10.085054 2.426924 38.000000
-5.532904 10.215950 2.452119 37.000000
-5.541362 10.386915 2.484747 38.000000
-5.589530 11.274848 2.425863 34.000000
-5.599334 11.429823 2.453499 32.000000
-5.602807 11.574498 2.478863 38.000000
-5.607224 11.677016 2.497034 29.000000
-5.659583 12.634611 2.418708 15.000000
-5.666211 12.810671 2.447277 17.000000
-5.670251 12.929447 2.466552 12.000000
-5.684592 13.073671 2.490646 11.000000
-5.749328 14.316335 2.418112 0.000000
4.112702 27.717384 2.406178 55.000000
4.251744 27.752878 2.410969 1.000000
11.126375 33.388737 2.406678 63.000000
11.063918 33.552387 2.415957 47.000000
11.016633 33.765289 2.428783 10.000000
10.824900 33.898468 2.433422 10.000000
11.050255 34.232674 2.459893 25.000000
-5.518814 -37.600391 2.598798 22.000000
-5.552269 -37.018513 2.559774 23.000000
-5.582726 -36.440742 2.521022 21.000000
13.304345 -35.005535 2.560865 2.000000
15.681142 -34.266380 2.576966 9.000000
16.206036 -34.268654 2.592248 12.000000
15.505795 -34.166489 2.565777 14.000000
15.751933 -34.137230 2.570962 22.000000
16.277550 -34.141926 2.586518 13.000000
16.886318 -34.032177 2.597979 15.000000
-1.836516 -30.113024 2.590637 7.000000
-5.945059 -28.987747 2.541014 1.000000
-6.004394 -28.816767 2.527668 44.000000
10.181085 -27.390818 2.509302 74.666664
10.327589 -27.432495 2.517059 12.000000
-6.253461 -24.232666 2.588007 29.000000
-6.268171 -23.978085 2.562909 30.000000
-6.282369 -23.727501 2.538222 29.000000
-6.295053 -23.477064 2.513535 29.000000
-6.394571 -20.467680 2.596827 5.000000
-6.465044 -20.355942 2.586488 37.500000
-6.478624 -20.070175 2.554028 3.000000
-6.483749 -19.872292 2.531425 3.000000
-6.502624 -19.719831 2.514594 2.000000
-6.620550 -17.447069 2.591084 30.000000
-6.625725 -17.296688 2.571830 32.000000
-6.638595 -17.168625 2.555876 30.000000
-6.643523 -17.022194 2.537172 31.000000
-6.645657 -16.793583 2.507740 30.500000
-6.710716 -16.727167 2.502514 1.000000
-7.434258 -14.768528 2.591542 1.000000
-7.127356 -14.730516 2.564908 2.000000
-7.385012 -14.632481 2.569037 0.333333
-7.062726 -14.480738 2.525267 1.000000
-6.721931 -14.467932 2.500491 2.000000
-7.040188 -14.320170 2.501110 1.000000
-6.854274 -13.150248 2.590809 30.000000
-6.865688 -13.021939 2.571878 30.000000
-6.871296 -12.885145 2.551226 28.000000
-6.877084 -12.703114 2.523690 27.000000
-6.885834 -12.577236 2.505103 33.000000
-6.947438 -11.498817 2.589783 33.000000
-6.954901 -11.349451 2.565933 33.500000
-6.961795 -11.202120 2.542462 36.500000
-6.972361 -11.063455 2.520884 35.500000
-6.972783 -10.949294 2.502334 36.000000
-7.061777 -10.014573 2.586351 5.333333
-7.069570 -9.860193 2.560744 6.000000
-7.010407 -9.680941 2.522746 7.000000
-7.211852 -9.605316 2.535136 0.000000
-7.026303 -9.575669 2.506775 15.666667
3.533396 -8.883546 2.555100 15.000000
3.599684 -8.807550 2.542913 45.400002
3.703201 -8.822495 2.557165 15.000000
-7.102219 -8.668098 2.573971 0.000000
-7.152914 -8.618786 2.572628 0.000000
-7.082489 -8.479580 2.537706 8.000000
-7.103969 -8.370951 2.521811 29.250000
-7.115521 -8.252141 2.502783 36.000000
-7.143916 -7.607682 2.591005 40.500000
-7.153940 -7.452333 2.564741 38.000000
-7.161983 -7.298419 2.538718 41.250000
-7.168535 -7.146131 2.513016 42.000000
-7.207038 -6.394346 2.574981 38.250000
-7.214491 -6.240699 2.549420 40.500000
-7.222184 -6.090379 2.524891 41.500000
-7.220987 -5.954638 2.501395 34.000000
-10.361467 4.483740 2.593224 39.500000
-10.206419 4.493009 2.561435 39.000000
-10.051676 4.500488 2.529646 39.500000
-9.948684 4.510831 2.509051 36.000000
-9.338347 4.538435 2.577753 41.000000
-9.169675 4.545757 2.540967 39.000000
-9.012996 4.556696 2.507393 42.500000
-8.554092 4.580781 2.593313 40.666668
-8.410984 4.589581 2.560780 39.500000
-8.264917 4.594418 2.527215 40.000000
-8.161821 4.604582 2.504494 43.000000
-5.400771 7.710232 2.515854 8.000000
-5.407781 7.824580 2.542018 12.000000
-5.419751 8.002118 2.582985 6.333333
-5.401800 8.601405 2.521690 9.000000
-5.432924 8.772667 2.561849 8.000000
-5.462472 8.914038 2.595583 6.500000
-5.492397 9.455853 2.511738 36.000000
-5.471076 9.522181 2.522483 9.000000
-5.449512 9.624241 2.540392 7.000000
-5.480141 9.821687 2.583374 20.000000
-5.548815 10.560110 2.517789 35.000000
-5.553176 10.690318 2.542571 33.000000
-5.563461 10.834759 2.570656 36.500000
-5.612741 11.783223 2.515963 32.000000
-5.614283 11.882478 2.533377 24.000000
-5.624599 12.051184 2.563662 25.000000
-5.630308 12.213080 2.592433 22.000000
-5.690444 13.257837 2.520592 9.500000
-5.696389 13.445943 2.551226 8.000000
-5.704468 13.583659 2.573943 7.000000
-5.707190 13.710647 2.594595 4.000000
19.409143 32.263962 2.574783 54.000000
19.289272 32.293941 2.572327 55.000000
19.234541 32.433331 2.578604 5.000000
-5.398396 -38.460281 2.655833 10.000000
-5.491975 -38.253521 2.642734 23.000000
11.659820 -37.643543 2.694858 2.000000
11.862382 -37.463013 2.687217 2.000000
13.626406 -36.896320 2.689672 4.000000
13.960316 -36.386848 2.665112 2.000000
14.048621 -36.275829 2.660200 9.000000
14.043382 -35.926735 2.637822 1.000000
15.597617 -35.854950 2.673845 17.000000
15.380590 -35.661930 2.655833 8.000000
16.249071 -35.507420 2.670297 4.000000
15.907728 -35.346798 2.650648 17.000000
16.040136 -35.343891 2.654196 2.000000
15.594897 -35.241688 2.635366 11.000000
17.558994 -35.110397 2.684488 14.000000
16.320305 -34.792694 2.627998 12.000000
16.668240 -34.680496 2.631273 14.000000
16.076258 -34.554329 2.606166 11.000000
16.754482 -34.581276 2.627725 4.000000
17.423124 -34.566853 2.647101 7.000000
16.997873 -34.529026 2.631819 9.000000
17.488258 -34.426559 2.640551 14.000000
16.708929 -34.212910 2.603710 11.000000
-5.899743 -30.723541 2.686460 32.000000
-5.922899 -30.329357 2.653606 30.000000
-5.998869 -29.966953 2.624346 36.000000
-6.180151 -25.256201 2.688812 46.000000
-6.209659 -25.035849 2.667417 32.000000
-6.224264 -24.761539 2.640261 30.000000
-6.239172 -24.495100 2.613929 30.000000
19.609972 -24.381168 2.686802 23.000000
19.536015 -24.133585 2.666269 31.000000
-7.826667 -24.116533 2.621952 1.000000
19.465738 -23.892889 2.646420 32.000000
19.396669 -23.655952 2.626913 32.000000
19.333918 -23.428911 2.608433 30.000000
-6.578766 -18.193485 2.686255 29.000000
-6.586968 -18.038750 2.666451 30.000000
-6.595633 -17.887859 2.647197 30.000000
-6.603415 -17.737095 2.627942 30.000000
-6.613105 -17.593874 2.609788 29.000000
-6.709384 -15.852453 2.698077 3.000000
-7.070241 -15.600817 2.684657 4.333333
-6.933409 -15.623964 2.679186 5.000000
-6.698853 -15.588376 2.659365 20.750000
-6.779602 -15.473705 2.647907 2.000000
-7.113695 -15.395550 2.658230 1.666667
-6.833474 -13.754004 2.683170 1.333333
-6.835174 -13.578417 2.655863 0.000000
-6.818976 -13.268347 2.606298 12.333333
-6.914108 -12.121836 2.690104 36.500000
-6.921277 -11.959174 2.663604 33.500000
-6.930658 -11.803677 2.638618 36.000000
-6.942377 -11.655291 2.615147 36.000000
-7.061734 -10.286419 2.633436 1.000000
-7.053220 -10.171024 2.612371 5.000000
-7.139390 -9.233961 2.680978 0.000000
-7.270055 -9.143049 2.683067 3.333333
-7.117335 -8.202120 2.696142 37.000000
-7.126598 -8.058097 2.670762 36.000000
-7.125362 -7.955304 2.651485 41.000000
-7.131502 -7.887090 2.639919 40.500000
-7.137152 -7.769857 2.619358 35.333332
-7.176557 -6.998568 2.679034 40.750000
-7.183662 -6.874485 2.657345 40.500000
-7.187954 -6.813965 2.647017 37.000000
-7.191687 -6.711201 2.628944 42.250000
-7.200440 -6.552013 2.601833 43.500000
-10.804996 4.455701 2.684559 40.000000
-10.683170 4.464419 2.659487 41.500000
-10.527550 4.477301 2.627698 39.500000
-9.896398 4.505817 2.699677 39.000000
-9.753391 4.514915 2.668352 40.500000
-9.610668 4.522389 2.637028 39.500000
-9.471745 4.529922 2.606667 39.500000
-9.006226 4.553260 2.697107 40.500000
-8.881180 4.560344 2.668190 39.000000
-8.730408 4.569850 2.633591 39.333332
-5.426412 8.148952 2.616550 6.000000
-5.429461 8.237339 2.636690 6.000000
-5.434888 8.330811 2.658378 6.000000
-5.439939 8.454163 2.686779 6.000000
-5.471594 9.056177 2.626908 7.000000
-5.471742 9.153482 2.647630 6.000000
-5.478621 9.230720 2.664979 6.000000
-5.482190 9.336794 2.688110 6.000000
-5.514807 9.994179 2.621878 37.000000
-5.522678 10.121023 2.648294 36.000000
-5.529593 10.248133 2.674710 35.000000
-5.530724 10.366962 2.698887 36.000000
-5.572085 11.021437 2.606589 34.500000
-5.573507 11.154339 2.631784 32.000000
-5.581460 11.303322 2.660695 29.500000
-5.586560 11.449070 2.688781 22.000000
-5.634375 12.323581 2.612119 22.000000
-5.639420 12.437806 2.632561 21.000000
-5.643808 12.552180 2.653004 19.000000
-5.652326 12.677470 2.675718 19.000000
-5.655353 12.792155 2.696161 15.000000
-5.719695 13.863279 2.620066 3.000000
-5.723833 13.997891 2.642095 2.000000
-5.734588 14.150922 2.667566 2.000000
-5.737095 14.285874 2.689595 0.000000
11.579348 37.476280 2.682304 16.000000
-5.430466 -39.591980 2.732790 71.000000
12.845082 -38.456806 2.772633 6.000000
14.395065 -38.236664 2.793919 5.000000
12.894371 -38.204517 2.757351 2.000000
13.011747 -38.156273 2.756805 4.000000
14.757682 -38.106735 2.794465 7.000000
14.526391 -37.862297 2.773179 7.000000
15.017260 -37.717548 2.776181 3.000000
13.349983 -37.594883 2.728151 5.000000
13.566902 -37.457733 2.724330 6.000000
14.238655 -37.463833 2.740704 10.000000
14.788850 -37.486122 2.755714 10.000000
17.617125 -36.951660 2.799377 4.000000
15.595398 -36.794003 2.732790 9.000000
15.706207 -36.733818 2.731972 3.000000
17.919062 -36.690754 2.792282 7.000000
17.713224 -36.560116 2.778091 7.000000
17.937304 -36.437363 2.777272 3.000000
18.649269 -36.428192 2.798558 3.000000
18.121267 -36.234703 2.770450 8.000000
18.296078 -36.298763 2.779729 6.000000
18.446171 -36.312260 2.785187 3.000000
16.899904 -36.028320 2.721329 1.000000
16.687325 -35.867760 2.705228 4.000000
18.870571 -35.475445 2.747800 13.000000
18.665874 -35.358101 2.734155 3.000000
19.030514 -34.977032 2.722966 2.000000
19.088514 -34.822586 2.715598 2.000000
19.347679 -34.775196 2.721329 1.000000
19.429518 -34.665504 2.717508 10.000000
-5.827883 -31.973604 2.790838 25.000000
-5.854881 -31.559370 2.756274 33.000000
-5.876378 -31.129623 2.720340 32.000000
-6.170066 -26.285574 2.792086 7.000000
-6.174296 -25.937056 2.757113 3.000000
-6.187601 -25.635189 2.727077 3.000000
19.867514 -25.347084 2.765514 6.000000
19.794003 -25.090557 2.744296 11.000000
19.724037 -24.840982 2.723762 13.000000
19.670118 -24.613888 2.705624 19.000000
-6.372169 -22.091362 2.784376 28.000000
-6.381459 -21.865391 2.758407 28.000000
-6.684262 -21.633461 2.742057 2.000000
-6.597704 -21.593590 2.734363 2.000000
-6.478195 -21.565454 2.726909 5.000000
-6.381526 -21.612919 2.729073 67.000000
-6.533149 -18.995186 2.789129 26.000000
-6.540779 -18.824867 2.767124 29.000000
-6.553964 -18.673382 2.747869 28.000000
-6.558319 -18.499594 2.725314 28.000000
-6.572332 -18.355804 2.707160 33.000000
-6.700827 -15.971844 2.714801 1.000000
-6.724062 -14.472520 2.788037 3.000000
-6.783918 -14.364652 2.775416 19.333334
-6.797976 -14.163087 2.744667 3.000000
-6.801249 -14.056533 2.728146 3.000000
-6.814486 -13.916409 2.707149 3.000000
-6.879706 -12.702648 2.784746 33.500000
-6.890308 -12.533548 2.757110 31.500000
-6.896875 -12.406521 2.736289 36.000000
-6.901320 -12.278027 2.715089 32.000000
-6.962965 -11.203985 2.784189 34.500000
-6.972713 -11.063992 2.760234 33.000000
-6.964080 -10.897963 2.729670 19.500000
-7.323985 -10.813416 2.756517 7.000000
-7.226942 -10.815757 2.745503 7.000000
-7.038264 -10.751291 2.712185 8.000000
-6.971917 -10.797589 2.712736 31.000000
-7.034799 -9.877080 2.785297 0.000000
-7.030087 -9.772601 2.765150 0.000000
-6.989872 -9.652583 2.737391 7.000000
-7.218999 -9.583456 2.755897 3.000000
-7.033025 -9.553407 2.724855 16.500000
-7.188180 -9.388239 2.715900 0.000000
-7.269516 -9.241226 2.700678 4.666667
-7.105815 -8.616979 2.772927 0.000000
-7.072895 -8.486249 2.742728 5.333333
-7.100562 -8.366955 2.724495 30.750000
-7.147231 -7.587204 2.785754 36.333332
-7.150630 -7.448879 2.759591 41.000000
-7.157459 -7.316702 2.735492 40.333332
-7.166593 -7.166768 2.708726 36.000000
-11.272483 4.381302 2.777910 16.750000
-11.103135 4.436376 2.746346 40.500000
-10.936016 4.449490 2.711871 40.500000
-10.303882 4.478118 2.789312 44.000000
-10.188514 4.485126 2.763771 41.000000
-10.041439 4.495898 2.731483 38.500000
-9.426505 4.526545 2.794705 39.000000
-9.325140 4.532013 2.770951 40.000000
-9.170396 4.546120 2.735492 41.333332
-5.427950 8.612923 2.720861 11.500000
-5.422295 8.755503 2.752361 7.000000
-5.459541 8.877829 2.785410 6.000000
-5.488559 9.483615 2.720399 6.000000
-5.497148 9.637623 2.754614 6.000000
-5.484704 9.811808 2.790758 22.250000
-5.544356 10.551630 2.737839 31.000000
-5.551244 10.686600 2.766045 41.000000
-5.555157 10.776755 2.784850 38.000000
-5.598759 11.612780 2.720997 25.500000
-5.602957 11.762684 2.749908 22.000000
-5.607772 11.868697 2.770560 21.000000
-5.615303 11.981939 2.792863 21.000000
-5.660868 12.914179 2.718118 15.000000
-5.671614 13.106544 2.752946 10.500000
-5.677758 13.292036 2.786260 9.000000
11.508393 29.502285 2.719313 42.000000
11.018555 29.612179 2.713153 17.000000
11.641900 29.569817 2.728896 1.000000
11.270818 29.717503 2.729238 25.000000
11.388348 29.745218 2.735056 35.000000
11.474555 29.690706 2.733345 41.000000
11.800961 29.699764 2.744296 7.000000
10.855474 30.037045 2.742584 5.000000
11.090517 30.388407 2.777834 52.000000
11.203843 30.402027 2.782283 17.000000
10.918161 30.510021 2.782625 7.000000
11.563006 37.844509 2.706046 9.000000
11.590628 38.365810 2.740704 6.000000
14.339747 -39.206402 2.854775 2.000000
14.965950 -38.286911 2.811112 9.000000
15.049538 -38.146900 2.804289 11.000000
16.222950 -37.615051 2.801287 4.000000
16.497458 -37.600086 2.807837 12.000000
-5.777986 -32.869194 2.865785 24.000000
-5.803957 -32.419357 2.828141 26.000000
-6.109690 -27.177162 2.880547 3.000000
-6.118050 -26.820353 2.844751 3.000000
-6.111677 -26.409489 2.803195 74.000000
-6.318246 -22.985262 2.886806 29.000000
-6.331877 -22.754889 2.860357 30.000000
-6.347353 -22.536125 2.835351 30.000000
-6.358251 -22.306034 2.808901 29.000000
-6.487045 -19.253626 2.821036 26.000000
-6.523242 -19.161890 2.810583 25.000000
-6.634269 -17.157436 2.883276 30.000000
-6.643599 -17.022387 2.864075 28.000000
-7.005680 -16.846642 2.859739 3.000000
-6.902236 -16.820940 2.849829 3.000000
-6.772056 -16.803490 2.839609 3.000000
-6.642273 -16.785110 2.829389 28.000000
-7.478577 -14.741084 2.887855 0.000000
-6.822189 -13.268879 2.876107 16.666666
-6.858199 -13.152189 2.859324 39.000000
-6.866107 -13.017227 2.836988 37.000000
-6.872781 -12.882507 2.814653 34.500000
-6.930877 -11.804054 2.889097 31.000000
-6.938807 -11.649315 2.861837 33.000000
-6.945091 -11.494934 2.834578 32.000000
-6.952748 -11.345963 2.808558 32.500000
-7.542411 -10.986593 2.812688 4.000000
-7.481398 -10.971432 2.802775 7.000000
-8.237823 -10.900240 2.883728 2.500000
-8.132430 -10.866889 2.864729 0.000000
-7.000364 -10.405869 2.880663 4.000000
-7.004365 -10.306671 2.862306 4.500000
-7.012983 -10.147135 2.833204 5.333333
-7.030513 -10.014598 2.810519 1.666667
-7.055385 -9.244915 2.887301 6.000000
-7.178608 -9.047415 2.867382 1.000000
-7.065578 -9.108932 2.862081 6.000000
-7.158546 -8.964147 2.848106 0.000000
-7.075900 -9.004834 2.843287 2.500000
-7.098322 -8.803400 2.807625 0.000000
-7.111769 -8.195700 2.900049 32.000000
-7.119576 -8.050151 2.872164 40.333332
-7.129582 -7.909980 2.846000 34.333332
-7.135851 -7.768435 2.819148 37.000000
-7.140724 -7.676270 2.801934 40.000000
-10.663473 4.456182 2.869310 39.000000
-10.538671 4.462553 2.841359 38.000000
-10.463907 4.469712 2.824974 39.000000
-10.378510 4.471838 2.805697 39.000000
-9.736796 4.507227 2.867516 40.000000
-9.599889 4.517314 2.835500 39.000000
-9.503478 4.526819 2.813295 42.000000
-5.461834 8.944407 2.800902 6.000000
-5.464535 9.044482 2.824139 6.000000
-5.472860 9.188198 2.858221 6.000000
-5.477639 9.329038 2.891270 6.500000
-5.512324 9.989680 2.832685 37.000000
-5.521847 10.119499 2.862081 37.000000
-5.524852 10.239347 2.888586 38.000000
-5.556777 10.863571 2.802759 42.000000
-5.563500 11.004463 2.832309 35.000000
-5.569153 11.145625 2.861859 32.000000
-5.577775 11.295853 2.893647 32.000000
-5.617222 12.084702 2.812688 21.000000
-5.621833 12.194698 2.834165 20.000000
-5.627436 12.308402 2.856468 18.000000
-5.635606 12.429393 2.880424 18.000000
-5.683452 13.421927 2.809731 7.000000
-5.695985 13.570091 2.836988 5.000000
-5.698585 13.696712 2.859702 5.000000
-5.706440 13.838001 2.885445 4.000000
4.153559 27.692917 2.895770 57.000000
19.133703 36.865395 2.840312 9.000000
18.165306 36.965622 2.816570 14.000000
18.907143 36.995548 2.841130 22.000000
17.585482 37.558044 2.835945 23.000000
17.718718 37.535091 2.838402 5.000000
17.194252 37.642258 2.829942 1.000000
18.035339 37.592133 2.851228 25.000000
17.946304 37.709866 2.855867 11.000000
18.894526 37.846916 2.892708 25.000000
17.464344 37.917900 2.854775 22.000000
17.630445 37.964191 2.862416 13.000000
12.428396 39.131821 2.807701 17.500000
12.766916 39.129799 2.814659 13.000000
11.808152 39.991776 2.851501 3.000000
17.315193 -39.463825 2.947014 2.000000
16.787176 -39.261993 2.919998 4.000000
16.613911 -39.196964 2.911265 2.000000
17.286337 -38.734730 2.900622 9.000000
19.634926 -38.353504 2.946469 4.000000
19.479036 -37.756107 2.905261 12.000000
-5.701705 -34.329662 2.988302 3.000000
-5.701748 -33.675018 2.932861 86.000000
-5.752625 -33.338829 2.905141 25.000000
11.671753 -32.868820 2.995146 10.000000
-6.043066 -28.116556 2.973946 34.000000
-6.057935 -27.553429 2.917371 48.500000
-6.264930 -23.965685 2.999816 31.000000
-6.280224 -23.719400 2.971443 31.000000
-6.290947 -23.461752 2.941628 29.000000
-6.307398 -23.231098 2.915179 30.000000
-6.395467 -20.458006 2.976171 6.000000
-6.476167 -20.378538 2.969019 33.000000
-6.563641 -20.321417 2.965168 1.000000
-6.590895 -17.875010 2.986095 25.000000
-6.600142 -17.728300 2.965036 30.000000
-6.609921 -17.585405 2.944596 31.000000
-6.618866 -17.442631 2.924156 29.000000
-6.624155 -17.292591 2.902477 33.000000
-7.060524 -15.644548 2.998688 4.500000
-7.104675 -15.546624 2.986297 2.000000
-6.905589 -15.627396 2.984920 4.000000
-6.700085 -15.591231 2.964785 18.250000
-7.110608 -15.431183 2.968399 2.000000
-7.570676 -15.157916 2.960138 1.000000
-6.899067 -12.410464 2.996896 32.000000
-6.903732 -12.282292 2.973767 33.000000
-6.909367 -12.157745 2.951464 27.000000
-6.914472 -12.078238 2.937421 31.000000
-6.921263 -11.959156 2.916357 33.000000
-6.971190 -10.946793 2.980953 33.000000
-7.169815 -10.803707 2.978267 6.000000
-7.122965 -10.806648 2.972894 6.000000
-6.969463 -10.775296 2.947598 16.750000
-7.132247 -10.674160 2.948717 3.000000
-7.009977 -10.708289 2.939763 3.000000
-7.027827 -9.769461 2.987860 0.000000
-6.985622 -9.646715 2.957018 7.000000
-7.011529 -9.587032 2.948825 21.000000
-7.054255 -9.519423 2.941597 6.500000
-7.054351 -9.385334 2.914931 3.333333
-7.103963 -8.642355 2.989901 0.000000
-7.087858 -8.540398 2.966147 2.000000
-7.069707 -8.437271 2.941876 12.500000
-7.107688 -8.348679 2.930344 34.000000
-11.240057 3.927460 2.956054 0.000000
-11.250002 4.090319 2.971957 0.000000
-11.249652 4.372460 2.996535 19.750000
-11.090847 4.431470 2.965210 40.000000
-10.960087 4.439295 2.935814 44.000000
-10.840299 4.450281 2.909309 38.500000
-10.217881 4.478955 2.981638 38.000000
-10.103070 4.485456 2.954270 40.500000
-9.919138 4.497295 2.910721 40.666668
-5.486666 9.480331 2.927417 9.000000
-5.494952 9.633785 2.964081 3.500000
-5.532205 10.369757 2.917983 38.500000
-5.536776 10.496986 2.946416 39.000000
-5.539776 10.583119 2.965693 39.000000
-5.545089 10.716007 2.995571 40.000000
-5.583535 11.442870 2.924540 31.000000
-5.591718 11.551590 2.947822 34.000000
-5.594216 11.649928 2.968417 29.000000
-5.597828 11.751916 2.989908 29.000000
-5.644681 12.554122 2.905205 17.000000
-5.646647 12.664734 2.926682 15.000000
-5.649562 12.779058 2.948986 13.000000
-5.662814 12.918617 2.977071 14.000000
-5.713456 13.979478 2.911187 3.000000
-5.719647 14.121131 2.936930 1.000000
-5.726466 14.266605 2.963430 0.000000
4.073472 27.753067 2.900708 16.000000
4.248371 27.730858 2.901119 26.000000
18.839300 38.034828 2.902532 17.000000
18.227547 38.300827 2.900622 8.000000
18.825319 38.308720 2.918906 9.000000
18.173569 38.498642 2.911265 13.000000
19.377584 38.814510 2.966663 3.000000
19.612431 38.978031 2.983855 22.000000
-5.637937 -35.317200 3.071120 25.000000
-5.675184 -34.846962 3.031764 63.000000
10.531596 -34.382885 3.087889 13.000000
11.306364 -34.207317 3.093707 7.000000
10.995519 -33.981922 3.067013 5.000000
11.358223 -34.005306 3.078649 5.000000
10.803657 -33.750607 3.043057 7.000000
12.104573 -33.751080 3.078991 4.000000
12.096544 -33.398125 3.050244 3.000000
11.427658 -33.169529 3.012599 18.000000
11.516088 -33.088299 3.008493 9.000000
-5.928892 -28.908920 3.051709 1.000000
-6.002641 -28.808352 3.043069 37.000000
-6.022259 -28.454594 3.007684 32.000000
10.159271 -27.375973 3.019616 63.000000
-6.220782 -24.747686 3.090224 31.000000
-6.235769 -24.481741 3.059447 31.000000
-6.250139 -24.219793 3.029151 30.000000
-6.548809 -18.658693 3.099444 32.000000
-6.559860 -18.503941 3.077146 31.000000
-6.567339 -18.341862 3.053609 28.000000
-6.579360 -18.106449 3.019543 29.500000
-7.938523 -15.647687 3.065464 1.000000
-7.884013 -15.661989 3.063398 3.000000
-7.935624 -15.520928 3.045500 2.000000
-6.726554 -14.471272 3.076243 7.000000
-6.793231 -14.377794 3.065391 17.666666
-6.869607 -12.876591 3.080327 30.000000
-6.879561 -12.702393 3.048937 31.500000
-6.890412 -12.533737 3.018786 32.500000
-6.942139 -11.490058 3.083482 32.500000
-6.952065 -11.344834 3.056171 36.000000
-6.958392 -11.196627 3.027965 36.500000
-6.965210 -11.052091 3.000653 33.500000
-8.053934 -10.762001 3.087512 1.000000
-7.994205 -10.543433 3.039158 0.000000
-7.965795 -10.437690 3.015876 3.000000
-8.430526 -10.355175 3.067096 5.000000
-8.517270 -10.262745 3.063335 2.000000
-8.249338 -10.330070 3.036471 3.000000
-8.027830 -10.316014 3.002444 3.250000
-8.184060 -10.182556 3.000653 4.000000
-7.031475 -9.905225 3.015811 0.000000
-7.176969 -9.045349 3.085949 0.000000
-7.094206 -8.769999 3.014687 0.000000
-11.395220 4.285449 3.022558 1.000000
-11.316776 4.269611 3.002960 0.666667
-10.652089 4.451435 3.085433 37.000000
-10.492336 4.462312 3.047220 38.000000
-10.334642 4.472132 3.009523 38.000000
-5.485067 9.812416 3.004360 25.750000
-5.507626 9.981165 3.046704 34.000000
-5.514150 10.105398 3.076654 35.000000
-5.552934 10.856059 3.027377 36.000000
-5.559456 10.996449 3.059184 34.000000
-5.564899 11.137113 3.090990 34.000000
-5.605386 11.912224 3.023935 26.500000
-5.611704 12.072831 3.057962 23.000000
-5.614554 12.178909 3.080348 19.000000
-5.667836 13.097836 3.012178 11.500000
-5.682244 13.302539 3.053067 9.000000
-5.681633 13.417631 3.075371 8.000000
15.333654 31.452581 3.004728 26.000000
-5.578867 -36.415558 3.163520 26.000000
-5.609484 -35.862358 3.116978 25.000000
11.690578 -34.637821 3.139222 8.000000
10.712662 -34.585659 3.109107 15.000000
11.244678 -34.382824 3.106369 9.000000
11.698999 -34.306705 3.112529 10.000000
-5.911638 -30.271694 3.189544 35.000000
-1.837615 -30.131041 3.121655 6.000000
-5.999543 -29.970367 3.160743 23.500000
-6.182001 -25.611984 3.190731 3.000000
-6.181256 -25.260719 3.149374 45.000000
-6.206096 -25.021486 3.121963 32.000000
-6.371467 -22.074457 3.190169 28.000000
-6.383030 -21.856569 3.161563 27.000000
-6.689268 -21.636272 3.144509 2.000000
-6.607365 -21.611712 3.137907 2.000000
-6.473280 -21.576403 3.127822 5.333333
-6.386547 -21.616032 3.129655 57.000000
-6.491734 -19.267542 3.186779 25.000000
-6.520395 -19.153530 3.171294 27.000000
-6.532977 -18.994686 3.148376 31.000000
-6.542037 -18.828489 3.124220 29.000000
-6.640132 -17.013504 3.190753 30.000000
-7.005075 -16.845186 3.187311 3.000000
-6.910682 -16.841526 3.180427 3.500000
-6.767216 -16.791397 3.162873 2.000000
-6.643344 -16.787834 3.154268 24.000000
-7.149573 -14.829374 3.173535 2.000000
-7.149688 -14.652547 3.142871 2.000000
-7.155816 -14.548950 3.125457 2.000000
-6.817626 -13.277072 3.150128 13.000000
-6.854724 -13.145504 3.129064 30.000000
-6.863697 -13.012658 3.105108 32.000000
-6.918624 -11.954601 3.172580 33.500000
-6.924522 -11.793225 3.141239 33.500000
-6.934649 -11.642303 3.112585 32.500000
-8.148691 -10.817606 3.110794 1.000000
-7.066699 -10.757805 3.195565 4.000000
-6.961145 -10.780962 3.186087 17.000000
-8.231281 -10.715595 3.103630 2.000000
-6.983107 -9.643240 3.181998 7.000000
-7.032764 -9.553064 3.170379 13.000000
-11.245140 3.929251 3.183547 0.250000
-11.251166 4.090723 3.199555 0.250000
-11.120591 4.423173 3.198522 36.000000
-10.988533 4.430656 3.166506 38.000000
-10.819269 4.441648 3.125711 37.500000
-5.518251 10.265781 3.114867 35.500000
-5.522462 10.390617 3.144818 33.000000
-5.532694 10.529429 3.178900 37.500000
-5.571581 11.283323 3.124242 35.000000
-5.575455 11.426312 3.156530 31.000000
-5.583009 11.580116 3.191710 28.000000
-5.624864 12.354269 3.117957 18.000000
-5.629018 12.519287 3.152880 17.000000
-5.635695 12.640168 3.178848 14.000000
-5.689441 13.554502 3.102630 7.000000
-5.696440 13.691556 3.129890 5.000000
-5.705623 13.836020 3.158801 4.000000
-5.705063 13.958942 3.182757 3.000000
-5.514893 -37.573673 3.261054 26.000000
-5.547786 -36.988625 3.211774 28.000000
13.850457 -35.433182 3.266872 9.000000
15.025545 -35.141876 3.281930 12.000000
15.131129 -35.083523 3.280903 10.000000
16.038067 -34.757332 3.287063 4.000000
17.182516 -34.357605 3.298699 15.000000
15.975179 -34.056931 3.230254 8.000000
16.226583 -34.035023 3.237783 5.000000
-5.874099 -31.117554 3.274714 32.000000
-5.896798 -30.708206 3.233569 33.000000
-6.113132 -26.415777 3.283544 67.000000
-6.168867 -26.280464 3.269117 6.000000
-6.174154 -25.936459 3.228722 3.000000
-6.333183 -22.744211 3.278189 30.000000
-6.345493 -22.514465 3.247932 29.000000
-6.358596 -22.292486 3.218776 29.000000
-6.604658 -17.571402 3.279557 34.000000
-6.615089 -17.432678 3.257528 33.000000
-6.626129 -17.297743 3.236188 36.000000
-7.292005 -17.229027 3.268543 3.000000
-6.632123 -17.151886 3.212782 31.000000
-6.914253 -15.639568 3.296317 4.666667
-7.117274 -15.567006 3.299598 2.000000
-6.738606 -15.572109 3.270827 22.000000
-6.671371 -15.618140 3.273855 23.000000
-7.120102 -15.444695 3.278398 2.000000
-6.884191 -12.569026 3.291675 35.000000
-6.889454 -12.439262 3.266154 37.000000
-6.897757 -12.271686 3.233470 34.500000
-6.909051 -12.112968 3.203025 32.500000
-8.275377 -11.503694 3.254961 9.000000
-8.218799 -11.501086 3.246902 9.000000
-8.131868 -11.493517 3.233918 4.500000
-6.955863 -11.192568 3.271707 34.500000
-6.964189 -11.088969 3.250985 36.000000
-6.966394 -10.977373 3.227853 35.000000
-7.334455 -10.828874 3.247130 6.000000
-7.228194 -10.817647 3.230102 5.666667
-8.277169 -10.398361 3.299658 2.000000
-8.385206 -10.233785 3.284719 6.000000
-8.443233 -10.206104 3.288574 3.500000
-7.020476 -9.759242 3.212981 1.000000
-11.343051 4.265829 3.238801 1.000000
-11.283057 4.256855 3.222965 1.000000
-11.244974 4.370642 3.224342 20.500000
-12.343513 4.575733 3.268334 2.000000
-5.536589 10.699547 3.219694 34.000000
-5.539831 10.830442 3.251194 32.000000
-5.550566 10.978870 3.287858 30.000000
-5.591061 11.737709 3.227853 24.000000
-5.590641 11.832439 3.249057 23.000000
-5.597923 11.944856 3.275080 25.000000
-5.599639 12.046874 3.298212 20.000000
-5.641673 12.761212 3.204816 14.000000
-5.650075 12.889558 3.232575 13.000000
-5.661170 13.082432 3.274213 12.500000
-5.712610 14.103757 3.211668 1.000000
-5.717844 14.245126 3.239754 0.000000
19.484266 32.159683 3.228885 2.000000
19.358932 32.256927 3.230482 49.666668
-5.401134 -38.479794 3.336686 18.000000
-5.483485 -38.194382 3.313415 26.000000
11.472463 -37.879124 3.398628 7.000000
13.194736 -37.157692 3.385966 6.000000
13.789155 -36.281139 3.332921 17.000000
13.963594 -36.056274 3.320259 10.000000
14.010057 -35.841480 3.304517 10.000000
16.555691 -35.879120 3.393153 6.000000
14.227602 -35.734234 3.302806 2.000000
16.245543 -35.499710 3.352428 5.000000
15.405025 -35.412228 3.316152 12.000000
15.512997 -35.356358 3.315468 11.000000
16.448103 -35.353573 3.348321 27.000000
17.098684 -35.291710 3.367486 6.000000
15.570778 -35.187180 3.304174 8.000000
15.690991 -35.159927 3.306228 29.000000
17.724457 -35.164688 3.381517 1.000000
17.116781 -35.048019 3.349348 2.000000
17.822210 -35.083961 3.379122 3.000000
18.044127 -34.974831 3.379464 9.000000
16.496117 -34.882050 3.313415 18.000000
17.186090 -34.636326 3.320259 3.000000
17.425117 -34.302265 3.303832 16.000000
-5.822584 -31.944534 3.357826 32.000000
-5.848886 -31.527058 3.315859 33.000000
-6.113398 -27.193653 3.375394 2.000000
-6.107830 -26.775547 3.325862 3.000000
-6.296180 -23.464895 3.373360 30.000000
-6.308578 -23.219421 3.340903 29.000000
-6.323701 -22.989382 3.310646 30.000000
-6.396629 -20.461723 3.360209 8.000000
-6.480387 -20.391788 3.353705 28.000000
-6.572257 -18.175484 3.376622 29.000000
-6.579318 -18.017799 3.351151 31.000000
-6.589543 -17.871344 3.327746 31.000000
-6.598914 -17.725002 3.304340 28.000000
-7.937380 -15.699680 3.391212 5.500000
-7.811462 -15.694736 3.379476 5.000000
-7.066475 -15.650461 3.310198 5.000000
-6.729122 -14.476796 3.369443 9.000000
-6.794785 -14.381132 3.357052 11.666667
-6.852171 -13.090292 3.393756 32.000000
-6.858702 -13.003186 3.376742 29.000000
-6.864789 -12.867546 3.349879 33.500000
-6.875878 -12.695610 3.316299 32.500000
-6.925814 -11.753011 3.386884 34.000000
-6.931411 -11.636868 3.362789 36.000000
-6.940144 -11.486761 3.331946 36.500000
-6.948286 -11.338661 3.301586 34.000000
-8.470663 -10.404586 3.330982 4.000000
-12.593575 4.289652 3.303031 0.000000
-12.915208 4.535500 3.398450 2.000000
-12.805768 4.542307 3.373391 2.000000
-12.636297 4.549271 3.334356 2.000000
-12.488910 4.562877 3.301104 2.000000
-5.553242 11.113781 3.320390 32.000000
-5.566606 11.273247 3.360153 26.000000
-5.573655 11.422624 3.396816 27.000000
-5.608901 12.166646 3.326163 17.000000
-5.614960 12.332523 3.364234 18.500000
-5.666165 13.264896 3.313165 10.000000
-5.670072 13.390328 3.340029 7.000000
-5.682297 13.537481 3.372265 6.000000
4.197158 27.687046 3.391264 56.500000
-5.431855 -39.602112 3.432508 60.000000
12.661877 -38.716187 3.497873 6.000000
12.738421 -38.539997 3.485553 7.000000
11.351880 -38.347889 3.434220 3.000000
11.957587 -38.180065 3.435589 3.000000
11.392274 -38.044788 3.410264 18.000000
13.023091 -37.800381 3.433193 6.000000
13.820871 -37.787739 3.455095 3.000000
13.056633 -37.514626 3.410949 3.000000
13.175748 -37.477180 3.411291 11.000000
15.796907 -37.269421 3.475971 14.000000
15.984988 -37.063309 3.466047 14.000000
16.702572 -37.112934 3.494793 9.000000
16.629681 -36.642929 3.455438 10.000000
17.471748 -36.646740 3.486238 7.000000
17.577078 -35.705608 3.417451 5.000000
18.268326 -35.684082 3.442433 6.000000
-5.743845 -33.287949 3.493193 24.000000
-5.771933 -32.834763 3.447522 26.000000
-5.797222 -32.381737 3.401851 25.000000
-6.032895 -28.069235 3.476863 32.000000
-6.027921 -27.623379 3.423965 79.000000
-6.092345 -27.503500 3.411461 18.000000
-6.253074 -24.213697 3.472383 31.000000
-6.266940 -23.956287 3.438275 31.000000
-6.281286 -23.706692 3.405267 30.000000
-6.537331 -18.814943 3.479883 33.000000
-6.544211 -18.645594 3.452347 28.000000
-6.554042 -18.487530 3.426876 30.000000
-6.564274 -18.333300 3.402093 32.000000
-6.755002 -16.829054 3.495696 4.000000
-6.648823 -16.793137 3.481689 24.500000
-8.034519 -15.707589 3.401054 2.000000
-7.157854 -14.906197 3.490046 2.000000
-7.151786 -14.774431 3.464438 2.000000
-7.156972 -14.667474 3.444613 2.000000
-7.166742 -14.571164 3.427266 2.000000
-6.815922 -13.273739 3.427335 13.500000
-6.846954 -13.180946 3.411665 31.000000
-6.894524 -12.265942 3.493387 33.000000
-6.903165 -12.102674 3.459171 35.000000
-6.912003 -11.943130 3.425919 32.500000
-6.918265 -11.824972 3.401342 34.000000
-9.534139 -11.561724 3.442110 1.000000
-8.095640 -11.495779 3.490785 8.000000
-7.966332 -11.487658 3.470737 8.000000
-7.855636 -11.481413 3.453870 8.000000
-6.957834 -11.040386 3.487701 35.000000
-6.960011 -10.929237 3.462914 33.000000
-7.335550 -10.830492 3.495963 5.000000
-7.232320 -10.823815 3.479095 5.000000
-7.076775 -10.773156 3.444841 2.500000
-6.960014 -10.779224 3.429177 16.000000
-13.061182 4.517675 3.431220 2.000000
-5.574781 11.516601 3.419538 31.000000
-5.585413 11.631598 3.448455 26.000000
-5.587069 11.729328 3.472209 24.000000
-5.626122 12.512846 3.406161 13.000000
-5.634207 12.636832 3.435076 15.000000
-5.636864 12.750336 3.461099 14.000000
-5.692150 13.681247 3.403606 5.000000
-5.696703 13.814390 3.432260 3.000000
-5.704893 13.958526 3.463601 2.000000
-5.706386 14.088391 3.491360 1.000000
15.514917 37.327274 3.471180 30.000000
15.459816 37.526913 3.485211 16.000000
15.879572 37.537369 3.499927 18.000000
15.240166 37.663944 3.488976 17.000000
15.367454 37.638016 3.491029 17.000000
15.118801 37.704239 3.488291 7.000000
15.152231 -38.407204 3.545443 7.000000
17.399778 -38.021942 3.590616 12.000000
16.435205 -37.780354 3.537914 9.000000
17.749075 -36.929317 3.518407 16.000000
18.135052 -36.839066 3.525936 9.000000
17.805916 -36.751434 3.506771 9.000000
18.140873 -36.560566 3.504718 11.000000
-5.700808 -34.324257 3.598112 3.000000
-5.704996 -33.694199 3.533926 67.000000
-5.923658 -28.883400 3.570637 6.000000
-5.999790 -28.794672 3.561981 33.000000
-6.017860 -28.433809 3.519663 30.000000
10.082817 -27.567499 3.554768 3.000000
10.107466 -27.368061 3.533128 66.000000
10.197559 -27.347332 3.534570 79.000000
-6.208799 -25.013699 3.578557 31.000000
-6.222595 -24.736639 3.541698 31.000000
-6.235689 -24.463577 3.505390 31.000000
-8.054461 -24.156286 3.535647 3.000000
-7.971083 -24.158895 3.532346 3.000000
-7.858778 -24.158136 3.527395 2.000000
-6.367058 -22.059185 3.598675 25.000000
-6.377615 -21.838030 3.565847 22.000000
-6.692994 -21.648327 3.551601 2.000000
-6.609935 -21.620117 3.543549 2.000000
-6.476598 -21.587528 3.532607 4.000000
-6.386841 -21.617027 3.533020 50.000000
-6.491819 -19.267797 3.552165 31.000000
-6.514225 -19.135405 3.531513 32.000000
-6.525606 -18.973255 3.505354 29.000000
-7.843027 -18.694349 3.541839 3.000000
-6.610863 -17.412378 3.590338 35.000000
-6.621960 -17.277832 3.566867 32.000000
-6.632782 -17.065231 3.529389 32.000000
-7.012714 -16.855259 3.519167 3.000000
-6.919064 -16.853565 3.511975 3.000000
-6.825533 -16.851435 3.504782 3.000000
-6.677379 -15.677802 3.596606 12.666667
-6.745049 -15.586988 3.584628 17.000000
-7.122737 -15.450410 3.590823 2.000000
-6.872950 -12.690189 3.583023 34.000000
-6.881446 -12.564015 3.556518 33.000000
-6.885026 -12.431280 3.528085 33.500000
-8.638906 -11.543663 3.579649 0.000000
-8.237796 -11.502143 3.512503 7.666667
-6.938347 -11.483788 3.585815 34.000000
-6.944099 -11.371799 3.561028 34.000000
-6.945378 -11.293968 3.543471 32.000000
-6.949523 -11.182349 3.518684 31.000000
-8.294747 -10.590096 3.595110 1.000000
-8.287303 -10.512396 3.577553 1.000000
-12.623898 4.544804 3.585815 2.000000
-12.478921 4.559227 3.550701 2.000000
-12.339539 4.574276 3.517135 1.500000
-5.595822 11.891912 3.512488 24.500000
-5.603323 12.054800 3.552766 18.000000
-5.607491 12.163589 3.579618 20.000000
-5.649622 12.944000 3.506399 12.000000
-5.653169 13.120203 3.546880 11.000000
-5.665293 13.262854 3.580613 9.000000
-5.712927 14.232876 3.522701 0.000000
16.006807 37.509293 3.501980 18.000000
15.792390 37.660576 3.506771 31.000000
12.292126 38.914581 3.504376 4.000000
12.430079 38.925129 3.508825 9.000000
12.908708 39.146885 3.539625 15.000000
12.798022 39.225136 3.543047 11.000000
13.105964 39.329212 3.559816 17.000000
12.718803 39.401684 3.555367 5.000000
13.273969 39.420040 3.571794 11.000000
17.423788 -39.374657 3.697390 6.000000
14.906276 -39.220436 3.602936 2.000000
15.027991 -39.169689 3.602594 17.000000
19.079206 -38.150166 3.662825 3.000000
18.501934 -37.884232 3.620390 3.000000
-5.631179 -35.274868 3.693979 22.000000
-5.677368 -34.860371 3.652423 48.000000
11.030786 -33.728802 3.669704 17.000000
11.731262 -33.706539 3.690688 2.000000
11.843697 -33.688286 3.692745 12.000000
12.103759 -33.418045 3.675464 7.000000
-6.026139 -29.859423 3.688937 1.000000
-6.172945 -25.911303 3.698483 3.000000
-6.178965 -25.579832 3.653924 3.000000
-6.185785 -25.260132 3.611014 42.000000
-6.345178 -22.513344 3.666189 28.000000
-6.358426 -22.291889 3.633361 27.000000
-6.580238 -18.010561 3.696337 28.000000
-6.585129 -17.849773 3.667566 32.000000
-6.597301 -17.711216 3.643338 34.000000
-6.604521 -17.561733 3.616838 29.000000
-7.786146 -15.705733 3.699862 5.000000
-7.072853 -15.664579 3.627583 5.000000
-6.919821 -15.652184 3.612025 5.000000
-7.119728 -15.572373 3.613953 2.000000
-6.746056 -14.453826 3.663734 15.500000
-6.815032 -14.365358 3.652093 7.000000
-6.845101 -13.177380 3.686634 28.000000
-6.850185 -13.036732 3.656274 32.500000
-6.862516 -12.863279 3.619648 35.000000
-6.907454 -11.935282 3.685479 33.500000
-6.919700 -11.785006 3.652430 33.000000
-9.314638 -11.551951 3.684225 5.500000
-6.926368 -11.628418 3.617315 33.000000
-7.664676 -11.202454 3.627643 3.000000
-7.716246 -11.127047 3.618864 2.000000
-13.019855 4.526349 3.683929 2.000000
-12.896189 4.528821 3.652946 1.000000
-12.794489 4.538306 3.628159 2.000000
-5.614881 12.332335 3.621446 18.500000
-5.622552 12.504905 3.664307 16.000000
-5.628870 12.624862 3.694257 15.000000
-5.672041 13.394980 3.611456 8.000000
-5.678015 13.527279 3.642298 8.000000
-5.687680 13.670503 3.676032 4.000000
16.043858 39.294666 3.644687 4.000000
13.834465 39.839081 3.621416 26.000000
14.076319 39.927513 3.635448 32.000000
-5.602723 -35.819138 3.749113 22.000000
11.549214 -34.218979 3.734713 15.000000
-5.891984 -30.683140 3.783673 31.000000
-5.891684 -30.169514 3.722600 37.000000
-5.953956 -29.987267 3.702402 30.000000
-6.149220 -26.362591 3.758722 31.000000
-6.303676 -23.201376 3.768389 30.000000
-6.319938 -22.975704 3.734942 29.000000
-6.332720 -22.742548 3.700256 29.000000
-6.396930 -20.462683 3.745607 15.000000
-6.481928 -20.396614 3.739067 23.000000
-6.553324 -18.475264 3.778865 33.000000
-6.562322 -18.317776 3.750851 29.000000
-6.570392 -18.160416 3.722837 33.000000
-7.945472 -15.715666 3.716795 5.500000
-7.851193 -15.712702 3.707296 6.000000
-7.155197 -14.900663 3.796709 2.000000
-7.154414 -14.779860 3.771636 2.000000
-7.159777 -14.673223 3.750145 2.000000
-7.161104 -14.559702 3.726863 2.000000
-6.841022 -13.271283 3.706875 28.000000
-6.790455 -13.275429 3.702055 9.000000
-6.880651 -12.423388 3.795470 32.500000
-6.891363 -12.260317 3.758806 32.500000
-6.901247 -12.099292 3.722659 32.500000
-8.245077 -11.512323 3.784453 5.333333
-8.111500 -11.502918 3.761732 6.000000
-13.230938 4.506752 3.735569 0.000000
-13.118053 4.514348 3.707683 2.000000
-5.640747 12.759117 3.728339 14.000000
-5.642377 12.908941 3.765175 13.333333
-5.686147 13.788794 3.703019 4.000000
-5.695670 13.935960 3.737717 3.000000
-5.705789 14.086916 3.773379 1.000000
19.584364 38.922249 3.741537 20.000000
18.932411 39.146133 3.734008 3.000000
18.709394 39.958435 3.788764 26.000000
-5.541617 -36.947495 3.863496 23.000000
-5.571505 -36.367496 3.804659 23.000000
-5.843946 -31.500427 3.879852 32.000000
-5.869956 -31.095608 3.832244 23.000000
-6.092105 -27.076859 3.853619 7.000000
-6.104825 -26.740852 3.808508 7.000000
-6.263749 -23.944090 3.879261 30.000000
-6.278214 -23.695097 3.842097 30.000000
-6.292202 -23.450068 3.805553 30.000000
-6.520739 -19.143587 3.898493 27.000000
-6.527165 -18.967024 3.866693 31.000000
-6.535131 -18.798029 3.836407 32.000000
-6.544702 -18.636581 3.807636 33.000000
-6.628252 -17.213560 3.893157 30.000000
-6.635369 -16.992544 3.850202 24.000000
-6.989198 -16.873375 3.854745 3.500000
-6.891093 -16.860863 3.844420 4.000000
-6.796216 -16.855003 3.835746 4.000000
-6.638494 -16.844173 3.821290 34.000000
-6.666786 -16.761414 3.807248 12.000000
-6.859296 -12.857237 3.894617 31.000000
-6.869090 -12.683064 3.854855 33.500000
-6.874075 -12.550557 3.824388 33.000000
-8.867873 -11.544184 3.890486 6.666667
-8.718662 -11.536454 3.864666 7.000000
-8.631771 -11.534130 3.850207 6.000000
-5.651754 13.116921 3.817158 10.000000
-5.654536 13.237673 3.847109 10.000000
-5.664156 13.376359 3.882223 7.000000
-5.712121 14.230867 3.807112 0.000000
4.242468 27.660074 3.885526 50.000000
4.162611 27.720282 3.892127 30.000000
4.336699 27.693581 3.892127 6.000000
-5.477864 -38.155231 3.986107 23.000000
-5.509873 -37.539471 3.923567 24.000000
15.033402 -35.468094 3.983639 2.000000
15.244920 -35.347359 3.980759 6.000000
15.743031 -35.276535 3.994748 3.000000
15.487222 -34.998360 3.957717 11.000000
15.744367 -34.983814 3.967181 12.000000
15.888726 -35.010262 3.975821 8.000000
15.940689 -34.833546 3.961421 13.000000
-5.794261 -32.365200 3.981802 24.000000
-5.819721 -31.928827 3.930346 26.000000
-4.149241 -28.234968 3.962543 36.000000
-4.059389 -28.240021 3.961443 36.000000
-3.923546 -28.239178 3.958692 36.500000
-3.519530 -28.256474 3.953741 19.000000
-5.548172 -28.149155 3.983723 34.500000
-5.415084 -28.173079 3.983448 35.000000
-5.279703 -28.184618 3.981523 35.000000
-5.098989 -28.197741 3.978772 35.000000
-4.963653 -28.207832 3.976846 35.000000
-4.826991 -28.209396 3.973821 35.500000
-4.644841 -28.209846 3.969695 36.000000
-4.509966 -28.219723 3.968044 35.000000
-4.374500 -28.224966 3.965844 35.000000
-4.239094 -28.229631 3.963643 35.000000
-3.740318 -28.220068 3.952641 33.500000
-3.605774 -28.225628 3.950990 28.000000
-6.035779 -28.058813 3.985098 31.000000
-5.862601 -28.111696 3.987299 33.000000
-5.728087 -28.129269 3.985923 34.000000
-6.035981 -27.637154 3.927885 72.000000
-6.080758 -27.428520 3.900929 9.000000
-6.220977 -24.730209 3.996945 31.000000
-6.237147 -24.469296 3.957923 30.000000
-8.063649 -24.183844 3.995707 3.000000
-7.980204 -24.186539 3.991990 3.000000
-7.848454 -24.169342 3.983009 3.000000
-6.249763 -24.200874 3.917663 31.000000
-6.372415 -21.820221 3.971404 23.000000
-6.696903 -21.660969 3.961077 2.000000
-6.615000 -21.636683 3.952816 2.000000
-6.472939 -21.575384 3.935377 3.333333
-6.388455 -21.622490 3.939049 46.000000
-6.488581 -19.448711 3.952249 0.000000
-6.503225 -19.290524 3.924235 27.000000
-7.889312 -18.713028 3.914771 4.000000
-6.599889 -17.718164 3.990630 34.000000
-6.608680 -17.572790 3.962544 29.000000
-6.616619 -17.427538 3.934459 29.000000
-7.074086 -15.667324 3.948487 5.000000
-6.922213 -15.657574 3.932220 5.000000
-6.672111 -15.688172 3.915803 9.000000
-7.122706 -15.578887 3.934608 2.000000
-6.747359 -15.592258 3.902371 11.000000
-7.122650 -15.450221 3.907744 2.000000
-6.879889 -14.443447 3.971927 0.000000
-6.745700 -14.453049 3.959879 18.500000
-6.784726 -14.359689 3.943012 16.000000
-6.817179 -13.276193 3.988600 19.500000
-6.845829 -13.178780 3.968977 34.000000
-6.849382 -13.035204 3.935411 31.500000
-9.439445 -11.569742 3.990665 7.000000
-9.318090 -11.568625 3.970010 7.000000
-9.189301 -11.562747 3.947289 6.000000
-9.012445 -11.556119 3.916649 5.666667
-5.669968 13.508109 3.915272 6.000000
-5.673517 13.636461 3.947289 5.000000
-5.683688 13.782827 3.984469 4.000000
-5.441478 -38.767216 4.048236 19.000000
13.598616 -37.180069 4.093907 9.000000
14.439586 -36.600822 4.068809 5.000000
14.514763 -36.455471 4.057699 3.000000
13.924397 -36.293232 4.019846 8.000000
15.568575 -35.788193 4.035892 6.000000
16.592258 -35.663422 4.067574 7.000000
15.607396 -35.571507 4.016966 9.000000
-5.740695 -33.269688 4.088560 22.000000
-5.768187 -32.813450 4.034700 24.000000
-5.980440 -28.232676 4.007103 36.000000
10.028042 -27.702164 4.090722 2.000000
10.066680 -27.360464 4.047996 46.000000
10.186295 -27.331694 4.050013 55.000000
-3.673867 -25.558052 4.047116 24.000000
-5.096415 -25.435703 4.066008 33.000000
-4.932739 -25.447826 4.062911 32.500000
-4.808727 -25.449463 4.059504 33.000000
-4.686959 -25.462093 4.057956 34.000000
-4.525840 -25.485205 4.057026 34.000000
-4.364957 -25.509243 4.056407 34.000000
-4.201714 -25.518616 4.053619 34.500000
-4.037289 -25.519140 4.049594 33.000000
-3.911581 -25.502762 4.044019 34.000000
-3.787279 -25.493519 4.039683 28.000000
-5.742297 -25.336210 4.071892 33.000000
-5.584692 -25.379509 4.073131 33.500000
-5.421816 -25.398642 4.070653 32.500000
-5.260534 -25.424463 4.069414 32.000000
-6.141927 -25.252480 4.073441 25.000000
-5.980827 -25.280968 4.071892 32.500000
-5.860742 -25.305052 4.071272 32.000000
-6.206085 -25.002764 4.037825 31.000000
-6.342849 -22.505083 4.084990 31.000000
-6.354076 -22.276640 4.047128 29.000000
-6.369395 -22.067280 4.012708 30.000000
-6.468544 -20.232046 4.094591 5.000000
-6.472889 -20.028494 4.057491 5.000000
-6.491870 -19.873653 4.030234 2.000000
-6.518565 -19.744999 4.008277 0.000000
-6.571084 -18.162331 4.076539 31.000000
-6.577075 -18.001905 4.045149 31.000000
-6.588895 -17.859983 4.017889 32.000000
-7.946961 -15.718618 4.045644 6.000000
-7.817652 -15.707159 4.029973 5.500000
-7.158257 -14.787800 4.078911 2.000000
-7.157009 -14.667549 4.051924 2.000000
-7.167073 -14.571836 4.031684 2.000000
-9.549057 -11.579815 4.011321 7.000000
-5.687139 13.915085 4.017518 3.000000
-5.697076 14.065406 4.055730 1.000000
-5.698926 14.197993 4.088779 0.000000
-5.409950 -39.442410 4.116948 21.000000
11.644603 -38.016560 4.111599 17.000000
12.042009 -38.030300 4.125177 19.000000
13.040565 -37.851101 4.139989 10.000000
12.617711 -37.776081 4.118594 3.000000
15.782955 -36.913315 4.151509 8.000000
16.266493 -36.759373 4.156858 11.000000
17.662151 -36.454704 4.188951 10.000000
17.713734 -36.270329 4.174139 18.000000
-5.709729 -33.722153 4.141939 40.000000
-3.619668 -26.355803 4.169756 25.000000
-3.645803 -25.941231 4.105958 28.000000
-8.136480 -25.056362 4.129186 2.000000
-7.748185 -25.061316 4.111533 3.000000
-7.669419 -25.085533 4.111533 3.000000
-7.585998 -25.094374 4.109056 3.000000
-8.293151 -25.002863 4.128876 2.000000
-3.772051 -23.602448 4.175859 27.000000
-3.796093 -23.283253 4.121476 27.000000
-4.638094 -23.148298 4.124574 32.000000
-4.491054 -23.169249 4.123197 33.000000
-4.346121 -23.200880 4.123885 32.000000
-4.197460 -23.212219 4.121131 32.500000
-4.045456 -23.203197 4.114936 32.000000
-3.894335 -23.197075 4.109428 26.000000
-5.450994 -23.041332 4.136621 32.500000
-5.266639 -23.069298 4.134097 32.333332
-5.081629 -23.093323 4.131113 32.000000
-4.933131 -23.109383 4.128360 32.500000
-4.784254 -23.122557 4.125262 32.500000
-6.316280 -22.962406 4.160715 32.000000
-6.231712 -22.936506 4.152454 34.000000
-6.040837 -22.944702 4.145226 33.000000
-5.893132 -22.968845 4.142816 33.000000
-5.745831 -22.993952 4.140751 33.000000
-5.598451 -23.018112 4.138686 33.000000
-6.908434 -22.853001 4.171041 1.000000
-6.150433 -22.921719 4.146258 32.000000
-7.050719 -22.805380 4.170352 2.000000
-6.973283 -22.808577 4.166910 3.000000
-7.531035 -22.705246 4.179301 4.000000
-7.380319 -22.727755 4.174827 4.000000
-6.328135 -22.726084 4.121476 32.000000
-6.429644 -20.783653 4.193776 5.000000
-6.398750 -20.455969 4.131691 17.000000
-6.457062 -20.417042 4.127905 20.000000
-6.544861 -18.637035 4.169056 31.000000
-6.554970 -18.479904 4.138492 24.000000
-6.561516 -18.315525 4.106277 33.000000
-6.923131 -16.863483 4.187125 3.500000
-6.635211 -16.913937 4.173245 25.000000
-6.815758 -16.827299 4.170111 3.000000
-6.663787 -16.753874 4.141457 5.000000
-6.690249 -16.667732 4.125339 2.000000
-6.729719 -15.418580 4.176740 4.000000
-7.115285 -14.937630 4.107826 0.000000
-7.150416 -14.890706 4.101079 2.000000
15.933978 -37.592808 4.222279 8.000000
17.024927 -37.513844 4.260132 7.000000
18.011181 -37.474667 4.299631 16.000000
16.414701 -37.411476 4.224747 7.000000
