# This PCD file was generated using the MATLAB® pcwrite function
# from Computer Vision Toolbox®.
# .PCD v.7 - Point Cloud Data file format
VERSION .7
FIELDS x y z intensity
SIZE 4 4 4 4
TYPE F F F F
COUNT 1 1 1 1
WIDTH 1215
HEIGHT 1
VIEWPOINT 0 0 0 1 0 0 0
POINTS 1215
DATA ascii
14.456414 -4.974968 3.511657 60.333332
14.210917 -2.873205 3.599569 60.000000
14.196703 -2.731318 3.589288 51.333332
14.179039 -2.566585 3.577481 47.750000
14.162749 -2.403099 3.566477 48.000000
14.156948 -2.287848 3.560373 37.500000
-13.103303 5.403464 3.518929 5.000000
-13.421249 5.436169 3.595071 5.000000
-13.256769 5.418086 3.555554 5.000000
-10.575863 8.123948 3.564127 6.000000
-10.499273 8.144091 3.551217 13.000000
-10.413646 8.156540 3.535209 9.000000
-10.294796 8.141941 3.507840 9.000000
-10.282804 8.588615 3.580651 10.000000
-9.692205 10.485041 3.544952 13.666667
-9.903230 10.545809 3.591697 5.500000
-9.681440 10.639812 3.571457 39.500000
-9.665289 10.791205 3.596677 48.666668
-9.532003 11.974846 3.515537 42.000000
-11.877629 12.065680 3.573477 4.000000
-11.790398 12.052579 3.558608 4.000000
-11.714286 12.050270 3.547043 5.000000
-11.627427 12.036343 3.532174 5.000000
-9.517994 12.112669 3.538371 40.000000
-9.503826 12.252321 3.561653 40.000000
-9.482525 12.425254 3.590158 41.000000
-9.281034 14.080863 3.559434 24.000000
-9.267114 14.253763 3.588345 5.000000
-9.108040 15.737630 3.505160 38.500000
-9.093358 15.884329 3.528253 43.000000
-9.078345 15.974281 3.541882 37.000000
-9.068640 16.074562 3.557781 32.000000
-9.060319 16.178364 3.574438 36.000000
-9.041954 16.325686 3.597531 40.500000
-11.615420 16.687532 3.552165 1.000000
-11.742413 16.757444 3.574883 0.000000
-11.556217 16.714214 3.550100 1.000000
-9.578943 20.264418 3.513199 1.000000
-8.557719 20.742025 3.516915 4.000000
-8.540370 20.885859 3.536736 3.000000
-8.525180 21.037107 3.557795 1.000000
-8.504704 21.177465 3.576997 1.000000
4.105940 28.922539 3.537696 36.000000
4.244834 28.920580 3.539860 26.000000
-7.704813 -34.782883 3.684105 2.000000
-6.766507 -34.649220 3.650777 4.000000
-9.205060 -34.329781 3.675464 14.000000
-10.341503 -33.846649 3.659829 25.000000
-9.301403 -33.837742 3.628971 52.000000
-9.202359 -33.893677 3.631851 50.000000
-10.426635 -33.745564 3.652423 55.000000
-10.469716 -33.511364 3.630616 59.000000
-10.528205 -33.330338 3.614570 53.000000
5.844598 -25.934538 3.691332 2.000000
4.778902 -25.684559 3.627518 9.000000
5.834197 -25.514370 3.634119 1.000000
-16.754871 -24.924486 3.637001 1.000000
-16.661055 -24.953878 3.633634 4.000000
-13.523046 -22.957577 3.699584 30.000000
-13.572864 -22.877497 3.693532 23.000000
5.945534 -20.097546 3.661622 0.000000
-13.121784 -19.446575 3.677029 14.000000
-13.132079 -19.265350 3.654421 28.000000
-13.118750 -19.116474 3.633981 28.000000
-13.102369 -18.964622 3.612921 29.000000
9.106040 -18.653622 3.626513 2.000000
9.568300 -18.411901 3.625136 4.000000
9.971552 -18.266251 3.635807 7.000000
11.265025 -17.930170 3.699484 14.000000
7.420191 -17.523371 3.668323 8.000000
7.850432 -17.459856 3.690280 4.000000
7.166363 -17.378294 3.623652 0.000000
7.413488 -17.355497 3.638038 1.000000
7.946916 -17.381607 3.684223 3.000000
11.135653 -17.358885 3.603107 14.000000
8.413933 -17.243481 3.698609 1.000000
8.262174 -17.068319 3.655452 1.000000
11.726720 -17.075247 3.618941 8.000000
4.316366 -16.921431 3.685819 21.000000
5.058461 -16.722778 3.687471 24.000000
4.817511 -16.679741 3.664342 2.000000
4.582578 -16.546879 3.623865 10.000000
5.009070 -16.373716 3.613953 10.000000
5.420202 -16.246378 3.614779 14.000000
6.420545 -15.995803 3.637908 16.000000
9.620948 -16.056225 3.608257 34.666668
10.331971 -15.891619 3.653938 15.000000
10.753013 -15.876163 3.696337 6.000000
10.312732 -15.646019 3.612295 6.000000
10.792737 -15.615793 3.659238 2.000000
11.413638 -15.251375 3.672109 18.000000
11.482766 -15.243678 3.678923 7.000000
11.568564 -15.257606 3.691037 24.000000
8.469923 -15.179911 3.668885 12.500000
8.522134 -14.995574 3.640386 17.000000
9.108053 -14.706973 3.651125 12.000000
9.185712 -14.575365 3.636256 19.000000
-12.568801 -14.392669 3.683466 35.000000
-12.554321 -14.285255 3.666052 36.000000
-12.539326 -14.133411 3.642202 40.500000
4.060064 -14.057220 3.632660 4.000000
-12.515444 -13.973206 3.616081 34.000000
4.346173 -13.894145 3.614347 5.000000
5.245828 -13.817005 3.669285 18.000000
5.088502 -13.792987 3.650009 1.000000
5.099288 -13.689622 3.626877 3.000000
6.360685 -13.353442 3.672177 10.000000
3.546439 -13.044059 3.612668 4.000000
3.822550 -12.929569 3.603373 4.000000
4.457761 -12.953623 3.661208 13.000000
4.935847 -12.758384 3.656044 13.000000
5.207405 -12.516144 3.622995 41.000000
5.248196 -12.503285 3.624028 20.000000
-12.330358 -12.330431 3.680449 38.000000
6.085573 -12.307775 3.669471 19.000000
5.745600 -12.210079 3.606471 11.500000
-12.307333 -12.153715 3.650712 38.500000
-12.298777 -12.031243 3.631300 41.000000
-12.279397 -11.899639 3.608996 38.000000
-12.134346 -10.496359 3.685225 8.500000
-12.105204 -10.338881 3.656570 8.500000
-12.102879 -10.206059 3.636423 8.000000
-12.076866 -10.055006 3.609560 9.500000
-11.924189 -8.836369 3.684707 43.000000
14.842377 -8.809256 3.642864 0.000000
-11.907404 -8.708559 3.662539 42.500000
14.883688 -8.739236 3.642864 48.500000
-11.900505 -8.589265 3.643744 39.000000
14.863661 -8.571259 3.621387 47.000000
-11.877319 -8.431520 3.616275 39.666668
14.845431 -8.406025 3.600736 49.500000
-11.740471 -7.220047 3.683585 43.333332
-11.715309 -7.040749 3.652946 45.000000
-11.704688 -6.897400 3.630913 44.000000
-11.686072 -6.763306 3.608536 47.000000
14.649966 -6.698003 3.700000 53.000000
14.638702 -6.609654 3.689255 49.500000
14.621183 -6.464025 3.671942 59.666668
14.610126 -6.322389 3.656570 55.500000
14.589285 -6.177826 3.639109 55.666668
14.569972 -6.008350 3.620006 47.666668
14.552879 -5.867956 3.604187 51.500000
14.333098 -3.921157 3.689285 51.250000
14.312490 -3.746837 3.673141 58.000000
14.290695 -3.597568 3.658683 59.666668
14.279944 -3.452078 3.647439 64.000000
14.263937 -3.306253 3.635230 57.000000
14.247724 -3.161291 3.623343 53.666668
14.231314 -3.017201 3.611777 56.666668
14.332506 -2.246973 3.601818 26.000000
14.516004 -2.229041 3.646153 41.000000
14.500226 -2.133471 3.638764 55.666668
14.581311 -2.051864 3.655792 9.000000
-12.646867 5.355259 3.670503 3.000000
-13.754546 5.470819 3.675068 5.000000
-13.585976 5.453264 3.634588 5.000000
-10.769361 8.192127 3.616282 3.500000
-11.013365 8.215027 3.672052 6.000000
-10.905062 8.214572 3.648815 5.000000
-10.287571 8.702988 3.601307 9.000000
-10.279019 8.835150 3.622479 9.500000
-10.260211 8.960091 3.640553 9.666667
-10.241706 9.115478 3.664307 9.666667
-10.224304 9.244870 3.683929 9.000000
-9.827505 9.286930 3.613700 13.250000
-10.168803 9.321075 3.686684 6.000000
-9.791046 9.428816 3.632807 9.000000
-10.007548 10.556823 3.611456 6.000000
-9.647904 10.943453 3.622058 45.500000
-9.637579 11.071203 3.644226 47.000000
-9.619305 11.227150 3.670570 42.333332
-9.603003 11.351560 3.691453 43.000000
-12.258685 12.105503 3.636256 5.000000
-12.088276 12.088207 3.608171 4.500000
-12.476825 12.128951 3.672602 2.000000
-12.385505 12.116086 3.656907 5.000000
-9.466931 12.567605 3.614037 43.000000
-9.460106 12.640979 3.626573 41.000000
-9.449126 12.751206 3.645378 41.500000
-9.427503 12.890569 3.668211 43.500000
-9.396095 13.004173 3.685076 10.333333
-10.253442 16.156769 3.688766 6.000000
-10.139568 16.145079 3.675138 6.000000
-10.061781 16.133526 3.665295 6.000000
-9.020650 16.469725 3.619867 37.000000
-9.006462 16.629490 3.645609 38.000000
-8.991117 16.789455 3.671352 41.000000
-8.980719 16.897392 3.688766 42.000000
-8.805229 18.780081 3.623760 1.000000
-8.743107 18.878555 3.634774 16.500000
-10.113968 20.801086 3.625309 2.000000
-9.978166 20.770191 3.611683 4.000000
-9.885668 20.744356 3.601772 0.000000
-8.841795 -35.647987 3.798076 4.000000
-7.777031 -35.638802 3.772155 14.000000
-7.656669 -35.624161 3.768040 9.000000
-8.926586 -35.511993 3.786555 17.000000
-9.016502 -35.398949 3.777503 3.000000
-7.115532 -35.257343 3.719489 6.000000
-7.192688 -35.071114 3.702208 18.000000
-9.221405 -34.827774 3.725661 2.000000
-11.698005 -34.739853 3.790670 2.000000
-11.586292 -34.768887 3.789847 5.000000
-11.458313 -34.748436 3.783675 6.000000
-9.917664 -34.793175 3.741296 22.000000
-10.039093 -34.397884 3.705500 8.000000
-10.261858 -34.357002 3.707968 2.000000
-10.138096 -34.335648 3.702208 44.000000
-12.501847 -34.255505 3.770920 3.000000
-12.138586 -34.259300 3.758577 2.000000
-12.561251 -34.085396 3.756520 8.000000
-12.319789 -34.088810 3.748291 3.000000
-12.633583 -33.952534 3.746233 13.000000
2.615941 -31.217709 3.793772 3.000000
3.006872 -31.170513 3.792329 44.000000
3.872091 -30.954838 3.777903 6.000000
3.069343 -30.805285 3.749049 57.000000
3.211833 -30.764765 3.745923 12.000000
3.358247 -30.763145 3.747606 32.000000
3.723659 -27.042952 3.790354 8.000000
3.803625 -26.995810 3.785403 7.000000
3.933340 -26.995197 3.787879 33.000000
4.995597 -26.849205 3.792005 10.000000
5.174681 -26.871756 3.799706 18.000000
4.624705 -26.718567 3.765049 38.000000
4.524819 -26.639221 3.751846 16.000000
4.702431 -26.668791 3.760098 5.000000
4.832304 -26.669691 3.763398 11.000000
4.173127 -26.588297 3.736992 18.000000
4.338821 -26.553730 3.735892 39.000000
5.020966 -26.521952 3.747995 32.000000
4.235959 -26.445955 3.718838 31.000000
4.410500 -26.469624 3.725990 34.000000
19.131477 -24.726467 3.786078 20.000000
19.249714 -24.558891 3.778864 17.000000
9.756026 -18.918152 3.718759 27.000000
-14.734488 -18.697325 3.731225 2.000000
-14.658628 -18.721739 3.726890 5.000000
10.951033 -18.710451 3.787600 12.000000
-15.224046 -18.646530 3.773035 1.000000
-14.905917 -18.672319 3.744852 2.000000
-14.820170 -18.685001 3.738039 4.000000
6.041842 -18.495974 3.750851 9.000000
6.306713 -18.515261 3.770537 1.000000
5.795013 -18.323658 3.704666 5.000000
8.226789 -17.411770 3.712237 0.000000
-12.915552 -17.378132 3.782781 32.000000
3.444329 -17.315811 3.726295 4.000000
-12.899274 -17.242815 3.762129 34.000000
-12.875162 -17.098331 3.739411 30.000000
4.427278 -17.131355 3.734555 32.000000
5.004920 -17.126591 3.765945 1.000000
5.302232 -17.139338 3.786597 3.000000
4.586512 -17.081310 3.732903 19.000000
-13.263170 -16.939486 3.758687 1.000000
-13.142158 -16.948822 3.746984 5.000000
-13.026136 -16.963730 3.736658 5.000000
-12.864553 -16.973013 3.720824 53.000000
-12.879568 -16.882393 3.709810 6.000000
5.033934 -16.832329 3.708122 14.000000
5.651256 -16.763321 3.733730 4.000000
6.364594 -16.606316 3.753555 19.000000
6.416733 -16.586239 3.753555 1.000000
9.818848 -16.543400 3.708452 6.000000
5.966573 -16.491470 3.701514 3.000000
7.345521 -16.200628 3.754381 13.000000
7.982583 -16.101969 3.793205 28.000000
10.577608 -16.158123 3.722837 6.000000
7.862863 -15.986489 3.760163 39.000000
10.870337 -15.834191 3.702394 20.000000
8.568533 -15.586111 3.753968 13.500000
9.130174 -15.493775 3.795683 28.000000
9.168818 -15.448189 3.791553 25.000000
11.772658 -15.325751 3.725361 7.666667
8.764774 -15.199405 3.703166 29.000000
8.939154 -15.279160 3.736208 3.000000
12.556823 -15.130136 3.790222 2.000000
12.327085 -15.044678 3.749337 1.000000
9.561878 -14.911322 3.738686 35.000000
9.979209 -14.833846 3.773380 4.000000
9.547523 -14.718746 3.702890 14.666667
9.678085 -14.750396 3.723541 23.333334
9.695366 -14.609285 3.700688 15.000000
9.789047 -14.650347 3.718861 16.000000
-12.575484 -14.584396 3.712237 24.333334
10.173518 -14.572544 3.751076 22.000000
5.991127 -13.904564 3.758921 0.000000
3.421780 -13.775209 3.793404 29.000000
3.460323 -13.745653 3.788240 14.000000
3.581277 -13.506850 3.734536 6.000000
4.424266 -13.472437 3.789789 17.000000
3.683800 -13.383080 3.709749 3.000000
5.657506 -13.017587 3.793404 7.000000
-12.397244 -12.914185 3.778336 39.000000
5.709387 -12.914628 3.773781 9.666667
-12.383006 -12.778355 3.755620 39.500000
-12.361628 -12.596937 3.725056 40.000000
-12.342403 -12.459281 3.701514 33.000000
-12.188138 -11.125398 3.790440 33.000000
-12.150841 -11.021572 3.768054 16.000000
-12.188107 -10.951175 3.763577 11.000000
-12.172635 -10.833994 3.742981 9.000000
-12.156967 -10.751793 3.727759 9.000000
-12.140014 -10.635315 3.707163 9.000000
-12.004720 -9.463876 3.795225 37.333332
-11.975468 -9.289164 3.762776 35.500000
-11.962695 -9.159464 3.740608 40.500000
-11.951876 -9.032622 3.719404 41.000000
-11.935290 -8.931985 3.701092 34.000000
-16.004715 -8.028463 3.779162 2.000000
-15.851522 -8.045412 3.751903 3.000000
-15.759964 -8.061312 3.736208 2.000000
-11.811340 -7.811869 3.784626 37.500000
-11.788587 -7.664469 3.757945 41.666668
-11.774660 -7.524456 3.734536 42.500000
14.738344 -7.509588 3.799395 54.000000
-11.759170 -7.385182 3.711126 38.000000
14.722421 -7.356455 3.780292 47.000000
14.707444 -7.205123 3.761786 50.500000
14.692720 -7.083801 3.746563 56.000000
14.672662 -6.932675 3.727460 53.666668
14.658897 -6.785809 3.710298 58.000000
14.447217 -4.971803 3.793298 59.000000
14.432055 -4.814950 3.777234 53.000000
14.416456 -4.659226 3.761491 57.333332
14.394274 -4.502663 3.744464 59.000000
14.376618 -4.348815 3.729043 56.000000
14.357346 -4.195704 3.713621 61.666668
14.346943 -4.070612 3.702538 52.000000
-13.104048 5.403771 3.788240 5.000000
-12.947858 5.387023 3.747962 5.000000
-12.791905 5.369341 3.707683 4.000000
-13.937807 5.493055 3.719404 5.000000
-14.110492 5.509964 3.760849 5.000000
-11.513278 8.254800 3.786175 6.500000
-11.353331 8.248607 3.750544 5.000000
-11.175239 8.226997 3.708716 6.000000
-10.208320 9.377172 3.704585 9.000000
-10.447379 10.883015 3.745428 1.000000
-10.313992 10.811847 3.709766 5.000000
-9.594773 11.414359 3.702055 40.000000
-9.585552 11.513156 3.719404 43.000000
-9.566940 11.676184 3.747677 44.666668
-9.553383 11.848164 3.778680 43.000000
-9.231240 15.278486 3.767597 7.500000
-9.149031 15.305089 3.763467 42.000000
-9.399591 15.338686 3.796922 6.000000
-9.142488 15.459211 3.790727 30.500000
-11.005935 16.031719 3.748580 6.000000
-10.867411 16.045244 3.735708 4.000000
-11.170139 16.161844 3.787194 1.000000
-10.367605 16.167828 3.702394 2.000000
-8.966074 16.998476 3.704666 35.000000
-8.956339 17.110077 3.722837 40.000000
-8.945998 17.221779 3.741008 40.000000
-8.922079 17.375565 3.765237 39.000000
-8.907727 17.550493 3.794008 36.000000
-8.600341 -36.128410 3.840455 17.000000
-8.494979 -36.190113 3.844158 14.000000
-9.923912 -35.663597 3.828111 1.000000
-9.183342 -35.586189 3.800544 2.000000
-9.964713 -35.379478 3.800956 4.000000
-13.071811 -34.795414 3.843746 9.000000
-13.138723 -34.642570 3.831403 21.000000
-13.192012 -34.456211 3.815356 18.000000
-13.274379 -34.347794 3.807950 6.000000
2.844467 -31.560555 3.837533 76.000000
2.722596 -31.308237 3.805794 34.000000
2.922948 -31.330050 3.810603 48.000000
3.907546 -27.733379 3.888826 18.000000
3.517962 -27.461971 3.844266 2.000000
3.601119 -27.427214 3.840966 4.000000
4.214797 -27.415800 3.851418 16.000000
4.110365 -27.307453 3.834364 16.000000
-11.353733 -25.693760 3.900379 27.000000
-11.467989 -25.410557 3.870947 33.000000
-11.334408 -25.433596 3.866271 31.000000
-12.107718 -25.327387 3.897903 31.000000
-11.927258 -25.358149 3.891027 34.000000
-11.787593 -25.370996 3.884425 34.000000
-11.650557 -25.388412 3.878649 33.000000
19.144821 -25.231510 3.835610 2.000000
19.274605 -25.237516 3.845709 1.000000
19.416721 -25.258694 3.858212 1.000000
19.292019 -24.772764 3.802428 6.000000
19.548124 -24.778887 3.822145 15.000000
19.686077 -24.633856 3.818779 16.000000
19.524633 -24.589846 3.802428 46.000000
19.757004 -24.485184 3.810122 7.500000
-13.722381 -24.333431 3.878924 26.000000
-14.056046 -24.121555 3.876449 5.500000
-13.909553 -24.130939 3.867372 7.000000
-13.737282 -24.123060 3.854536 35.000000
6.670747 -23.924173 3.892887 2.000000
-13.331106 -20.941772 3.891029 32.000000
-13.309397 -20.763384 3.865634 31.000000
-13.589831 -20.531944 3.859233 3.666667
-13.441739 -20.541132 3.847672 3.000000
-13.271696 -20.562098 3.835903 49.000000
-13.310384 -20.480543 3.828470 6.000000
11.560092 -18.790659 3.854375 2.000000
-12.997565 -18.074713 3.889483 34.000000
7.926789 -18.083448 3.806122 1.000000
-12.980349 -17.931650 3.867455 30.000000
-12.967004 -17.795246 3.846802 30.000000
8.790492 -17.872511 3.839436 10.000000
4.931132 -17.697102 3.877462 0.000000
9.007273 -17.746630 3.836407 13.000000
-12.948272 -17.652750 3.824773 34.000000
-12.928770 -17.510546 3.802744 34.000000
5.512491 -17.430334 3.858463 6.000000
5.897834 -17.138271 3.825421 1.000000
6.805648 -17.110533 3.886548 5.000000
10.528075 -17.119835 3.874264 22.000000
10.645914 -17.190189 3.897735 36.000000
7.008185 -16.994717 3.879940 1.000000
7.140580 -17.011694 3.893982 1.000000
10.659709 -16.973286 3.863664 36.000000
10.874285 -16.841297 3.864421 8.000000
10.444214 -16.746742 3.804608 38.000000
7.156560 -16.609369 3.817160 20.000000
11.111290 -16.629223 3.855336 6.000000
7.741176 -16.518137 3.850202 6.000000
11.467144 -16.591579 3.887893 20.000000
7.785377 -16.410732 3.833681 14.500000
11.212204 -16.442638 3.836407 4.000000
8.570526 -16.125605 3.854332 30.000000
8.663641 -16.177952 3.873331 16.000000
8.763077 -16.179941 3.883657 11.500000
11.991366 -16.128740 3.874264 16.000000
8.338786 -16.052843 3.817986 11.000000
8.861518 -15.707427 3.806422 6.000000
9.418118 -15.755239 3.874157 22.000000
-12.763312 -15.677283 3.896978 2.000000
9.398111 -15.554910 3.835746 14.500000
12.228559 -15.511855 3.807636 0.000000
12.455412 -15.496943 3.832622 37.000000
12.327200 -15.486299 3.815586 23.000000
12.422517 -15.356966 3.807636 0.000000
12.465742 -15.311772 3.806122 14.000000
10.409597 -15.061436 3.864245 40.000000
10.289133 -14.987585 3.836985 0.000000
8.146654 -14.690920 3.858495 22.000000
8.649212 -14.468965 3.871926 24.000000
5.608811 -14.363626 3.828317 10.000000
6.067132 -14.328016 3.863014 6.000000
8.997895 -14.260867 3.873120 28.000000
9.038047 -14.192356 3.864763 13.000000
6.116792 -14.074376 3.810004 3.000000
9.273767 -13.974006 3.852226 28.000000
3.698852 -13.775445 3.811994 6.000000
3.842000 -13.788366 3.825420 15.000000
4.383670 -13.711061 3.847109 10.000000
4.796426 -13.658219 3.868797 4.000000
-12.475646 -13.581426 3.892330 34.000000
5.028730 -13.500204 3.850207 17.000000
-12.462459 -13.481813 3.874983 38.000000
5.120311 -13.486406 3.855371 14.000000
-12.451438 -13.385283 3.858463 34.000000
-12.436621 -13.243746 3.834507 33.000000
-12.413067 -13.053306 3.801878 37.000000
-12.260584 -11.732925 3.897894 37.000000
-12.250714 -11.613309 3.877299 24.000000
-12.198752 -11.229177 3.808349 26.666666
-12.013453 -9.906647 3.865906 9.000000
-12.041929 -9.835203 3.860123 24.500000
-12.030828 -9.731948 3.841810 37.000000
-12.022004 -9.662489 3.829280 39.000000
-12.012867 -9.593176 3.816751 37.000000
-11.877178 -8.403326 3.888420 41.000000
-11.872368 -8.316207 3.873961 38.000000
-11.860370 -8.252385 3.861568 37.000000
14.827827 -8.273443 3.900133 48.500000
-11.847363 -8.147134 3.842720 42.500000
14.814608 -8.144432 3.883119 49.000000
-16.281492 -8.007960 3.829551 0.000000
-16.172102 -8.017347 3.809726 2.000000
-11.831336 -7.959417 3.810961 45.333332
14.791722 -7.981258 3.860584 49.666668
14.778774 -7.824996 3.841033 46.000000
14.758429 -7.666467 3.819990 56.000000
14.545894 -5.865139 3.893857 58.000000
14.526439 -5.698723 3.874098 56.000000
14.540932 -5.783599 3.885182 55.000000
14.514522 -5.562932 3.859159 52.000000
14.494758 -5.399245 3.840204 47.333332
14.482639 -5.265541 3.825907 62.000000
14.465574 -5.131110 3.810647 58.666668
14.244117 -3.160486 3.899436 64.666664
14.224129 -3.015673 3.886010 66.333336
14.210251 -2.873066 3.874650 59.333332
14.200015 -2.731955 3.864666 48.666668
14.179262 -2.612628 3.853305 43.500000
14.172571 -2.519422 3.847109 37.500000
14.153789 -2.401591 3.836781 42.333332
14.160805 -2.288465 3.833683 33.500000
14.347064 -2.249255 3.881191 24.000000
15.476099 -2.128218 3.878436 21.000000
-13.438603 5.443198 3.874994 5.000000
-13.267622 5.422521 3.830584 5.000000
-14.662647 5.566890 3.893857 4.000000
-14.471086 5.546236 3.847593 4.000000
-14.287039 5.527241 3.803257 5.000000
-11.745121 8.282205 3.840912 4.000000
-11.643418 8.265374 3.816125 4.000000
-9.693311 10.486218 3.816470 13.333333
-10.066720 10.552639 3.897715 1.000000
-10.012246 10.561779 3.889453 6.000000
-9.939271 10.550986 3.873961 7.000000
-9.861182 10.534199 3.856404 4.000000
-9.678730 10.636833 3.843494 42.500000
-9.663155 10.788815 3.870863 40.666668
-9.648456 10.944082 3.899264 42.000000
-9.535578 11.979326 3.801330 38.500000
-11.874972 12.062982 3.888044 3.000000
-11.804299 12.066791 3.877299 3.000000
-11.714705 12.050702 3.860286 4.000000
-11.628036 12.036973 3.844167 3.000000
-9.517683 12.112267 3.824461 39.000000
-9.503456 12.212124 3.841810 42.000000
-9.495531 12.321348 3.862051 41.000000
-9.481372 12.464203 3.888074 46.000000
-9.279801 14.079008 3.873120 22.333334
-9.505754 15.349156 3.810552 6.000000
-9.130861 15.606837 3.816334 39.000000
-9.113029 15.746240 3.839877 37.000000
-9.098091 15.892596 3.865071 33.000000
-9.080881 16.037479 3.889852 37.000000
-11.060385 16.440983 3.819751 3.500000
-10.746455 16.643316 3.818993 9.000000
-8.891408 17.655569 3.810665 37.000000
-8.843073 17.767590 3.825808 14.500000
-8.930187 20.104660 3.843360 2.000000
-8.768234 20.079113 3.827871 1.500000
-8.616185 20.074097 3.816513 7.000000
-9.108486 20.191776 3.869979 0.666667
-9.250675 20.223866 3.885353 2.000000
-8.598554 20.385632 3.865389 7.000000
-8.575170 20.600529 3.898433 6.000000
3.762922 -32.571800 3.970741 12.000000
3.649942 -32.488754 3.959200 14.000000
2.608814 -32.353840 3.930827 31.000000
3.418531 -32.254372 3.927942 8.000000
3.512089 -32.172417 3.919285 3.000000
-8.831414 -31.737482 3.989496 6.000000
-6.924490 -31.731970 3.933231 7.000000
-9.219518 -31.589697 3.985168 3.000000
-8.528826 -31.412951 3.941887 2.000000
-10.078401 -31.221949 3.973145 7.000000
-10.139481 -31.076881 3.958719 3.000000
2.927044 -28.519144 3.980697 37.000000
2.832335 -28.476946 3.973546 19.000000
3.553948 -28.451815 3.981247 42.000000
3.830914 -28.483812 3.990599 37.000000
3.267024 -28.322676 3.958692 19.000000
3.681035 -28.381683 3.973821 36.500000
3.074842 -28.212667 3.940538 47.000000
3.171852 -28.277678 3.950990 43.000000
4.718550 -27.779785 3.912482 1.000000
-12.340118 -25.300999 3.908631 33.000000
-12.245046 -25.307541 3.903680 30.000000
-13.136721 -25.203110 3.946314 37.000000
-12.996927 -25.224279 3.939988 35.000000
-12.853651 -25.237541 3.932561 35.500000
-12.664640 -25.257595 3.923209 33.500000
-12.525234 -25.276213 3.916883 33.000000
-12.431779 -25.286993 3.912482 33.000000
-13.756090 -25.126017 3.977396 41.000000
-13.614908 -25.148706 3.970795 40.000000
-13.420273 -25.165585 3.960068 36.000000
-13.278426 -25.184782 3.953191 36.000000
-13.632123 -24.714935 3.919083 8.000000
-13.725225 -24.608891 3.912482 20.000000
6.206441 -24.636066 3.982080 5.000000
7.039665 -24.357567 3.974028 3.000000
7.055146 -24.126722 3.939961 2.000000
7.934108 -24.018650 3.964737 1.000000
-13.416348 -21.672121 3.995087 30.000000
-13.394472 -21.485666 3.968453 33.000000
-13.375755 -21.306259 3.943058 31.000000
-13.349714 -21.117163 3.915805 32.000000
11.232960 -19.471748 3.927346 4.000000
-13.067741 -18.662670 3.980353 30.000000
-13.049122 -18.512024 3.956947 33.000000
-13.034245 -18.368105 3.934918 30.000000
-13.016305 -18.221260 3.912201 39.000000
5.054697 -17.922600 3.930329 10.000000
10.430717 -17.828598 3.981777 6.000000
5.805930 -17.586393 3.908851 10.000000
10.536428 -17.500954 3.937864 27.000000
7.163774 -17.218332 3.936111 28.000000
3.962246 -16.853580 3.976694 6.000000
4.069947 -16.836008 3.978485 16.000000
8.202201 -16.809559 3.947675 2.000000
4.822484 -16.696960 3.991917 10.000000
3.796412 -16.615982 3.914908 6.000000
11.586510 -16.652193 3.910607 1.000000
5.219400 -16.503588 3.975799 13.000000
9.403372 -16.425858 3.994760 3.000000
9.953650 -15.960148 3.969979 6.000000
-12.716398 -15.770864 3.905307 28.500000
7.360204 -15.705218 3.983858 12.000000
9.866362 -15.710052 3.915460 8.000000
6.978737 -15.652444 3.936399 4.000000
7.132432 -15.600158 3.939981 17.000000
7.041532 -15.530174 3.916699 1.000000
10.307818 -15.532147 3.934459 14.000000
7.488021 -15.345922 3.922071 25.000000
10.449263 -15.323790 3.914634 54.000000
8.480531 -15.143081 3.986544 42.000000
8.669374 -14.606697 3.901476 1.000000
9.394040 -14.649586 3.997289 29.000000
9.046232 -14.505153 3.926549 13.000000
9.386025 -14.436658 3.955203 18.000000
9.448658 -14.335084 3.943562 8.000000
9.979866 -14.247434 3.995498 5.000000
-12.545556 -14.140438 3.989804 36.500000
4.841291 -14.068109 3.976206 2.000000
-12.523335 -13.982016 3.961718 37.000000
4.855009 -13.965228 3.951420 13.000000
5.250672 -13.961790 3.986534 7.000000
-12.511587 -13.837233 3.937350 34.500000
-12.488326 -13.681255 3.909677 35.000000
-12.323460 -12.246354 3.990573 32.500000
-12.313023 -12.121114 3.968635 36.000000
-12.298092 -12.030574 3.951621 35.000000
-12.280408 -11.900614 3.927892 30.500000
-12.127531 -10.490463 3.981083 9.500000
-12.104660 -10.338402 3.952168 9.000000
-12.098137 -10.202096 3.929037 10.000000
-12.075495 -10.053829 3.901085 10.000000
-11.951429 -9.002781 3.998928 37.000000
-11.930135 -8.869915 3.973108 42.333332
14.848075 -8.812638 3.965949 0.000000
-11.918394 -8.716597 3.946256 40.500000
14.879319 -8.736664 3.963262 41.500000
-11.895457 -8.557304 3.916305 42.000000
14.865242 -8.572171 3.941473 45.666668
14.842073 -8.434897 3.921176 40.000000
14.834544 -8.369071 3.912222 44.000000
14.631001 -6.744986 3.999878 39.000000
14.634128 -6.635318 3.989276 51.000000
14.619080 -6.463099 3.968393 51.333332
14.598773 -6.317476 3.949277 56.500000
14.584144 -6.175653 3.932089 52.000000
14.563939 -6.005858 3.911206 54.000000
14.349731 -4.193466 3.995485 43.000000
14.342743 -4.045110 3.982747 53.333332
14.326779 -3.895227 3.967944 54.000000
14.310518 -3.746325 3.953485 62.333332
14.292726 -3.598079 3.939026 60.333332
14.277172 -3.451407 3.925600 54.333332
14.260128 -3.305349 3.912174 60.666668
14.545038 -2.233499 3.932830 24.000000
14.727769 -2.214221 3.980338 17.000000
15.686632 -2.106978 3.929518 18.000000
15.901031 -2.084942 3.981565 27.000000
-13.763392 5.474338 3.958649 5.000000
-13.599090 5.458528 3.916305 5.000000
-14.865383 5.590487 3.943012 5.000000
-15.064768 5.611517 3.991203 4.000000
-9.632793 11.065690 3.920953 44.000000
-9.619748 11.191936 3.944190 44.000000
-9.609526 11.287157 3.961747 42.000000
-9.598542 11.382545 3.979305 47.000000
-9.586943 11.478066 3.996862 46.000000
-12.216719 12.102121 3.949831 3.000000
-12.094795 12.094723 3.928787 4.000000
-12.315803 12.123846 3.969530 0.000000
-9.466974 12.608900 3.914579 45.000000
-9.447664 12.749228 3.939639 43.000000
-9.429241 12.892946 3.965662 45.500000
-9.393086 13.000023 3.981886 10.333333
-9.269151 14.256896 3.905953 4.000000
-9.064561 16.185936 3.915460 37.000000
-9.048790 16.338047 3.941893 34.000000
-9.031939 16.490334 3.968327 36.000000
-9.017468 16.587400 3.984848 40.000000
-11.538608 16.694973 3.912121 3.000000
-11.787984 16.772478 3.951871 2.000000
-11.651564 16.745691 3.932564 6.000000
-8.802079 18.781887 3.998435 1.000000
-9.583218 20.273460 3.917708 2.000000
-8.561508 20.751209 3.921838 4.000000
-8.542500 20.891069 3.943179 3.000000
-8.525667 21.038311 3.965896 2.000000
-8.512399 21.196625 3.990679 1.000000
-9.767795 -38.348537 4.092261 18.000000
-9.643390 -38.363602 4.090615 16.000000
-10.820757 -37.961411 4.081975 3.000000
-10.923424 -37.869884 4.075803 30.000000
-6.854357 -32.895977 4.069324 2.000000
-7.116672 -32.612656 4.042394 7.000000
-9.891915 -32.375195 4.099621 6.000000
-7.573605 -32.264896 4.013541 6.000000
-9.839466 -31.668304 4.015945 2.500000
3.511940 -28.852203 4.035709 17.000000
3.971723 -28.844505 4.042861 5.000000
3.032468 -28.659529 4.001602 38.000000
4.751179 -25.685326 4.094190 10.666667
4.996391 -25.513966 4.074989 10.000000
4.860166 -25.238501 4.028534 5.000000
-15.002229 -25.106655 4.061015 5.000000
-14.634550 -25.114265 4.035985 4.000000
-14.465539 -25.095491 4.021956 2.000000
-14.374818 -25.120178 4.018656 1.000000
5.414805 -25.129389 4.029154 11.000000
-15.231909 -25.042164 4.069818 5.500000
-15.091245 -25.076372 4.063766 6.000000
5.312863 -25.038036 4.011811 4.000000
5.648791 -25.065676 4.027296 1.000000
5.456566 -24.942394 4.001900 9.000000
6.203373 -24.954576 4.030393 1.000000
6.440262 -24.902655 4.031631 1.000000
5.691394 -24.889860 4.001900 3.000000
7.032565 -24.622751 4.013669 2.000000
8.442437 -24.518623 4.064459 0.000000
8.412964 -24.185923 4.013669 1.000000
-13.412351 -21.818527 4.014288 24.000000
-13.148536 -19.420307 4.097382 25.000000
-13.145122 -19.284485 4.077418 29.000000
-13.125377 -19.126131 4.052635 29.000000
9.175922 -19.108812 4.086262 0.000000
-13.104769 -18.968096 4.027853 30.000000
8.592940 -18.951824 4.011306 1.000000
-13.085544 -18.813616 4.003758 28.000000
10.130068 -18.495283 4.065063 7.000000
10.207100 -18.497757 4.072634 11.000000
10.437781 -17.969961 4.006006 11.000000
11.340687 -17.932261 4.090048 8.000000
10.863158 -17.789728 4.018120 5.000000
8.355631 -17.400558 4.074060 5.000000
4.333130 -17.212761 4.076984 5.000000
4.229222 -17.025763 4.029526 11.000000
3.986391 -16.956121 4.000871 21.000000
5.285076 -16.895697 4.066239 22.000000
-12.886508 -16.885368 4.094591 9.000000
5.042189 -16.859928 4.042062 5.000000
5.780912 -16.798513 4.080566 21.000000
9.303602 -16.612782 4.018715 5.000000
9.487085 -16.693508 4.052583 9.000000
5.935299 -16.405031 4.007139 19.000000
10.094740 -16.492485 4.081220 24.666666
10.240277 -16.080208 4.023672 11.000000
7.454474 -15.777188 4.008035 11.000000
10.662248 -15.742155 4.012933 22.000000
7.871397 -15.630139 4.019676 12.000000
8.402687 -15.572906 4.064448 19.000000
11.499860 -15.501549 4.073785 29.666666
11.622170 -15.328307 4.060018 13.000000
8.691084 -15.292860 4.040271 50.000000
8.941628 -15.283387 4.067134 5.000000
11.876368 -15.261357 4.081495 4.000000
8.761684 -15.194046 4.028630 8.000000
9.040476 -15.016185 4.025944 31.000000
11.961287 -15.075167 4.061670 18.000000
9.081119 -14.906471 4.009229 19.666666
11.932879 -14.942708 4.036062 14.000000
-12.564265 -14.664158 4.075713 5.000000
9.984538 -14.642272 4.070716 15.000000
-12.599874 -14.566333 4.064974 32.500000
-12.575767 -14.400645 4.035236 37.000000
9.942889 -14.434480 4.025944 30.000000
-12.569273 -14.302269 4.018715 37.000000
5.101108 -14.099345 4.007190 0.000000
5.449600 -13.955900 4.004091 4.000000
6.328842 -13.958330 4.096009 18.000000
-12.392948 -12.788609 4.090416 31.500000
-12.372025 -12.607537 4.057284 39.500000
-12.354533 -12.471524 4.032212 39.000000
-12.341359 -12.380191 4.015198 34.000000
-12.145922 -11.017110 4.071201 16.000000
-12.199104 -10.961067 4.071683 9.500000
-12.168015 -10.829884 4.044214 9.000000
-12.155453 -10.750453 4.028792 9.000000
-12.156300 -10.649574 4.012407 9.000000
-12.015055 -9.533264 4.099107 38.000000
-12.000563 -9.429993 4.078968 36.500000
-11.980185 -9.292826 4.052115 40.500000
-11.966227 -9.162169 4.027845 41.500000
-11.956962 -9.065964 4.010288 41.000000
-15.839097 -8.059910 4.082059 5.333333
14.698263 -7.431091 4.089031 10.000000
14.682790 -7.336576 4.075056 31.000000
14.670459 -7.215658 4.058992 34.666668
14.657372 -7.066748 4.039876 35.000000
14.639244 -6.916894 4.019797 34.666668
14.627342 -6.799096 4.004697 36.000000
14.447908 -5.124848 4.097042 8.333333
14.415380 -4.950720 4.073494 33.799999
14.395311 -4.802687 4.055731 36.000000
14.388532 -4.700117 4.045403 36.000000
14.381067 -4.622807 4.037140 36.500000
14.361905 -4.517290 4.023714 36.000000
14.356257 -4.391926 4.012354 36.666668
14.350306 -4.291652 4.003059 40.000000
14.933054 -2.173143 4.033010 13.500000
15.142131 -2.130782 4.086714 5.000000
16.119293 -2.062070 4.034575 20.000000
16.160362 -2.015743 4.043250 6.000000
-13.949499 5.497663 4.007190 5.000000
-14.297318 5.531218 4.097042 5.000000
-14.128685 5.517068 4.053665 5.000000
-15.486249 5.657967 4.093369 4.000000
-15.268075 5.632693 4.040359 4.000000
-10.519750 10.923986 4.053149 3.000000
-9.577986 11.540837 4.008223 39.000000
-9.567230 11.676531 4.034386 41.666668
-9.546032 11.839046 4.064509 42.000000
-9.530420 11.972867 4.089812 37.000000
-9.147285 15.302166 4.094893 38.000000
-10.373133 16.176447 4.055888 1.000000
-10.246466 16.145809 4.036062 0.500000
-10.102259 16.141857 4.019129 2.000000
-9.004345 16.687979 4.002194 39.000000
-8.998069 16.802437 4.022846 36.000000
-8.980132 16.896290 4.038540 37.000000
-8.964058 17.059689 4.067452 37.500000
-8.948588 17.226765 4.097190 37.000000
-8.742321 18.885519 4.011684 15.000000
-9.986829 20.788223 4.029230 5.000000
-10.269077 20.814388 4.054930 5.666667
-10.117436 20.808220 4.042309 5.500000
4.150711 28.875332 4.050563 74.000000
4.247166 28.901350 4.056064 40.000000
-9.629138 -38.822365 4.136286 20.000000
-15.107276 -37.675503 4.197592 5.000000
-7.596674 -33.791573 4.194357 3.000000
-7.397725 -33.396557 4.142420 5.000000
-8.003525 -33.158546 4.130878 8.000000
-8.088772 -33.056091 4.121261 10.000000
-10.911983 -32.859890 4.193074 39.666668
-11.000914 -32.669685 4.174640 6.000000
-11.333021 -32.307789 4.146267 4.000000
3.394146 -29.424726 4.112727 1.000000
3.483773 -29.390310 4.109426 38.000000
4.971240 -26.259285 4.188957 28.000000
6.265752 -25.899525 4.176569 4.000000
6.172437 -25.869108 4.168517 10.000000
6.546733 -25.646439 4.148696 10.000000
16.522585 -25.229931 4.187544 7.000000
-16.772099 -24.940710 4.173241 2.000000
-16.660658 -24.943857 4.164989 4.000000
-16.303314 -24.828819 4.124279 2.000000
-13.524206 -22.959549 4.176569 20.000000
-13.578122 -22.886360 4.170995 28.000000
10.562869 -19.001133 4.190747 10.000000
-14.740628 -18.705116 4.160715 4.000000
-14.650216 -18.710997 4.151765 4.000000
10.499681 -18.748535 4.142290 9.000000
-14.904572 -18.670635 4.173794 3.000000
-14.821358 -18.686499 4.166910 4.000000
6.073913 -18.594152 4.128580 19.000000
10.895352 -18.357162 4.115034 3.000000
8.931083 -17.596516 4.164926 17.000000
-12.939388 -17.518528 4.198318 38.000000
9.262980 -17.561375 4.190533 4.000000
-12.924052 -17.383232 4.175604 34.000000
4.535639 -17.325785 4.113698 23.000000
5.312245 -17.364738 4.171007 13.000000
9.363034 -17.352741 4.161622 9.000000
-12.915061 -17.257639 4.155162 32.000000
5.229451 -17.288052 4.148621 30.000000
-12.891230 -17.113453 4.130176 37.000000
5.998725 -17.081865 4.158470 27.000000
6.453773 -16.998617 4.176379 13.000000
-13.252675 -16.919998 4.143047 2.000000
-13.147528 -16.949635 4.135098 5.000000
-13.025624 -16.956936 4.121848 4.000000
-12.859500 -16.960196 4.102919 40.000000
6.326431 -16.984032 4.162948 2.000000
9.573055 -16.968657 4.112059 2.000000
10.528599 -16.648163 4.157491 0.000000
10.800133 -16.163544 4.102972 3.000000
7.946194 -16.028568 4.109221 12.000000
8.553502 -16.093573 4.186229 7.000000
8.166511 -15.965631 4.119071 25.000000
8.552487 -15.970392 4.161157 29.000000
8.553976 -15.734813 4.113698 1.000000
8.595875 -15.694184 4.110116 3.000000
9.143976 -15.517199 4.136980 25.000000
11.963824 -15.574668 4.145101 1.000000
12.042234 -15.441282 4.132985 20.666666
12.391677 -15.417645 4.174838 4.000000
12.117399 -15.370850 4.131058 1.000000
9.634860 -15.129526 4.119966 12.000000
12.487413 -15.094625 4.134775 4.500000
9.832758 -15.020306 4.123548 37.000000
5.187118 -14.479097 4.110468 3.000000
8.856297 -14.200602 4.155054 25.000000
9.005523 -14.239824 4.183004 14.000000
9.071765 -14.147013 4.172402 4.000000
8.832731 -14.064219 4.123247 32.000000
9.202699 -13.866920 4.131922 4.000000
-12.456896 -13.349133 4.193841 38.500000
-12.443542 -13.209382 4.168320 33.000000
-12.431337 -13.113638 4.150411 35.000000
-12.418653 -13.018106 4.132502 41.000000
-12.408195 -12.925591 4.115489 37.000000
-12.255718 -11.618052 4.192643 38.000000
-12.208552 -11.238213 4.119713 24.666666
-12.200136 -11.136350 4.101079 36.000000
-12.045534 -9.901412 4.167271 12.000000
-12.044155 -9.805480 4.150746 34.000000
-12.038844 -9.738432 4.138353 33.000000
-12.025752 -9.634495 4.118214 39.000000
-16.291334 -8.012801 4.170111 12.000000
-16.131250 -8.028614 4.138771 12.000000
-15.978326 -8.046745 4.109221 12.000000
-16.446388 -7.992946 4.200109 11.500000
-14.682227 5.574324 4.197222 3.000000
-14.484221 5.551270 4.145583 4.000000
-15.923511 5.704574 4.199389 4.000000
-15.693776 5.677970 4.143488 4.000000
-11.803691 12.066169 4.190715 3.000000
-11.717022 12.053084 4.173367 3.000000
-11.638641 12.047951 4.158909 3.000000
-9.517087 12.111509 4.116665 44.000000
-9.500015 12.247402 4.142484 43.000000
-9.483164 12.426105 4.177599 44.333332
-9.281501 14.081587 4.187181 19.333334
-9.232450 15.280520 4.100714 6.000000
-9.505554 15.348836 4.146830 6.000000
-9.398516 15.336911 4.131607 6.500000
-9.146915 15.411289 4.116384 34.000000
-9.132365 15.553402 4.142800 35.500000
-9.113548 15.747128 4.179066 34.000000
-10.835098 16.665483 4.195489 2.000000
-10.750848 16.650120 4.183099 9.000000
-8.930696 17.392353 4.126514 39.000000
-8.909829 17.554634 4.155013 36.000000
-8.898641 17.669931 4.175664 34.000000
-8.840541 17.762455 4.187642 12.000000
-6.196640 -34.612785 4.258316 12.000000
-7.082860 -34.535599 4.269376 13.000000
-6.747161 -34.550152 4.263124 9.000000
-8.655463 -34.433407 4.299673 5.000000
-6.831698 -34.408039 4.248217 11.000000
-6.280428 -34.456413 4.241484 10.000000
-8.518564 -34.344803 4.285245 2.000000
-6.485016 -34.353836 4.233790 17.000000
-6.374160 -34.358421 4.231866 10.000000
-9.183941 -34.251015 4.294383 31.000000
-8.723412 -34.248268 4.279956 5.000000
-6.896556 -34.172321 4.221767 8.000000
-6.551725 -34.118809 4.207341 19.000000
-8.210367 -34.015495 4.237637 9.000000
-7.322083 -34.067432 4.219844 3.000000
-8.046425 -33.959393 4.226417 16.000000
-7.826743 -33.820549 4.203975 22.000000
-10.532096 -33.711029 4.277071 48.000000
-10.427308 -33.747746 4.277551 36.000000
-9.232406 -33.724945 4.234431 52.000000
-10.729802 -33.239929 4.229943 24.000000
-11.381270 -32.774624 4.201570 2.000000
4.589229 -27.018425 4.295493 17.000000
3.662380 -26.910316 4.256781 6.500000
4.932644 -26.981947 4.299209 16.000000
3.861462 -26.796665 4.243464 12.000000
4.652521 -26.879269 4.275672 19.000000
4.808042 -26.775608 4.263904 37.000000
5.906691 -26.599403 4.270717 1.000000
5.104520 -26.507412 4.231076 5.000000
5.465869 -26.580521 4.253374 9.000000
5.584982 -26.525427 4.248729 22.500000
6.499861 -26.147272 4.223024 1.000000
16.517170 -25.926762 4.268412 2.000000
-14.094548 -23.420210 4.284344 1.000000
-14.051297 -23.183187 4.249038 1.000000
-14.031411 -22.987146 4.221166 0.000000
-13.525656 -20.528322 4.294953 4.000000
-13.445993 -20.547632 4.290134 3.000000
-13.278163 -20.572117 4.277743 36.000000
-13.310514 -20.480745 4.267417 8.000000
-15.528710 -18.598495 4.232997 5.000000
-15.391935 -18.612211 4.219573 5.000000
-15.255360 -18.625141 4.206149 4.000000
-15.805456 -18.571348 4.260533 3.000000
-15.664446 -18.582306 4.246077 4.500000
8.191767 -18.219006 4.216141 1.000000
8.356527 -18.277515 4.241748 3.000000
-13.011809 -18.087860 4.295232 34.000000
-12.983685 -17.870676 4.258132 33.000000
5.268829 -17.821533 4.268610 34.000000
9.481581 -17.839771 4.264051 3.000000
5.122132 -17.734434 4.239956 2.000000
9.154444 -17.759216 4.216967 6.000000
-12.958642 -17.660423 4.222547 31.000000
5.626200 -17.597391 4.243538 30.000000
5.639492 -17.449795 4.212197 31.000000
7.292352 -17.146484 4.279804 1.000000
7.823522 -16.831257 4.263238 28.000000
10.899454 -16.880278 4.240922 3.000000
11.070987 -16.796410 4.245878 3.000000
4.169381 -16.784863 4.293845 13.000000
8.107313 -16.748402 4.273983 5.000000
11.167626 -16.600399 4.222749 10.000000
8.590202 -16.285879 4.229211 26.000000
12.165815 -16.256466 4.285529 29.000000
9.132267 -15.952291 4.222047 24.000000
9.275393 -15.968762 4.241747 3.000000
9.451349 -15.924216 4.253388 18.000000
-12.720487 -15.775935 4.277268 26.000000
7.237450 -15.699240 4.291917 33.000000
-12.769992 -15.685488 4.269008 3.000000
9.825733 -15.645360 4.243538 11.000000
12.553274 -15.518612 4.212836 34.000000
10.392832 -15.448687 4.276670 23.000000
10.380100 -15.325583 4.251597 13.000000
7.688238 -15.266444 4.243726 4.000000
8.066993 -15.293942 4.292881 29.000000
8.236288 -15.150435 4.281315 13.000000
7.832944 -15.079056 4.218666 3.000000
10.554681 -15.068049 4.225629 8.000000
8.982462 -14.606494 4.257219 7.000000
6.185837 -14.481481 4.208582 10.000000
9.181588 -14.417758 4.243726 16.000000
9.556795 -14.302756 4.270713 0.000000
9.597349 -14.266221 4.268785 14.000000
9.674251 -14.091920 4.243726 6.000000
-12.514984 -13.840998 4.286072 35.500000
-12.493764 -13.644202 4.249359 35.500000
-12.471977 -13.492111 4.220256 35.000000
-12.316748 -12.124782 4.290953 39.000000
-12.300039 -11.994807 4.265411 39.000000
-12.285284 -11.867904 4.240834 38.000000
-12.272303 -11.744144 4.217220 37.500000
-12.130476 -10.492987 4.286557 7.000000
-12.128588 -10.358829 4.262803 8.000000
-12.095936 -10.200222 4.228722 9.000000
-12.088517 -10.064671 4.203935 8.000000
-16.882402 -7.944166 4.285625 11.500000
-16.714540 -7.961685 4.252492 12.000000
-16.608616 -7.975347 4.231897 12.000000
-16.914988 3.697341 4.298664 21.000000
-16.670033 3.726202 4.240834 11.500000
-14.869670 5.592100 4.245762 4.000000
-16.149902 5.728498 4.254328 4.000000
-12.094885 12.094818 4.246617 3.000000
-11.874227 12.062223 4.202281 3.000000
-12.265944 12.112692 4.279869 3.000000
-9.465473 12.565670 4.204451 41.000000
-9.458368 12.638658 4.218910 42.000000
-9.449280 12.751402 4.241632 41.000000
-9.430555 12.894748 4.269516 42.500000
-9.390140 12.967199 4.278811 12.000000
-9.272624 14.262239 4.223485 3.000000
-9.097403 15.891393 4.205929 36.000000
-9.079973 16.035872 4.232793 35.000000
-9.065331 16.187313 4.261447 35.000000
-9.050271 16.340700 4.290549 36.000000
-11.193866 16.695894 4.242574 7.000000
-11.568941 16.738863 4.294615 9.000000
-11.485282 16.729956 4.283051 9.000000
-11.360149 16.715862 4.265703 9.000000
-8.764929 20.081085 4.223682 1.500000
-8.615273 20.081652 4.212325 6.000000
-8.930741 20.115376 4.242611 2.000000
-9.145419 20.339979 4.299017 1.000000
-8.605582 20.322773 4.254346 8.000000
-8.587302 20.458353 4.277061 7.000000
-5.606474 -35.843113 4.393447 4.000000
-6.052459 -35.746346 4.390562 11.000000
-6.259067 -35.605919 4.378058 5.000000
-5.451747 -35.585789 4.359784 6.000000
-5.335799 -35.575253 4.356418 2.000000
-6.114765 -35.437580 4.354975 5.000000
-6.446340 -35.366657 4.353533 2.000000
-7.348467 -35.267349 4.362669 15.000000
-7.445242 -35.178051 4.354495 4.000000
-7.061526 -34.989750 4.322755 11.000000
-7.708611 -34.800030 4.316504 5.000000
-11.220926 -34.391445 4.380943 21.000000
-10.819756 -34.253334 4.350166 69.000000
-10.234934 -34.266857 4.330931 2.000000
-10.110362 -34.241718 4.323717 48.000000
-12.203432 -34.101604 4.386233 3.000000
-10.835506 -33.931679 4.313618 2.000000
-14.010733 -33.119659 4.354975 15.000000
3.082512 -30.992285 4.324525 6.000000
4.171504 -27.713638 4.392738 44.000000
3.938362 -27.637928 4.375704 16.500000
4.067716 -27.613230 4.374775 35.000000
4.605647 -27.640799 4.392118 17.000000
4.235733 -27.551975 4.369201 46.000000
4.776744 -27.090240 4.311597 16.000000
16.423449 -26.695932 4.352031 1.000000
-11.465986 -25.406136 4.368891 30.500000
-11.334077 -25.432852 4.364245 28.000000
-11.923353 -25.349842 4.390880 29.000000
-11.787107 -25.369951 4.384686 30.000000
-11.647652 -25.382074 4.377253 29.500000
19.279007 -25.088604 4.393290 37.000000
19.002945 -24.890820 4.348180 17.000000
19.448620 -24.821590 4.378437 35.000000
19.661911 -24.612425 4.374036 5.000000
19.371941 -24.564375 4.343779 1.000000
19.439167 -24.490982 4.341578 23.000000
-13.733512 -24.353170 4.382208 26.000000
-14.053541 -24.117279 4.375085 4.500000
-13.909135 -24.130215 4.365484 7.000000
-13.757103 -24.128510 4.353406 23.500000
-14.112118 -23.617027 4.312216 1.000000
-13.383139 -21.318022 4.397526 33.000000
-13.361614 -21.135986 4.368613 33.000000
-13.339080 -20.954298 4.339700 33.000000
-13.315536 -20.772963 4.310787 31.000000
-13.622754 -20.534979 4.305280 4.000000
8.308182 -18.792732 4.336743 1.000000
-13.080938 -18.674578 4.395174 33.000000
-13.062584 -18.524256 4.369431 32.000000
-13.043414 -18.374231 4.343688 34.000000
9.605259 -18.349762 4.371437 18.000000
-13.023433 -18.224514 4.317946 32.000000
10.414569 -17.929998 4.376393 0.000000
10.385862 -17.751932 4.340874 29.000000
10.795722 -17.432089 4.327657 1.000000
7.533270 -17.333609 4.341142 7.000000
10.961364 -17.212523 4.307006 12.000000
4.478287 -17.106703 4.390227 8.000000
4.058724 -17.023554 4.344927 8.000000
4.630148 -17.030022 4.381553 6.000000
4.519239 -16.830770 4.326615 15.000000
8.784878 -16.782516 4.350992 27.000000
5.419065 -16.501669 4.312157 15.500000
5.588217 -16.576330 4.342999 17.000000
9.797071 -16.157791 4.340247 28.000000
6.784653 -16.022497 4.319868 24.000000
7.236519 -15.827818 4.320832 3.000000
7.675842 -15.857052 4.373842 11.000000
8.313594 -15.642180 4.397938 2.000000
10.916985 -15.689948 4.390392 4.000000
8.092719 -15.460227 4.332397 1.000000
8.587978 -15.448732 4.388299 6.500000
8.419982 -15.373043 4.351674 0.000000
8.683074 -15.391127 4.387336 8.000000
8.764178 -15.309312 4.379625 25.000000
8.917874 -15.242788 4.384444 2.000000
9.195500 -15.058738 4.380589 8.000000
9.590035 -14.750446 4.368059 20.000000
-12.585603 -14.411908 4.394869 32.000000
-12.564365 -14.251581 4.363976 37.000000
-12.544626 -14.094628 4.333979 37.000000
-12.534221 -13.994169 4.315174 32.000000
-12.371832 -12.607348 4.385408 37.500000
-12.357395 -12.474414 4.359385 43.000000
-12.341876 -12.341944 4.333362 39.500000
-12.325480 -12.209863 4.307338 41.000000
-12.147563 -11.018599 4.383122 14.000000
-12.202173 -10.963846 4.384155 10.000000
-12.176884 -10.803596 4.350590 7.500000
-12.171099 -10.696334 4.330450 8.000000
-12.160978 -10.619918 4.314959 7.000000
-17.156683 -7.909343 4.339351 12.000000
-17.050442 -7.925405 4.318756 11.000000
-17.234631 -7.879714 4.352783 1.000000
-16.892208 3.887447 4.303483 23.500000
-16.878736 4.024213 4.307981 23.333334
-16.858900 4.187780 4.312800 22.666666
-16.841820 4.324253 4.316977 20.000000
-16.829815 4.462361 4.322759 20.666666
-16.816488 4.572094 4.326615 23.000000
-16.804089 4.653878 4.329024 21.000000
-16.793736 4.793348 4.335932 20.000000
-16.777336 4.931478 4.341554 20.500000
-16.760962 5.070034 4.347497 14.333333
-16.689697 5.684920 4.377376 19.000000
-15.296066 5.643019 4.357303 4.000000
-15.079092 5.616853 4.300499 4.000000
-16.654936 5.790084 4.377697 11.000000
-16.405905 5.761346 4.316977 4.000000
-12.484544 12.136456 4.322759 2.000000
-12.396404 12.126749 4.305410 3.000000
-9.410282 13.081337 4.306696 2.000000
-9.028481 16.484022 4.316965 32.000000
-9.015747 16.584232 4.335770 36.000000
-9.004333 16.687954 4.355469 37.000000
-12.081224 16.794243 4.366481 4.000000
-11.955428 16.785589 4.349547 9.000000
-11.783341 16.765911 4.325179 9.000000
-11.652761 16.747414 4.306180 9.000000
-8.994194 16.795202 4.376065 36.000000
-8.988951 16.912882 4.399346 32.000000
-8.805778 18.789778 4.379698 2.000000
-8.744246 18.889648 4.393328 16.500000
-8.571262 20.601274 4.301289 6.000000
-9.477183 20.728621 4.393660 3.000000
-9.403899 20.740408 4.389874 3.000000
-8.555916 20.747925 4.326274 4.000000
-8.541208 20.898319 4.352017 3.000000
-8.527125 21.052462 4.378517 2.000000
-5.945891 -36.150566 4.436728 11.000000
-6.666792 -35.935787 4.426147 1.000000
-9.216947 -35.716408 4.467023 1.000000
-9.326088 -35.675751 4.465581 6.000000
-7.648343 -35.585423 4.407874 2.000000
-9.364943 -35.369892 4.430956 2.000000
-12.887181 -34.634075 4.475199 5.000000
-13.137560 -34.476097 4.467985 5.500000
-12.935876 -34.433575 4.454520 2.000000
-12.586267 -34.486816 4.445864 1.000000
-12.402277 -34.317051 4.418934 3.000000
-13.214015 -34.191601 4.439132 4.000000
-13.354396 -33.919460 4.414606 3.000000
-13.459419 -33.873650 4.414125 3.000000
-13.210247 -33.865059 4.402103 22.000000
2.394681 -32.300621 4.497263 16.000000
2.780514 -32.039043 4.465356 26.000000
2.975523 -31.953876 4.456004 21.000000
2.555009 -31.755739 4.423547 46.000000
2.856309 -31.753927 4.426848 44.000000
3.051592 -31.691973 4.420796 16.000000
3.083596 -28.292982 4.460871 6.000000
3.435539 -28.224541 4.456535 15.000000
3.525663 -28.225372 4.458393 5.000000
