# This PCD file was generated using the MATLAB® pcwrite function
# from Computer Vision Toolbox®.
# .PCD v.7 - Point Cloud Data file format
VERSION .7
FIELDS x y z intensity
SIZE 4 4 4 4
TYPE F F F F
COUNT 1 1 1 1
WIDTH 1208
HEIGHT 1
VIEWPOINT 0 0 0 1 0 0 0
POINTS 1208
DATA ascii
10.115920 -9.895869 3.782044 11.000000
10.211248 -9.864334 3.794437 4.000000
13.078280 -9.851614 3.760890 14.000000
10.069374 -9.788618 3.753126 28.000000
11.598529 -9.595142 3.737235 0.500000
13.077042 -9.532450 3.717013 3.000000
-11.924617 -9.492105 3.783981 42.500000
-11.915200 -9.332754 3.757636 43.000000
-11.903118 -9.173294 3.730970 48.500000
12.076917 -9.156914 3.762776 16.000000
-11.898726 -9.051315 3.711694 45.500000
10.791471 -8.956072 3.747962 24.000000
11.027813 -8.806540 3.771716 30.000000
10.795192 -8.695089 3.704585 35.000000
-11.819944 -7.844309 3.791339 44.666668
-11.806946 -7.676405 3.763798 46.000000
-11.797279 -7.512897 3.737978 42.666668
-11.792643 -7.380344 3.718011 47.500000
-11.781324 -7.296192 3.703552 45.000000
15.117925 -2.272912 3.795547 61.666668
15.105064 -2.173982 3.788800 59.000000
15.092051 -2.099577 3.783017 56.000000
15.065701 -1.975437 3.772415 50.000000
15.046396 -1.828841 3.763098 44.666668
15.023097 -1.682496 3.753138 58.000000
14.993231 -1.536214 3.741894 63.666668
14.972417 -1.401095 3.733476 57.400002
14.934992 -1.175416 3.719404 53.500000
14.911460 -1.055812 3.711372 61.333332
14.887166 -0.913175 3.703019 59.666668
-13.007790 10.024501 3.772084 5.500000
-12.869620 10.015122 3.745668 9.000000
-12.739542 10.010557 3.721491 9.000000
-10.674623 10.475330 3.713140 42.000000
-10.666426 10.599656 3.733380 41.500000
-10.658835 10.759879 3.760206 43.666668
-10.646326 10.917372 3.785908 38.000000
-10.869558 13.787967 3.705644 6.000000
-10.858599 13.908464 3.724230 6.000000
-10.849251 14.032223 3.743642 6.000000
-10.476913 14.091815 3.706195 17.000000
-10.835305 14.151565 3.761815 4.000000
-10.412150 14.189999 3.714731 8.000000
-10.434380 14.314355 3.738686 0.000000
-10.329422 16.220194 3.706937 39.000000
-10.324604 16.325594 3.723594 43.000000
-10.316244 16.483953 3.748580 43.500000
-10.312965 16.652580 3.775836 47.000000
-10.299694 16.748465 3.790222 36.000000
-10.166319 18.904650 3.750082 27.000000
-10.109520 19.013247 3.762129 1.000000
-11.064163 20.914122 3.708514 4.000000
-11.594471 21.003351 3.760337 1.000000
-10.026899 21.385698 3.702114 25.000000
-10.016315 21.538927 3.723173 22.000000
-10.009840 21.703058 3.746091 20.000000
-9.999146 21.860174 3.767770 19.000000
-9.989183 22.021038 3.790068 17.000000
-11.402643 -35.707680 3.876251 8.000000
-11.506212 -35.645176 3.873371 6.000000
-11.231684 -35.557419 3.856090 6.000000
-11.108054 -35.554554 3.851975 14.000000
-11.567531 -35.453770 3.856501 16.000000
-11.550518 -35.028053 3.814122 19.000000
-6.950289 -31.376633 3.891874 18.000000
-6.730475 -31.314861 3.878890 11.000000
-11.417504 -29.543083 3.835610 14.000000
-10.988586 -29.531635 3.815893 3.000000
-11.701293 -29.448929 3.837533 16.000000
-11.570901 -29.389475 3.825030 1.000000
-11.232345 -29.337757 3.804352 9.000000
-11.790159 -29.270056 3.821424 20.500000
-13.654819 -28.692333 3.848113 5.000000
-6.645667 -27.138094 3.879474 2.000000
-6.569685 -27.197348 3.884976 2.000000
-6.713712 -27.047867 3.869572 4.000000
5.385971 -27.052427 3.829963 15.000000
-7.637692 -26.618202 3.845092 2.000000
-9.576818 -25.723799 3.811259 4.000000
5.300995 -21.614359 3.888107 66.000000
5.212681 -21.546650 3.872962 11.000000
5.642841 -21.539864 3.890172 5.000000
5.123935 -21.474766 3.857128 26.000000
5.014932 -21.314322 3.825462 11.000000
5.305185 -21.341394 3.841984 30.000000
6.242893 -21.349035 3.886041 4.000000
6.419854 -21.210051 3.871585 28.000000
6.638297 -21.208773 3.882599 4.000000
6.721537 -21.240406 3.892237 14.000000
5.318301 -21.110651 3.803433 9.000000
5.684001 -21.153891 3.826839 23.000000
5.822031 -21.136755 3.830281 33.000000
5.717329 -21.014263 3.804810 29.000000
6.306872 -21.075346 3.843360 17.000000
6.441477 -21.042837 3.844737 28.000000
-13.781202 -20.562748 3.879880 13.500000
-13.633891 -20.551767 3.865634 3.000000
7.718136 -20.512030 3.828904 4.000000
5.759398 -19.148449 3.854579 21.500000
5.855306 -19.139904 3.858364 3.000000
10.278992 -19.186314 3.802744 2.000000
6.329475 -18.971809 3.855336 15.000000
6.902377 -18.892277 3.877293 4.000000
7.104379 -18.712250 3.858364 5.000000
6.960620 -18.686584 3.843979 15.000000
7.013758 -18.649921 3.840950 6.000000
-12.443873 -18.317513 3.868831 28.000000
-12.496643 -18.209948 3.858505 4.000000
7.791491 -18.240429 3.823536 11.000000
-12.438913 -15.881050 3.888650 5.000000
-12.318169 -15.880518 3.874264 23.000000
6.691061 -15.395733 3.855808 13.000000
6.562442 -15.230504 3.809245 0.000000
8.322662 -14.538070 3.847749 9.000000
8.863097 -14.311438 3.866554 2.000000
6.678586 -14.135043 3.881327 13.000000
-12.188919 -13.781912 3.883244 35.000000
-12.185900 -13.648436 3.861767 38.000000
-12.176767 -13.509439 3.838637 38.000000
-12.166483 -13.370879 3.815508 34.500000
6.579527 -12.763992 3.837814 10.000000
6.899682 -12.787350 3.883256 18.000000
9.385583 -12.298062 3.840846 0.000000
9.777821 -11.933410 3.830244 9.000000
9.951779 -11.991232 3.868797 4.000000
10.581093 -11.518952 3.883255 29.000000
12.413855 -11.547786 3.894313 0.000000
12.223827 -11.442861 3.845958 25.000000
12.454586 -11.440549 3.884463 25.000000
9.286773 -11.189942 3.886354 3.000000
11.356795 -10.833843 3.896748 5.000000
12.749291 -10.648724 3.815513 22.000000
12.852039 -10.598173 3.826258 7.000000
9.733284 -10.463268 3.819224 4.000000
11.603745 -10.459066 3.878436 22.000000
-11.924859 -9.928354 3.852412 15.500000
10.362061 -9.947280 3.838846 97.000000
12.178724 -9.851582 3.889038 21.000000
-11.941319 -9.784422 3.832814 38.666668
10.463671 -9.795158 3.830584 28.000000
12.277113 -9.741192 3.890965 17.000000
-11.934248 -9.622890 3.806149 41.500000
11.075954 -9.133561 3.836781 19.000000
12.690397 -9.189692 3.890002 6.000000
11.358148 -9.012045 3.874994 27.000000
11.037228 -8.985715 3.803732 22.000000
11.310535 -8.916507 3.849174 34.000000
-11.849208 -8.411553 3.883600 40.333332
-11.844193 -8.268806 3.860535 46.500000
-11.835444 -8.125245 3.836781 47.666668
-11.826876 -7.983376 3.813543 46.000000
15.182257 -2.674309 3.827353 1.000000
15.170635 -2.574133 3.820285 56.666668
15.140554 -2.422454 3.806791 57.333332
14.534748 1.166868 3.897027 66.000000
14.494158 1.393076 3.891518 67.000000
14.512840 1.302892 3.894272 63.666668
14.481227 1.483718 3.890486 60.333332
14.457641 1.619121 3.888076 57.000000
14.434447 1.777436 3.886871 58.000000
14.405773 1.934937 3.884633 59.333332
14.381797 2.069890 3.883256 59.333332
14.354605 2.250440 3.883256 62.333336
14.330263 2.385210 3.882568 67.000000
14.305880 2.519934 3.882223 67.000000
14.281063 2.677792 3.883256 68.250000
14.257115 2.835912 3.884977 66.000000
14.237319 2.971741 3.887043 60.666668
14.214829 3.083744 3.887387 58.500000
14.198944 3.173840 3.888420 56.500000
14.177312 3.286137 3.889453 53.333332
14.159485 3.422932 3.893240 54.000000
14.129690 3.580629 3.895649 43.250000
14.104449 3.739735 3.899781 43.000000
-10.939096 9.195269 3.819224 0.000000
-11.066517 9.361872 3.873961 7.000000
-10.987033 9.354003 3.856404 6.000000
-10.756106 9.304018 3.800892 15.750000
-10.736783 9.465780 3.825420 43.500000
-10.726097 9.576811 3.842978 46.500000
-10.720142 9.723952 3.868109 41.000000
-10.709332 9.868497 3.892035 45.500000
-11.985798 9.968418 3.870404 6.000000
-11.860119 9.969468 3.846629 4.000000
-13.634655 10.070708 3.893417 3.000000
-10.638156 11.081884 3.813859 43.333332
-10.628181 11.246902 3.841810 43.000000
-10.624848 11.385832 3.866388 43.000000
-10.614914 11.519461 3.889038 43.000000
-10.534985 12.898829 3.825363 27.500000
-10.909760 12.937348 3.887149 10.500000
-10.760908 12.924749 3.862972 10.000000
-10.645301 12.909184 3.843272 3.000000
-10.486381 12.963479 3.829840 11.000000
-10.611680 13.202986 3.890731 4.000000
-10.288979 16.909235 3.815586 41.500000
-10.279147 17.073605 3.841707 42.000000
-10.268850 17.239977 3.868207 40.000000
-10.257364 17.406593 3.894707 40.000000
-11.687944 21.330780 3.812366 3.000000
-9.983183 22.192862 3.814224 18.000000
-9.969751 22.350433 3.835903 18.000000
-9.931980 22.550850 3.862227 9.500000
-12.903678 -30.237619 3.981321 10.000000
-12.810166 -30.281666 3.981802 15.000000
-13.295462 -30.102146 3.985168 12.000000
-13.451787 -29.945568 3.975550 15.000000
-13.673152 -29.442822 3.931308 9.000000
-13.731898 -29.327795 3.921690 8.000000
-13.505830 -29.323324 3.909667 6.000000
-5.825394 -27.933281 3.961993 15.000000
-7.623538 -27.714849 3.991149 3.000000
-5.665908 -27.602148 3.912482 1.000000
-5.581518 -27.631466 3.914132 3.000000
-8.413271 -27.518560 3.995551 3.000000
-8.817685 -27.300070 3.983448 3.000000
-8.470420 -27.397366 3.981797 6.000000
-8.093082 -27.234343 3.944939 5.000000
-7.961294 -27.260813 3.943289 4.000000
4.861969 -24.827541 3.965356 29.000000
5.183265 -24.810904 3.972789 3.000000
4.931456 -24.769512 3.958543 35.000000
4.737616 -24.602106 3.926954 27.000000
4.966140 -24.540869 3.924476 41.000000
5.001241 -21.871653 3.919773 6.000000
6.139872 -21.755806 3.949375 8.000000
-14.511515 -20.518045 3.939032 5.000000
-14.372715 -20.526365 3.927573 6.000000
-14.227440 -20.523991 3.914256 6.000000
-14.643633 -20.499325 3.948633 5.000000
6.103456 -19.729277 3.981020 23.000000
6.686635 -19.630636 3.997677 24.000000
6.587293 -19.539890 3.974963 24.000000
6.681814 -19.416409 3.958306 27.000000
6.901278 -19.456219 3.979506 24.000000
7.441471 -19.235025 3.975720 1.000000
6.658947 -19.154179 3.909092 32.000000
6.726898 -19.155397 3.913635 20.000000
7.616616 -19.149439 3.972692 5.000000
7.413287 -18.984715 3.928778 5.000000
7.564082 -18.844749 3.914392 5.000000
8.203397 -18.875530 3.967392 3.000000
8.334543 -18.693348 3.945435 4.000000
-12.363972 -16.629908 3.994649 38.000000
-12.357323 -16.512365 3.975720 37.000000
-12.350058 -16.395033 3.956792 37.000000
-12.337931 -16.219452 3.928400 38.000000
-12.331755 -16.053646 3.902278 37.000000
-12.683620 -15.882812 3.918178 5.000000
-12.561132 -15.882292 3.903414 5.000000
8.722404 -14.801796 3.946249 20.000000
6.262407 -14.789172 3.987348 7.000000
9.283117 -14.627840 3.979380 3.500000
-12.234114 -14.415874 3.990630 34.000000
6.457143 -14.361094 3.909278 6.000000
6.891059 -14.389336 3.961003 6.000000
-12.225585 -14.268873 3.965848 33.000000
-12.210688 -14.116409 3.939415 38.000000
-14.928828 -14.033767 3.949725 6.666667
-14.816694 -14.045781 3.935592 7.000000
-14.727022 -14.048882 3.923478 5.000000
-14.648811 -14.062440 3.914392 1.000000
-12.210206 -13.982038 3.917938 39.000000
-12.202401 -13.884814 3.901417 37.000000
6.716071 -13.232376 3.965878 11.000000
11.805195 -12.610891 3.967739 8.000000
-12.108727 -12.456026 3.990126 40.000000
12.208630 -12.401924 3.997289 2.000000
-12.092148 -12.322329 3.965501 32.500000
12.187173 -12.302577 3.977589 1.000000
-12.271221 -12.271147 3.986096 5.500000
-12.096632 -12.211181 3.948040 12.000000
11.771047 -12.261874 3.904162 10.000000
12.148268 -12.110166 3.939981 5.000000
8.530185 -11.857902 3.903912 16.000000
9.129431 -11.580629 3.941092 24.000000
9.374500 -11.368134 3.937994 0.000000
11.753144 -11.002249 3.996986 1.000000
11.705219 -10.888589 3.969035 7.000000
10.130735 -10.619748 3.922502 5.000000
11.607971 -10.696457 3.918916 9.500000
12.130818 -10.459960 3.976746 7.000000
10.374750 -10.277430 3.902879 21.000000
10.762352 -10.266772 3.975174 26.000000
12.185756 -10.275843 3.957469 15.000000
10.710417 -10.153152 3.944190 23.000000
10.952761 -10.188627 3.997895 23.000000
12.132723 -10.133740 3.924699 5.000000
10.702882 -10.082357 3.929731 13.000000
10.848512 -9.902579 3.925600 17.000000
12.276699 -9.930955 3.920362 15.000000
10.856668 -9.847681 3.917338 7.000000
10.932722 -9.792162 3.922502 11.000000
11.023338 -9.646964 3.914928 33.666668
11.399900 -9.643899 3.990665 4.000000
12.922848 -9.607855 3.997950 2.000000
11.190059 -9.526855 3.927666 7.000000
12.535691 -9.566936 3.915061 27.000000
12.870475 -9.258596 3.936265 91.000000
-11.890157 -9.015408 3.987911 44.333332
13.068341 -9.052322 3.946867 22.000000
-11.882174 -8.863197 3.961748 37.500000
-11.869169 -8.737957 3.939026 37.000000
-11.861216 -8.589339 3.913895 42.333332
14.903301 -1.196473 3.995829 34.000000
14.888054 -1.077684 3.989374 37.250000
14.855012 -0.911198 3.977583 37.666668
14.834640 -0.769686 3.970010 37.666668
14.815165 -0.652029 3.963297 38.500000
14.804576 -0.581673 3.959682 38.000000
14.784716 -0.487901 3.953485 38.666668
14.757270 -0.324623 3.944965 37.500000
14.728756 -0.161970 3.936616 37.333332
14.710306 -0.023127 3.931453 38.000000
14.689261 0.115359 3.925944 41.000000
14.674184 0.276617 3.922502 43.750000
14.656428 0.449070 3.918887 51.500000
14.632052 0.574887 3.913551 51.333332
14.609259 0.711948 3.909076 54.333332
14.587970 0.871776 3.905719 56.250000
14.560519 1.030924 3.901158 53.000000
14.211238 3.863772 3.935928 11.000000
-12.392152 9.991994 3.952168 6.000000
-12.265129 9.985381 3.926627 6.000000
-12.138485 9.977686 3.901085 5.500000
-10.702209 9.987001 3.912174 45.500000
-14.065571 10.084747 3.975351 8.000000
-13.918413 10.078951 3.947144 8.000000
-13.784799 10.070417 3.921176 8.333333
-12.564030 10.000978 3.986866 6.000000
-10.691628 10.071762 3.925600 45.000000
-10.690214 10.165985 3.942641 38.500000
-10.682721 10.319891 3.969666 43.333332
-10.668400 10.436333 3.988600 47.000000
-10.603733 11.653399 3.911688 45.000000
-10.575980 11.793007 3.932795 23.000000
-11.493714 12.968410 3.980276 7.666667
-11.353338 12.959602 3.957442 6.000000
-11.242293 12.955592 3.939981 3.000000
-11.064290 12.913395 3.905953 10.333333
-10.780214 15.390017 3.965848 6.000000
-10.647363 15.353777 3.943545 6.000000
-10.468987 15.300810 3.912982 10.000000
-10.383512 15.330616 3.908025 49.000000
-10.372433 15.418367 3.922068 32.000000
-10.371183 15.574591 3.949327 38.500000
-10.364511 15.724578 3.974935 40.000000
-10.360079 15.825825 3.992282 42.000000
-12.199752 16.736172 3.992378 3.000000
-12.158635 16.790319 3.996163 0.000000
-10.254191 17.526878 3.914392 43.000000
-10.246428 17.640516 3.932564 41.000000
-10.220863 17.789068 3.954899 19.000000
-10.433354 20.153738 3.964864 5.000000
-10.310430 20.148350 3.954193 5.000000
-10.170950 20.108755 3.936983 11.000000
-10.065464 20.135366 3.932853 23.000000
-10.094954 20.353977 3.969338 27.000000
-10.083143 20.491657 3.989990 30.000000
-5.137780 -39.290199 4.097610 6.000000
-6.328567 -32.956688 4.064034 6.000000
-6.393249 -32.737877 4.039509 3.000000
-5.339934 -29.009602 4.095673 6.000000
-5.513999 -28.932652 4.089622 5.500000
-6.176591 -28.713417 4.078069 14.000000
-6.615219 -28.562677 4.070918 4.000000
-9.208767 -27.910089 4.080820 3.000000
-7.785627 -27.791113 4.007378 5.500000
-8.691551 -27.650017 4.024432 5.500000
4.704161 -25.505133 4.065079 36.500000
4.752191 -25.102215 4.004378 38.000000
4.143675 -23.075804 4.096004 2.000000
4.661761 -22.852062 4.074664 39.000000
4.934337 -22.899599 4.092563 39.000000
5.146471 -22.836702 4.089809 35.000000
5.302323 -22.857653 4.099447 38.000000
4.814932 -22.691427 4.052635 36.000000
5.339815 -22.695131 4.073287 10.000000
5.696598 -22.612276 4.073976 5.000000
6.312075 -22.100136 4.015461 1.000000
6.857103 -22.151728 4.051259 4.000000
-10.126204 -21.097208 4.088432 26.000000
-10.115207 -20.905680 4.057454 25.000000
-10.741831 -20.608467 4.060207 29.000000
-10.622933 -20.616861 4.051947 29.000000
-10.504200 -20.624527 4.043686 30.500000
-10.347927 -20.637276 4.033360 30.000000
-10.227806 -20.639950 4.024411 30.000000
-10.126927 -20.680828 4.023034 28.000000
-11.221764 -20.573566 4.094284 30.500000
-11.062429 -20.588135 4.083269 28.000000
-10.899679 -20.594547 4.070878 27.500000
7.417167 -19.912237 4.096105 1.000000
6.195896 -19.807467 4.000706 29.000000
-12.562518 -19.734402 4.087055 31.000000
7.155674 -19.778122 4.054462 1.000000
7.166557 -19.615355 4.025692 33.000000
-12.509629 -19.515703 4.049881 24.000000
-12.870426 -19.489325 4.080401 9.666667
-12.712030 -19.492725 4.065715 9.500000
-12.547373 -19.439890 4.042309 36.000000
7.823782 -19.315989 4.017363 0.000000
8.283936 -19.225849 4.035534 0.000000
8.658970 -18.939024 4.014334 3.000000
10.207100 -18.497757 4.072634 3.000000
9.901757 -18.351170 4.019634 1.000000
-12.377020 -17.148571 4.076798 23.000000
-12.394097 -17.002781 4.055977 34.000000
-12.379696 -16.816114 4.025313 38.000000
-12.255756 -14.862136 4.065800 2.000000
-12.249224 -14.712494 4.040606 26.000000
-12.246698 -14.569210 4.017064 34.000000
-15.441982 -14.006844 4.018877 8.000000
8.433918 -14.008694 4.059635 4.000000
-16.040277 -13.963214 4.099512 8.500000
-15.852060 -13.975407 4.073770 8.500000
-15.717066 -13.988640 4.055977 9.000000
-15.575027 -13.994240 4.036291 8.000000
-12.137166 -12.924858 4.072507 40.000000
12.170877 -12.919941 4.076984 5.000000
-12.130831 -12.756522 4.043405 38.500000
-12.122018 -12.627482 4.020571 40.000000
-12.118291 -12.544476 4.006244 43.000000
-12.551690 -12.278655 4.033107 5.000000
-12.420187 -12.265038 4.009377 7.000000
11.377812 -11.927022 4.092405 2.000000
11.262833 -11.881003 4.064454 25.000000
9.502949 -11.672549 4.022682 13.000000
11.674456 -11.348948 4.042286 8.000000
9.959793 -11.225889 4.010805 2.000000
10.249600 -11.264208 4.070189 14.500000
-11.998732 -11.091548 4.056743 15.333333
12.214931 -11.079711 4.094333 2.000000
-12.028101 -10.979315 4.043250 4.000000
11.284853 -9.854815 4.004091 15.000000
11.422644 -9.849327 4.030944 21.000000
-11.930753 -9.620070 4.096009 39.500000
13.355076 -9.511980 4.070719 6.000000
-11.922934 -9.490768 4.072771 42.000000
-11.911359 -9.329740 4.043682 40.666668
-11.902189 -9.172582 4.015968 40.500000
14.973789 -1.510412 4.022165 0.500000
14.929852 -1.340334 4.006157 3.000000
14.920582 -1.268653 4.002026 27.000000
-14.317961 10.096472 4.024153 8.000000
-14.216236 10.091754 4.004453 8.000000
-12.993627 10.024461 4.074413 5.333333
-12.873892 10.018447 4.049996 6.000000
-12.758543 10.014705 4.026865 5.666667
-14.704185 10.117168 4.099669 8.000000
-14.537921 10.115413 4.068030 5.000000
-14.423053 10.102880 4.044748 8.000000
-10.668609 10.502326 4.000993 46.000000
-10.664342 10.631025 4.024403 41.333332
-10.653444 10.788214 4.052115 41.000000
-10.644804 10.915806 4.074837 43.000000
-10.881540 13.626186 4.005348 6.000000
-10.876399 13.752245 4.027287 6.000000
-10.864151 13.915566 4.055046 6.000000
-10.847893 14.076193 4.081909 6.000000
-10.470846 14.083689 4.031018 15.333333
-10.808695 14.162781 4.092207 0.000000
-10.406057 14.181695 4.040271 7.000000
-10.446424 14.330875 4.073402 0.000000
-11.077541 15.656914 4.048040 8.500000
-10.352971 15.923922 4.008803 44.000000
-10.345356 16.022123 4.025324 39.000000
-10.338161 16.177895 4.052171 44.000000
-10.323593 16.323996 4.076539 43.000000
-12.805490 16.779209 4.068848 0.000000
-12.624188 16.758949 4.044620 3.000000
-10.075764 20.640083 4.012708 28.000000
-10.065823 20.785120 4.034737 25.000000
-10.053373 20.926741 4.056077 28.000000
-10.048608 21.086275 4.080860 27.000000
-5.870996 -39.999847 4.180722 21.000000
-5.666470 -39.914757 4.168996 25.000000
-5.335140 -39.825962 4.155212 4.000000
-6.460828 -39.670998 4.156447 11.000000
-4.411757 -39.518459 4.112010 8.000000
-4.163782 -39.549355 4.112422 8.000000
-6.293522 -39.423923 4.128469 8.000000
-6.042675 -39.443024 4.126411 8.000000
-5.412653 -39.462120 4.119005 11.000000
-4.275999 -39.425323 4.100901 21.000000
-4.027387 -39.443497 4.100079 8.000000
-4.773473 -39.388226 4.102959 2.000000
-6.129669 -39.187992 4.101724 5.000000
-7.681593 -33.674625 4.182815 11.000000
-7.866712 -33.513584 4.168869 6.000000
-7.747956 -33.480103 4.161656 14.000000
-6.079626 -33.354744 4.105872 4.000000
-9.091622 -33.074577 4.153962 21.000000
-8.980394 -33.076145 4.150595 22.000000
-4.582441 -29.876640 4.196896 14.000000
-4.919819 -29.590014 4.164989 6.000000
-4.689415 -29.342566 4.125930 20.000000
-5.810540 -29.238235 4.139133 22.000000
-5.720176 -29.264122 4.140233 19.000000
-5.238143 -29.229465 4.123179 2.000000
-4.774562 -29.284674 4.119879 11.000000
-7.812726 -29.116829 4.185894 8.000000
-7.497348 -29.031885 4.163338 48.000000
-8.742943 -28.921530 4.195246 45.000000
-7.657283 -28.899950 4.151236 15.000000
-5.853730 -28.979057 4.105025 12.000000
-8.834919 -28.897709 4.195796 42.000000
-7.551412 -28.866369 4.142984 56.000000
-6.120016 -28.891594 4.100624 3.000000
-9.106908 -28.501358 4.154536 28.000000
-9.004188 -28.488270 4.148485 46.000000
-9.213257 -28.221361 4.122079 26.000000
-9.122121 -28.242622 4.120979 40.000000
4.656481 -25.931576 4.129496 31.000000
4.564703 -25.887699 4.120204 11.000000
4.474299 -23.234718 4.133867 34.000000
5.078675 -23.215023 4.151765 39.000000
4.261004 -23.102478 4.104265 0.500000
4.369038 -23.078312 4.103577 24.000000
5.114853 -23.033548 4.122164 37.000000
4.799219 -22.972578 4.100135 39.000000
5.258594 -22.997116 4.121476 27.000000
5.901700 -22.820187 4.118033 14.000000
6.430973 -22.787283 4.136621 5.000000
6.607845 -22.597075 4.113215 5.000000
5.246766 -20.842052 4.143047 1.000000
5.583676 -20.795000 4.150619 10.000000
-12.126411 -20.512756 4.163124 31.000000
-12.000758 -20.520395 4.153142 29.000000
-11.914473 -20.520510 4.145570 31.000000
-11.791156 -20.530260 4.136276 28.500000
-11.669940 -20.542812 4.127671 32.000000
-11.546961 -20.551159 4.118378 30.500000
-11.383257 -20.561253 4.105987 32.000000
-16.395117 -20.405994 4.102861 6.000000
-12.544884 -20.479355 4.195824 42.500000
-12.415546 -20.484369 4.184809 43.000000
-12.289508 -20.493607 4.174827 38.000000
-16.699389 -20.388144 4.130734 7.000000
-16.597837 -20.394531 4.121443 6.000000
-16.493931 -20.397406 4.111533 6.000000
7.483720 -20.285507 4.168033 10.000000
-12.458726 -20.125225 4.135244 6.000000
-12.578642 -20.036537 4.133179 31.000000
-12.473946 -20.009079 4.119411 12.000000
17.708990 -20.016367 4.188957 3.000000
-12.569940 -19.883680 4.109773 31.000000
7.818523 -19.838327 4.110491 1.000000
10.033263 -18.877771 4.121090 0.000000
7.542341 -18.290033 4.175664 8.000000
7.754360 -17.996778 4.136014 0.000000
6.360804 -15.243306 4.100758 22.000000
6.120725 -14.454580 4.195156 0.000000
8.799379 -14.208550 4.149271 2.000000
-16.560247 -13.920337 4.170304 1.000000
-16.468452 -13.931710 4.158190 8.000000
-16.320499 -13.938956 4.137369 9.000000
-16.184717 -13.955491 4.119576 9.000000
-12.173556 -13.505877 4.176379 33.000000
-12.171400 -13.418477 4.161157 38.000000
-12.163560 -13.325465 4.144143 38.000000
-12.157892 -13.235508 4.128025 36.000000
-12.149826 -13.102336 4.104296 36.500000
11.403278 -12.453142 4.192161 1.000000
-11.931146 -9.933592 4.149197 13.000000
-11.943450 -9.786157 4.126648 38.666668
12.124545 -9.465977 4.110984 14.000000
12.212350 -9.381029 4.115632 33.000000
12.522307 -9.128078 4.141451 5.000000
12.541490 -8.902891 4.110468 3.000000
-11.981663 9.975588 4.166755 5.500000
-11.864985 9.973559 4.142484 5.000000
-15.131407 10.133331 4.182946 8.000000
-14.951159 10.126498 4.147725 7.000000
-14.841968 10.120711 4.126234 8.000000
-10.635835 11.079477 4.104616 43.333332
-10.625971 11.244568 4.134738 43.500000
-10.617075 11.377497 4.159009 41.500000
-10.608222 11.512190 4.183795 44.500000
-10.528896 12.891369 4.132404 26.000000
-10.760513 12.924286 4.175294 10.000000
-10.650082 12.914983 4.156017 3.000000
-10.483936 12.960459 4.138669 9.000000
-10.545317 13.120418 4.179149 4.000000
-10.319157 16.488594 4.105451 41.500000
-10.305285 16.640179 4.131058 42.000000
-10.304214 16.755814 4.151709 41.000000
-10.292202 16.914536 4.178968 41.500000
-10.159271 18.899460 4.136233 27.000000
-10.084875 18.974884 4.142290 1.000000
-11.065914 20.917461 4.134326 4.666667
-10.947713 20.905493 4.122852 5.000000
-10.036194 21.231739 4.102889 24.000000
-10.027992 21.388029 4.126983 25.000000
-10.018897 21.544481 4.151077 26.000000
-10.005628 21.693924 4.173794 24.000000
-9.999712 21.861412 4.199954 23.000000
-4.204237 -30.612206 4.290417 6.000000
-4.386913 -30.518517 4.281065 17.000000
-4.557394 -30.349302 4.261261 16.000000
-4.263996 -30.339899 4.254109 9.000000
-5.329627 -30.287621 4.270062 8.000000
-4.451664 -30.292910 4.251358 10.000000
-5.203427 -30.124622 4.244757 4.000000
-5.108760 -30.140821 4.244757 2.000000
-4.708154 -30.065639 4.225502 35.000000
-6.743495 -29.972015 4.265661 32.000000
-6.645014 -29.973713 4.262911 9.000000
-6.810280 -29.830942 4.248608 7.000000
-8.327386 -29.546421 4.262361 31.000000
-8.502980 -29.459257 4.257410 33.000000
-8.397346 -29.440104 4.250808 32.000000
-7.492221 -29.393148 4.211749 28.000000
-10.284937 -29.011576 4.273913 1.000000
-12.357324 -28.204252 4.275564 2.000000
-12.599698 -28.114143 4.277764 9.333333
-12.887762 -28.045774 4.285649 12.000000
-12.705855 -28.035917 4.273913 19.000000
-12.404234 -28.071068 4.261261 8.000000
-12.949492 -27.871805 4.267312 17.000000
-12.979840 -27.709002 4.248608 21.000000
4.143860 -26.954378 4.274434 4.000000
4.214427 -26.851435 4.260188 38.000000
-5.321809 -26.778976 4.279388 8.000000
4.548201 -26.776876 4.257091 18.000000
4.367315 -26.466555 4.204442 39.500000
-8.993356 -25.883572 4.294874 3.000000
-9.368987 -25.657454 4.281247 3.000000
-8.806602 -25.605272 4.244083 0.000000
-8.539893 -25.612154 4.231695 5.000000
5.988841 -23.460930 4.230244 3.000000
5.884127 -21.376766 4.274032 36.000000
5.135931 -21.245623 4.213461 13.000000
5.790153 -21.296602 4.254346 27.000000
6.173111 -21.248051 4.265325 27.500000
5.881675 -21.108459 4.224061 32.000000
6.043294 -21.173061 4.244503 35.000000
6.257049 -21.164131 4.254346 9.000000
6.466785 -20.903727 4.218004 6.000000
7.061578 -20.946762 4.261161 6.000000
6.903606 -20.838022 4.231632 22.000000
7.171319 -20.838842 4.248290 1.000000
7.332046 -20.878605 4.265704 6.000000
7.449835 -20.795151 4.258132 0.000000
17.747519 -20.444994 4.243464 4.000000
17.987823 -20.460699 4.270098 8.000000
17.926823 -20.134773 4.225502 1.000000
18.025505 -19.865419 4.204442 1.000000
18.157986 -19.760502 4.206300 2.000000
6.636644 -19.090025 4.265703 1.000000
7.864635 -18.736681 4.288833 0.000000
7.923460 -18.711882 4.288833 4.000000
7.351706 -18.653849 4.231835 5.000000
-12.449121 -18.318371 4.269489 26.500000
-12.497554 -18.204464 4.256618 5.000000
-12.346981 -16.178419 4.295441 38.000000
-12.340524 -16.065062 4.275616 34.000000
-12.302359 -15.911652 4.245052 19.000000
-12.682652 -15.881598 4.289659 5.000000
-12.567621 -15.890497 4.276029 5.500000
-12.390471 -15.870420 4.249596 14.500000
6.611294 -14.581282 4.278811 27.000000
-12.212713 -14.118736 4.287863 35.500000
-14.688202 -14.055930 4.290898 6.500000
-14.513883 -14.064861 4.265703 7.000000
-14.397067 -14.083890 4.250834 2.000000
-12.206086 -13.977320 4.262342 34.000000
-12.198467 -13.880338 4.244433 34.000000
-12.192943 -13.786461 4.227420 37.000000
-12.186314 -13.648903 4.202795 34.000000
11.159657 -12.942284 4.242762 5.000000
11.750364 -12.711474 4.297700 0.000000
11.397912 -12.565737 4.211919 24.000000
11.926036 -12.423326 4.275532 19.000000
-12.091764 -12.321951 4.286134 32.000000
-12.207412 -12.245822 4.292881 2.000000
-12.100576 -12.215163 4.268785 12.000000
10.276031 -11.993484 4.220975 5.000000
11.425814 -11.037637 4.245762 4.000000
11.705490 -10.820444 4.260221 35.000000
11.827650 -10.864656 4.292237 2.000000
11.484929 -10.751169 4.204451 1.000000
11.849147 -10.680261 4.263319 3.000000
12.540665 -10.014667 4.289139 1.000000
12.168722 -9.970629 4.204451 1.000000
12.712913 -9.513935 4.243697 13.000000
12.892082 -9.335741 4.254025 30.000000
-12.400104 9.998394 4.257123 6.000000
-12.274908 9.993342 4.230270 6.000000
-12.147099 9.984764 4.202385 6.000000
-14.014445 10.081533 4.286134 2.000000
-13.919820 10.079970 4.266858 4.000000
-13.767215 10.068615 4.234570 5.000000
-13.646209 10.079242 4.211919 1.000000
-12.525569 10.002608 4.283975 6.000000
-15.512830 10.155176 4.258761 6.000000
-15.402727 10.152374 4.237270 8.000000
-15.289552 10.146818 4.214884 7.000000
-10.599401 11.648638 4.209099 44.000000
-10.574521 11.791376 4.232956 24.200001
-11.462865 12.960968 4.295772 10.000000
-11.354346 12.960780 4.277942 8.000000
-11.243519 12.957005 4.259147 11.000000
-11.068427 12.918242 4.223485 9.333333
-10.912834 12.941000 4.202763 10.500000
-10.395251 15.244583 4.238165 15.000000
-10.646856 15.353043 4.291445 6.500000
-10.540173 15.353269 4.277565 6.000000
-10.382289 15.328809 4.252492 43.000000
-10.373246 15.419577 4.268610 31.000000
-10.368073 15.516916 4.286520 42.000000
-10.281092 17.076834 4.207054 42.000000
-10.275590 17.189669 4.226879 39.000000
-10.266115 17.359196 4.256617 39.500000
-10.255420 17.528976 4.286355 40.000000
-11.942780 21.395298 4.280841 7.500000
-11.808475 21.391020 4.268794 7.000000
-11.671683 21.380672 4.255714 4.500000
-12.079272 21.402313 4.293577 7.000000
-9.989575 22.021904 4.224736 22.000000
-9.980157 22.186136 4.250207 19.000000
-9.971399 22.354128 4.276367 19.000000
-13.607210 -33.029938 4.326122 12.000000
-13.498879 -33.061493 4.324679 6.000000
-13.740766 -32.768009 4.303039 4.000000
-4.021590 -30.712656 4.300869 1.000000
-5.760557 -30.486881 4.308021 28.000000
-11.110155 -29.278479 4.348180 23.000000
-10.987456 -29.231644 4.336077 23.000000
-10.773416 -29.218323 4.323975 4.000000
-12.213496 -28.857174 4.350931 7.000000
-12.265202 -28.727566 4.337178 2.000000
-11.934575 -28.699213 4.315722 13.000000
-5.266829 -27.401756 4.373537 5.000000
4.130331 -27.440098 4.349380 13.000000
4.375014 -27.314106 4.335753 24.000000
-5.152836 -27.270611 4.349999 7.000000
-6.460128 -27.116776 4.369201 4.000000
-5.049099 -27.189531 4.334515 12.000000
-4.954433 -27.154722 4.326463 9.000000
-7.435099 -27.029793 4.393976 5.000000
-6.882335 -27.000469 4.367342 2.000000
-4.847489 -27.049568 4.307261 4.000000
-7.577980 -26.887453 4.378491 1.000000
-7.625559 -26.734306 4.357432 1.000000
-7.003837 -26.773188 4.337612 7.000000
-6.894007 -26.695574 4.321507 2.000000
-9.140063 -26.041628 4.325843 6.000000
-9.383744 -25.950615 4.325224 4.000000
-9.249395 -25.961014 4.319649 8.500000
5.189313 -22.072750 4.370945 18.000000
5.283549 -22.058435 4.372459 23.333334
5.461505 -22.085186 4.385583 36.333332
5.591399 -22.016190 4.378769 36.333332
6.068434 -21.517042 4.309618 13.000000
6.906595 -21.485695 4.350503 5.500000
-14.548369 -20.501841 4.392018 7.000000
-14.362763 -20.512154 4.374808 7.000000
-14.226669 -20.522892 4.362761 6.000000
-13.779709 -20.560524 4.324211 13.000000
-13.620576 -20.531696 4.304591 2.000000
-14.635613 -20.488096 4.398902 5.000000
-14.449837 -20.499136 4.381692 7.000000
6.499274 -19.583076 4.354917 12.500000
6.636173 -19.549513 4.357395 27.333334
19.315447 -19.491547 4.301067 1.000000
6.631401 -19.269913 4.301223 9.000000
6.769206 -19.275873 4.311962 4.000000
7.060306 -19.137793 4.305354 1.000000
7.335250 -19.138926 4.326005 0.000000
-12.945481 -18.730549 4.389117 1.000000
8.595786 -18.645697 4.333439 1.000000
-12.376218 -16.646379 4.378046 37.000000
-12.372174 -16.532211 4.358221 35.000000
-12.360471 -16.408855 4.335917 38.000000
-12.352845 -16.291977 4.315266 37.000000
-12.246262 -14.708927 4.396213 26.000000
-12.243995 -14.565993 4.370692 33.000000
-12.232976 -14.414528 4.342485 30.500000
-12.223469 -14.266403 4.315174 37.000000
-14.932979 -14.037668 4.325729 6.333333
-14.815336 -14.044494 4.308658 7.000000
7.919881 -14.038334 4.307729 0.000000
-15.430765 -13.996669 4.397045 6.000000
11.566650 -13.329384 4.381553 1.000000
11.588040 -13.269588 4.373842 1.000000
11.704069 -12.985005 4.340108 2.000000
-12.136168 -12.762136 4.372396 40.500000
12.064077 -12.726225 4.353602 1.000000
-12.122293 -12.627769 4.345891 36.000000
-12.115425 -12.502222 4.322278 39.500000
-12.549036 -12.276058 4.358421 5.000000
-12.419241 -12.264091 4.333362 6.000000
-12.306310 -12.267708 4.314085 6.000000
-12.000551 -11.093235 4.367630 16.333334
-12.027264 -10.978551 4.352139 13.000000
-13.001463 10.030486 4.388630 4.666667
-12.885098 10.027168 4.363499 5.000000
-12.746572 10.016083 4.332516 5.500000
-12.611419 10.006446 4.302565 6.000000
-14.140808 10.105166 4.315049 0.000000
-11.534495 12.959693 4.307338 7.000000
-10.886806 13.632781 4.331434 5.000000
-10.878983 13.755502 4.354084 5.500000
-10.867601 13.919970 4.384444 6.000000
-10.469436 14.081771 4.356493 14.000000
-10.401487 14.175467 4.365168 8.000000
-10.787295 15.400126 4.318756 6.000000
-10.364539 15.617629 4.305324 39.000000
-10.362627 15.721721 4.325024 36.000000
-10.350141 15.865076 4.350992 37.000000
-10.342995 16.018465 4.379646 36.000000
-12.207256 16.746468 4.373915 3.000000
-12.138521 16.762543 4.368133 0.000000
-10.247482 17.642330 4.306180 42.000000
-10.222681 17.792225 4.330961 21.000000
-10.470493 20.156557 4.378517 4.000000
-10.342230 20.140991 4.364510 5.000000
-10.165888 20.107412 4.343310 7.000000
-10.057795 20.128805 4.337631 27.000000
-10.086973 20.346807 4.377759 29.000000
-12.268341 21.421734 4.312852 1.000000
-12.171773 21.408787 4.302526 7.000000
-9.933414 22.554106 4.305624 9.000000
-11.059534 25.544781 4.363007 1.500000
-10.918833 25.549419 4.354955 1.000000
-10.829268 25.561762 4.351238 1.000000
-13.177782 -29.569992 4.495063 10.000000
-13.067203 -29.571381 4.489012 1.000000
-12.849569 -29.580225 4.478009 8.000000
-12.706427 -29.504002 4.460405 3.000000
-11.953485 -29.526546 4.422997 2.000000
-11.481018 -29.554070 4.402368 3.500000
-11.618049 -29.494125 4.401542 2.000000
-6.054112 -27.720175 4.447244 7.000000
-5.937078 -27.599977 4.424946 4.000000
-8.284678 -27.405596 4.487505 1.000000
-8.766966 -27.143042 4.470781 3.000000
-7.550714 -27.116703 4.411939 3.000000
-7.996988 -27.066761 4.423707 1.000000
-7.883118 -26.993124 4.407603 5.000000
4.753098 -25.107006 4.464301 9.000000
4.448720 -22.738335 4.466344 6.000000
5.113925 -22.710768 4.487544 41.000000
4.357969 -22.651917 4.446659 7.000000
4.536115 -22.618893 4.447038 19.000000
4.719653 -22.611429 4.452716 27.000000
4.834244 -22.684910 4.471139 16.000000
4.638322 -22.576128 4.442873 38.000000
5.713714 -22.109217 4.401988 14.000000
6.776804 -22.152109 4.465587 2.000000
6.994757 -22.117212 4.471644 39.000000
5.931001 -22.088524 4.408802 10.000000
-10.127498 -20.921768 4.480730 25.000000
-10.105330 -20.709827 4.442116 25.000000
-10.745496 -20.606724 4.479973 31.000000
-10.586206 -20.616182 4.467480 29.000000
-10.428997 -20.627956 4.455745 30.500000
-10.314112 -20.641775 4.448173 32.000000
-10.193259 -20.642570 4.437952 29.000000
-10.904173 -20.594336 4.492087 31.000000
7.190246 -19.873676 4.460650 3.000000
7.321219 -19.654654 4.426783 1.000000
-12.715467 -19.490538 4.486030 9.500000
-12.540642 -19.489151 4.467480 26.500000
-12.998479 -19.321920 4.489058 5.000000
-12.389292 -17.165577 4.468085 20.500000
-12.398608 -17.008970 4.442477 32.000000
-12.386895 -16.825882 4.409848 34.500000
-12.242587 -14.846167 4.419942 0.000000
8.447564 -14.232977 4.423400 7.000000
-15.998422 -13.971074 4.482954 2.000000
-15.854631 -13.977658 4.461063 5.000000
-15.711092 -13.983323 4.439173 6.000000
-15.572254 -13.991757 4.418522 6.000000
-12.172660 -13.377659 4.490465 35.000000
-12.167339 -13.245792 4.465405 37.000000
-12.158821 -13.153340 4.447093 38.000000
-12.147201 -13.058228 4.427816 34.000000
-12.143440 -12.931525 4.404202 37.000000
11.482905 -11.812258 4.402745 10.000000
-17.878757 -2.030719 4.467333 2.000000
-17.895870 -1.947276 4.469261 0.000000
-10.543737 12.868179 4.446122 9.000000
-10.766882 12.931940 4.497244 8.000000
-10.652955 12.918468 4.475039 4.000000
-10.520339 12.922215 4.453351 39.000000
-10.506535 13.030357 4.473491 7.000000
-10.853379 14.083307 4.414323 5.000000
-10.810498 14.165144 4.423961 0.000000
-11.230214 15.680353 4.430090 5.000000
-11.084929 15.667329 4.408301 7.500000
-10.332397 16.168882 4.407405 38.500000
-10.324927 16.326105 4.436955 40.000000
-10.315013 16.482002 4.466058 38.000000
-10.306066 16.641439 4.496055 36.000000
-12.805243 16.778887 4.454868 1.000000
-12.631276 16.768358 4.430912 3.000000
-10.080201 20.494707 4.402745 27.000000
-10.070886 20.639227 4.426973 28.000000
-10.062464 20.787430 4.451959 31.000000
-10.053219 20.935780 4.476944 30.000000
-9.897902 23.673445 4.482888 5.500000
-13.166862 -30.310646 4.588584 11.000000
-13.087124 -29.869942 4.528070 22.000000
-5.518945 -28.713438 4.582891 6.000000
5.015251 -25.610273 4.559300 10.000000
4.262030 -25.578577 4.530388 1.000000
4.335769 -25.526217 4.523504 36.000000
4.745553 -25.505322 4.532453 43.000000
4.646977 -25.419327 4.514555 42.000000
5.051829 -25.374115 4.520061 6.000000
5.089393 -23.283480 4.594300 39.000000
4.147187 -23.118551 4.527672 0.000000
4.271760 -23.115803 4.531458 27.000000
4.378758 -23.151766 4.542058 5.000000
5.206246 -22.786486 4.505715 24.000000
6.185849 -22.752003 4.545086 2.000000
6.423457 -22.775858 4.561744 15.000000
5.964977 -22.640326 4.513287 28.500000
7.238839 -22.641336 4.582186 6.000000
7.285771 -22.543736 4.567044 25.000000
-10.136529 -21.109270 4.514044 27.000000
-12.127106 -20.505764 4.592408 34.500000
-11.960444 -20.517082 4.578022 36.000000
-11.795099 -20.528824 4.564015 35.000000
-11.674927 -20.543242 4.554929 33.000000
-11.551057 -20.550056 4.544330 30.000000
-11.387465 -20.560379 4.530701 28.000000
-11.224188 -20.569464 4.517073 30.500000
-11.064965 -20.584230 4.504958 31.500000
-16.452576 -20.411686 4.580297 5.500000
-16.602037 -20.399691 4.595098 4.000000
7.049185 -20.276682 4.530864 9.000000
-12.473999 -20.142042 4.567044 5.000000
-12.579415 -20.030006 4.559472 32.000000
-12.470706 -19.996107 4.542815 12.000000
-12.577202 -19.887484 4.536001 31.000000
-12.565777 -19.731918 4.509501 29.000000
-13.000998 -19.457363 4.511015 4.000000
-12.868643 -19.479254 4.500415 9.333333
-16.396227 -13.959215 4.544907 1.000000
-16.301762 -13.967370 4.530864 4.000000
-16.154381 -13.973558 4.508148 5.000000
-12.198505 -13.836575 4.579619 38.000000
-12.186945 -13.649618 4.542994 37.500000
-12.174519 -13.506945 4.514561 40.000000
11.034079 -13.043210 4.565924 8.000000
11.395061 -12.562593 4.532876 31.000000
-12.107730 -12.222384 4.597940 12.000000
-13.918693 10.079154 4.592777 6.000000
-13.774374 10.073840 4.560760 5.000000
-13.645904 10.079017 4.533908 1.000000
-11.252831 12.967735 4.588645 9.000000
-11.073895 12.924650 4.548711 8.333333
-10.956706 12.951751 4.533908 9.000000
-10.881154 12.944694 4.519449 8.000000
-10.397613 15.248047 4.582028 19.000000
-10.382316 15.328849 4.596486 46.000000
-10.298665 16.746792 4.515755 38.000000
-10.290491 16.911713 4.547096 36.500000
-10.281132 17.076900 4.578436 37.000000
-10.269442 17.179382 4.597241 37.000000
-10.159416 18.899734 4.528799 25.500000
-10.104256 19.011349 4.544081 1.000000
-10.041451 21.080729 4.501173 26.000000
-10.028861 21.225813 4.525401 27.000000
-10.020470 21.381691 4.551901 26.000000
-10.012842 21.541290 4.579158 25.000000
-4.451138 -29.641708 4.698099 16.000000
-4.729060 -29.590635 4.696860 12.000000
-5.034051 -29.419971 4.678278 10.000000
-5.935628 -29.384497 4.698718 1.000000
-4.593889 -29.335958 4.654121 29.000000
-5.994541 -29.203119 4.672703 7.000000
-4.855904 -29.205599 4.640495 29.000000
-4.772400 -29.271412 4.648547 17.000000
-5.499147 -29.103407 4.642353 16.000000
-5.416345 -29.167164 4.649786 8.000000
-5.137793 -29.197454 4.646689 8.000000
-5.675072 -29.033377 4.636779 10.000000
-5.298442 -29.040195 4.626868 3.000000
-7.607134 -28.710680 4.655360 51.000000
-7.522900 -28.757378 4.659077 21.000000
-7.699345 -28.694273 4.656599 3.000000
-9.250772 -28.336275 4.672084 34.000000
-9.149565 -28.327589 4.665890 43.000000
-9.413960 -27.940744 4.621294 9.000000
-9.594467 -27.895996 4.623771 51.000000
-9.459667 -27.787582 4.600854 14.000000
4.420698 -26.530827 4.699047 36.000000
4.549677 -26.285103 4.660496 37.000000
4.617864 -26.189190 4.646039 27.000000
4.676434 -26.042694 4.622634 18.000000
6.777078 -22.923101 4.607929 12.000000
6.953129 -21.061304 4.681205 32.000000
7.811382 -20.770842 4.683683 9.000000
-12.254830 -20.500681 4.604143 36.000000
-16.744867 -20.399961 4.610931 4.333333
-12.589659 -20.472206 4.632915 48.000000
-12.456297 -20.470875 4.619286 45.500000
-12.339435 -20.495729 4.611714 40.000000
7.940018 -20.428322 4.625860 1.500000
6.326176 -19.366407 4.679622 7.000000
6.234132 -19.289740 4.656341 23.000000
6.557711 -19.153282 4.650072 14.000000
6.625761 -18.962677 4.613807 7.500000
6.762018 -18.875208 4.605300 0.000000
-12.454523 -18.326313 4.676661 23.500000
-12.508662 -18.220644 4.664684 5.000000
-12.924963 -18.086720 4.691943 2.000000
-12.351229 -16.236908 4.685890 34.000000
-12.335049 -16.057934 4.650968 27.000000
-12.672016 -15.868279 4.664400 5.000000
-12.563252 -15.884968 4.651863 5.000000
-12.423342 -15.861170 4.627686 4.000000
-12.319765 -15.882556 4.616941 21.000000
-12.234463 -14.416269 4.694314 34.500000
-12.227808 -14.271467 4.665881 35.000000
-12.217398 -14.124161 4.636485 35.500000
-14.816857 -14.045936 4.689472 8.000000
-14.691372 -14.058943 4.670668 8.000000
-14.517361 -14.068228 4.643356 8.000000
-14.396544 -14.083378 4.625896 3.000000
-12.205999 -13.977221 4.607088 36.000000
-12.128348 -12.634077 4.680563 40.000000
-12.120469 -12.507423 4.654743 36.000000
-12.098660 -12.328978 4.616530 30.500000
-12.552359 -12.279309 4.692956 7.000000
-12.416006 -12.260893 4.663522 6.000000
-12.304707 -12.266109 4.643383 6.000000
-12.165166 -12.203444 4.605170 1.000000
-14.221041 10.095164 4.660940 5.000000
-14.047667 10.083046 4.621350 5.666667
-14.379133 10.105743 4.697087 6.000000
-11.500795 12.976400 4.634088 7.666667
-11.366030 12.974109 4.609818 8.500000
-10.894841 13.642841 4.666104 6.000000
-10.881916 13.759211 4.688309 6.000000
-10.473019 14.086549 4.691235 14.333333
-10.773265 15.380096 4.662026 6.000000
-10.648691 15.355688 4.639376 6.000000
-10.535546 15.346531 4.621545 6.000000
-10.373109 15.419373 4.613835 23.000000
-10.372355 15.576344 4.646123 36.500000
-10.361926 15.720656 4.674556 39.000000
-10.267148 17.298727 4.620522 37.000000
-10.262237 17.414864 4.642909 38.000000
-10.252749 17.524414 4.663504 40.000000
-10.248558 17.644182 4.686786 40.000000
-11.671011 21.388309 4.696892 6.500000
-11.356774 21.367989 4.664714 6.000000
-11.223095 21.358635 4.651086 7.000000
-10.002675 21.697479 4.605658 24.000000
-9.991626 21.853817 4.632157 22.000000
-9.987791 22.028189 4.662443 23.000000
-9.974916 22.184834 4.688942 20.000000
-5.115871 -39.122662 4.778162 8.000000
-5.227147 -39.019810 4.767582 7.000000
-4.922242 -39.073402 4.769265 10.500000
-5.346469 -38.979588 4.764697 20.000000
-5.445720 -38.797440 4.744499 3.000000
-9.210165 -33.076248 4.767375 2.000000
-9.079943 -33.009510 4.753622 9.000000
-8.986582 -33.076107 4.759123 25.000000
-4.330597 -30.126740 4.770567 8.000000
-4.234279 -30.128456 4.768709 13.000000
-4.128314 -30.059395 4.755702 17.000000
-6.522084 -29.862890 4.791008 19.000000
-6.318759 -29.829828 4.779239 14.000000
-4.558020 -29.717417 4.712345 10.000000
-7.465558 -29.677784 4.796582 2.000000
-7.363716 -29.666573 4.791008 11.000000
-6.152412 -29.501364 4.723494 4.000000
-8.379986 -29.379238 4.788530 37.000000
-7.568882 -29.308886 4.744553 36.000000
-7.478719 -29.340178 4.745792 29.000000
-9.121737 -29.018682 4.767780 4.000000
-8.938777 -28.912258 4.743314 43.000000
-8.809504 -28.922956 4.738978 47.666668
-9.163963 -28.679922 4.719158 2.000000
-12.397350 -27.818760 4.773664 4.000000
4.123486 -26.821852 4.741039 4.000000
4.214451 -26.851583 4.748612 37.000000
4.391972 -26.879015 4.758249 15.000000
3.929610 -26.675707 4.710750 10.000000
4.273860 -26.682581 4.721076 37.000000
5.045708 -22.083851 4.781156 0.000000
5.142143 -22.027409 4.774135 15.500000
5.795678 -21.858503 4.772896 36.000000
5.479462 -21.766405 4.737376 29.000000
5.691296 -21.740301 4.743158 26.000000
6.250526 -21.769428 4.780330 37.000000
5.604361 -21.686077 4.727463 6.000000
6.902118 -21.588156 4.783634 5.000000
7.392987 -21.482975 4.795199 2.000000
6.690392 -21.388306 4.729941 4.000000
6.765813 -21.393299 4.735723 11.000000
7.149985 -21.319565 4.746049 5.000000
7.642559 -21.333111 4.782808 8.000000
6.939184 -21.243017 4.716725 32.000000
7.909937 -20.834013 4.703508 4.000000
8.499115 -20.795307 4.741506 1.000000
-13.705819 -20.512203 4.755570 3.000000
-13.639136 -20.551888 4.754813 5.000000
-13.746072 -20.433199 4.747242 1.000000
18.651289 -19.668106 4.735532 6.000000
6.435874 -19.494518 4.715440 4.000000
18.742731 -19.395109 4.712126 1.000000
19.431520 -19.363815 4.792670 6.000000
-12.526065 -18.874676 4.781156 8.000000
-12.520069 -18.737604 4.756375 3.000000
-12.967135 -18.636436 4.791895 3.000000
-12.546102 -18.649471 4.743984 1.000000
-12.947031 -18.483410 4.762983 3.000000
-12.950905 -18.365881 4.743158 1.000000
-12.940573 -18.229359 4.718377 2.000000
-12.388180 -16.827633 4.799613 35.000000
-12.369724 -16.637646 4.762004 39.000000
-12.372879 -16.533154 4.743199 38.000000
-12.356737 -16.403898 4.717231 38.000000
-12.270313 -14.879788 4.788287 5.000000
-12.232704 -14.739596 4.755517 17.000000
-12.254064 -14.671297 4.745879 34.000000
-12.245136 -14.567351 4.724675 29.000000
-15.457093 -14.020550 4.793344 0.000000
-14.998737 -14.040480 4.719022 7.000000
-14.914825 -14.050106 4.706486 8.000000
-12.162390 -13.198816 4.796751 34.500000
-12.149495 -13.060694 4.767316 35.000000
-12.150855 -12.980145 4.751825 44.000000
-12.143877 -12.891275 4.733235 35.000000
-12.135198 -12.761118 4.706383 36.500000
-17.848774 -1.828763 4.795202 22.666666
-17.838282 -1.657967 4.787972 23.000000
-17.835388 -1.516498 4.783841 24.000000
-17.819742 -1.374298 4.776612 22.666666
-17.820375 -1.261751 4.774546 10.000000
-17.640713 1.695499 4.736333 2.000000
-17.630585 1.778416 4.735817 4.500000
-17.619238 1.917169 4.736678 5.000000
-17.606781 2.083906 4.738399 5.000000
-17.490227 2.209531 4.711546 2.000000
-17.591026 2.362773 4.743563 5.000000
-17.582001 2.530476 4.747349 4.333333
-17.572447 2.670135 4.750276 4.500000
-17.566797 2.810604 4.754579 4.000000
-17.547146 2.977342 4.756644 3.666667
-17.540838 3.089766 4.760087 4.000000
-17.514614 3.598423 4.778677 6.000000
-17.507977 3.711884 4.783153 7.000000
-17.494854 3.881732 4.789349 7.000000
-17.145899 4.835646 4.761120 2.000000
-14.818587 10.127445 4.796923 5.000000
-14.636065 10.115602 4.754923 6.000000
-14.540769 10.117394 4.734268 6.000000
-10.872540 13.926306 4.721874 6.000000
-10.865935 14.053802 4.747694 5.000000
-10.857039 14.133842 4.763186 6.000000
-10.406449 14.182228 4.701219 10.000000
-10.450623 14.336637 4.741497 6.000000
-10.439532 14.416346 4.756989 6.000000
-10.440111 14.561174 4.788488 16.500000
-10.353418 15.870121 4.704434 39.500000
-10.341763 16.016558 4.733349 39.000000
-10.335083 16.173084 4.765155 41.000000
-10.323154 16.323301 4.795034 42.000000
-12.139606 16.764126 4.754169 3.250000
-10.219640 17.786922 4.711859 21.500000
-10.226279 17.994190 4.753945 5.000000
-10.225245 18.124697 4.779913 7.000000
-10.148355 20.072891 4.747289 7.000000
-10.435143 20.165783 4.792308 5.500000
-10.303434 20.143349 4.775374 5.000000
-10.065901 20.145031 4.753071 29.000000
-10.086009 20.344864 4.792721 27.000000
-11.849892 21.395298 4.714685 7.000000
-12.123575 21.410839 4.743078 7.000000
-11.987027 21.404377 4.729071 7.000000
-9.964343 22.348793 4.716957 15.000000
-9.954437 22.516491 4.745728 15.000000
-9.912038 22.612404 4.759356 3.000000
-11.133479 -33.044300 4.841641 14.000000
-11.547835 -32.901787 4.841641 23.000000
-11.382939 -32.927715 4.837515 28.500000
-11.232131 -32.994160 4.839441 43.000000
-12.402374 -32.839226 4.874099 5.500000
-12.229520 -32.849083 4.866947 12.000000
-12.112554 -32.850166 4.861446 20.000000
-11.995701 -32.850842 4.855945 29.000000
-11.877616 -32.847382 4.849893 16.000000
-11.655115 -32.876549 4.843292 27.000000
-12.564075 -32.798962 4.876849 7.000000
-13.113114 -32.685818 4.890052 9.000000
-7.102407 -30.233793 4.867812 1.000000
-6.808478 -30.260834 4.861619 3.000000
-6.693704 -30.193338 4.847373 1.000000
-8.372334 -29.705900 4.837462 32.000000
-8.499640 -29.447683 4.804015 42.000000
-12.389681 -28.521544 4.874006 3.000000
-12.310957 -28.585732 4.878342 9.000000
-5.586584 -27.215712 4.853938 6.000000
4.868781 -24.885353 4.888069 20.000000
6.424390 -21.983948 4.834023 50.000000
7.867778 -21.534645 4.838980 3.000000
-10.591614 -20.626713 4.893911 31.500000
-10.468603 -20.625828 4.881934 35.000000
-10.354629 -20.641657 4.874086 31.500000
