# This PCD file was generated using the MATLAB® pcwrite function
# from Computer Vision Toolbox®.
# .PCD v.7 - Point Cloud Data file format
VERSION .7
FIELDS x y z intensity
SIZE 4 4 4 4
TYPE F F F F
COUNT 1 1 1 1
WIDTH 1235
HEIGHT 1
VIEWPOINT 0 0 0 1 0 0 0
POINTS 1235
DATA ascii
7.586855 -7.280619 1.460029 6.000000
7.833564 -7.261540 1.483134 9.000000
7.968688 -7.225567 1.493587 4.000000
9.129453 -7.238510 1.410943 12.000000
9.153382 -7.118018 1.404210 1.000000
-12.292080 -7.094034 1.467635 44.000000
-12.263664 -6.924451 1.456388 35.333332
-12.539931 -6.822803 1.476275 9.000000
-12.275404 -6.804379 1.451383 77.500000
7.804385 -6.856321 1.442425 12.000000
-12.669027 -6.790193 1.486424 11.333333
-12.291654 -6.737848 1.449531 7.000000
6.277886 -6.746358 1.444425 1.000000
7.595807 -6.715476 1.407767 39.000000
-12.683080 -6.644714 1.480664 11.666667
6.068975 -6.667400 1.413146 3.500000
6.420565 -6.561046 1.438851 9.000000
6.432827 -6.532395 1.436993 40.000000
-12.676669 -6.489830 1.472709 12.000000
6.651434 -6.463720 1.453716 16.000000
-12.664910 -6.333888 1.464343 11.333333
8.279005 -6.275001 1.442425 1.000000
8.600739 -6.267170 1.477633 1.000000
-12.652539 -6.179322 1.456114 12.000000
5.947032 -6.192847 1.500033 52.000000
6.599897 -6.098746 1.408500 5.000000
-12.643295 -6.052268 1.449531 12.000000
8.645937 -6.053951 1.465530 2.000000
6.210516 -5.848402 1.490395 18.000000
5.324799 -5.664333 1.498624 33.666668
4.902637 -5.560954 1.429094 11.000000
5.144345 -5.530165 1.455972 11.000000
5.301620 -5.592604 1.485501 35.000000
5.332481 -5.428177 1.466825 30.000000
6.411562 -5.422028 1.466989 19.000000
6.601694 -5.424691 1.492804 3.500000
5.627942 -5.235301 1.481715 53.000000
6.233779 -5.204857 1.418801 1.000000
7.833037 -5.090722 1.464246 18.000000
4.875327 -4.968071 1.469123 15.500000
5.297608 -4.990467 1.402973 23.000000
5.478839 -4.985485 1.427958 34.500000
5.795246 -4.965374 1.471115 13.000000
6.360188 -4.931373 1.406065 3.000000
5.854421 -4.796909 1.459001 7.000000
6.081608 -4.732699 1.485501 33.000000
5.657506 -4.665347 1.413573 1.000000
5.669763 -4.556978 1.402216 66.000000
6.802297 -4.543432 1.429127 2.000000
5.809768 -4.448380 1.410544 34.500000
5.932454 -4.468802 1.431744 83.000000
5.120864 -4.387562 1.423278 23.000000
8.237621 -4.359780 1.460839 12.500000
4.927666 -4.248946 1.494506 6.000000
4.932107 -4.225836 1.491820 23.000000
5.496758 -4.222386 1.462928 64.000000
5.609556 -4.281077 1.489362 0.000000
6.224288 -4.215745 1.449158 62.000000
8.556864 -4.257007 1.498003 9.500000
4.732361 -4.003404 1.423766 75.000000
5.030186 -4.077705 1.487343 69.666664
6.028934 -4.055859 1.400701 10.000000
7.104620 -4.006515 1.424997 23.000000
4.527741 -3.904105 1.484292 5.000000
5.724504 -3.956448 1.468710 66.000000
7.023919 -3.961027 1.408819 8.500000
7.129653 -3.961798 1.424997 11.000000
7.616483 -3.954757 1.499344 39.000000
4.997495 -3.885352 1.487599 25.285715
5.111183 -3.808391 1.464061 43.000000
4.714139 -3.764596 1.497786 3.000000
5.004356 -3.745028 1.435705 19.333334
5.665469 -3.785635 1.438147 23.000000
7.144224 -3.752476 1.409852 55.500000
7.394571 -3.722316 1.446337 9.000000
5.128893 -3.513223 1.427944 58.000000
5.931459 -3.571028 1.461276 64.000000
7.209507 -3.572559 1.405721 29.000000
5.508478 -3.411410 1.488238 24.000000
5.794128 -3.480202 1.426582 73.666664
5.981896 -3.399571 1.452189 37.000000
6.498203 -3.462458 1.419377 70.666664
6.836673 -3.469942 1.477929 35.000000
5.025187 -3.342674 1.498428 14.333333
8.553206 -3.245642 1.433896 2.000000
6.240570 -3.192087 1.479449 44.000000
6.656441 -3.170601 1.421296 42.799999
6.960851 -3.147289 1.472629 38.000000
7.403522 -3.160925 1.406410 55.000000
7.639381 -3.148725 1.443583 2.000000
7.745513 -3.107398 1.458040 63.000000
6.624801 -3.079347 1.408273 50.000000
6.940792 -3.047651 1.461272 38.599998
7.159959 -3.045284 1.499886 15.000000
4.879803 -2.958807 1.416824 1.000000
-12.030039 -2.872638 1.497824 17.000000
4.957137 -2.858545 1.420679 25.000000
-12.021006 -2.724517 1.492695 17.166668
4.833907 -2.731312 1.483900 7.800000
4.939902 -2.786901 1.408150 0.000000
-12.021542 -2.612336 1.489809 19.000000
6.102729 -2.646568 1.403969 17.000000
-12.014404 -2.531837 1.486924 19.000000
-12.008468 -2.412648 1.483317 19.500000
8.972499 -2.317104 1.452477 2.000000
-11.993341 -2.272691 1.478268 20.333334
7.114794 -2.225551 1.437044 17.000000
8.205085 -2.201616 1.484199 2.000000
-11.987268 -2.135298 1.474541 57.250000
6.706458 -2.144173 1.486057 3.000000
-11.980832 -1.979159 1.470574 25.500000
5.334671 -1.920584 1.407668 26.500000
5.539409 -1.964872 1.459232 11.000000
6.768154 -1.954807 1.486883 2.000000
7.252836 -1.947462 1.447644 7.000000
7.885475 -1.957352 1.419489 8.000000
-11.971388 -1.823369 1.466486 23.000000
5.392172 -1.808383 1.412005 15.500000
5.966389 -1.845765 1.434511 69.000000
6.417951 -1.897429 1.412539 32.000000
7.031128 -1.864270 1.402216 2.000000
7.888408 -1.879284 1.416736 3.000000
7.936468 -1.864404 1.424308 20.000000
5.755920 -1.760841 1.494412 30.500000
7.573798 -1.730458 1.497615 38.000000
-11.962876 -1.668532 1.462759 25.500000
5.974875 -1.664843 1.424661 9.000000
-11.953354 -1.514320 1.459152 27.500000
6.616686 -1.577537 1.435669 6.000000
5.347278 -1.417808 1.478529 18.600000
7.492568 -1.490364 1.472629 9.000000
-11.942834 -1.360746 1.455666 29.500000
6.154633 -1.345303 1.447047 30.000000
9.141024 -1.343308 1.448142 0.000000
-11.934298 -1.208060 1.452660 30.250000
5.764749 -1.260080 1.465015 95.000000
6.374025 -1.247068 1.491820 45.000000
6.626012 -1.210125 1.421626 5.000000
5.379432 -1.140490 1.469647 1.000000
5.458529 -1.130410 1.489786 7.500000
-11.917562 -1.074114 1.449094 35.666668
-11.900574 -0.940843 1.445687 47.750000
5.430078 -0.982884 1.474811 18.500000
6.186836 -0.960133 1.438093 8.500000
-11.863113 -0.844115 1.440277 56.000000
6.918233 -0.818827 1.470363 3.000000
7.021695 -0.875843 1.493492 7.000000
-11.906448 -0.772056 1.444926 47.666668
5.936381 -0.740467 1.485256 34.000000
6.053211 -0.793696 1.402275 6.000000
-11.895679 -0.640110 1.442682 49.750000
6.125522 -0.647061 1.414811 30.000000
-11.885921 -0.489873 1.440638 49.250000
-11.876254 -0.340040 1.438835 49.750000
5.494550 -0.302383 1.470680 15.000000
5.309414 -0.208607 1.420074 2.000000
5.957611 -0.252823 1.480437 13.000000
-11.863707 -0.190512 1.436911 47.500000
-11.859209 -0.041406 1.436190 47.500000
5.652227 0.044393 1.403331 66.000000
-11.847050 0.126122 1.434795 50.599998
5.323205 0.142182 1.423172 125.000000
-11.839760 0.293497 1.434266 50.000000
5.682226 0.241136 1.412005 47.000000
6.238911 0.264800 1.434332 20.000000
6.009324 0.344897 1.494412 7.250000
-11.824224 0.441838 1.432944 46.750000
6.959170 0.459776 1.472015 4.500000
-11.817739 0.590378 1.432944 49.000000
-11.805423 0.738601 1.432463 46.500000
5.545516 0.789259 1.497016 5.000000
6.722480 0.774250 1.428234 11.000000
-11.801149 0.887335 1.433184 45.500000
5.574750 0.909903 1.402367 15.000000
-11.792033 1.035823 1.433545 49.750000
-11.780062 1.184119 1.433785 48.750000
6.964850 1.192970 1.491427 10.500000
6.766540 1.224809 1.451363 0.500000
-11.768197 1.332505 1.434266 47.250000
6.641646 1.375406 1.431538 17.000000
6.805595 1.320410 1.463203 4.000000
-11.761360 1.481632 1.435589 48.000000
6.611825 1.412603 1.426995 6.500000
-11.705154 1.568040 1.430179 200.000000
-11.772369 1.652416 1.439636 21.000000
-11.769485 1.784190 1.441600 18.250000
-11.764749 1.935004 1.443884 16.750000
-11.758074 2.085994 1.446168 16.000000
-11.755317 2.238204 1.449174 14.750000
-11.745717 2.389719 1.451578 15.000000
-11.733196 2.541112 1.453862 14.250000
-11.723312 2.654865 1.455666 14.000000
-11.702947 2.708295 1.454704 16.000000
-11.636393 2.731433 1.447491 136.000000
-11.677207 2.837986 1.455305 49.750000
-11.670432 2.992145 1.459032 48.750000
-11.663712 3.127483 1.462398 49.333332
-11.652481 3.262233 1.465404 48.500000
-11.640097 3.417073 1.469131 50.500000
-11.630399 3.573576 1.473459 51.000000
-11.623331 3.731878 1.478388 50.250000
-11.612228 3.889947 1.483077 50.000000
-11.602555 4.029110 1.487405 48.333332
-11.592073 4.168883 1.491853 49.500000
-11.587125 4.332304 1.498105 46.750000
15.437416 5.318542 1.402092 25.000000
15.755811 5.372924 1.429470 23.000000
16.086025 5.429178 1.457875 20.000000
16.431866 5.488459 1.487648 22.000000
-7.296349 5.816250 1.462525 7.333333
19.944635 6.109109 1.426432 20.000000
4.885057 6.581739 1.432018 36.000000
4.979942 6.527548 1.434405 37.000000
4.880072 6.653142 1.441518 22.000000
11.800408 6.711740 1.403860 31.000000
11.921911 6.731365 1.415792 32.000000
12.047122 6.752238 1.428136 30.000000
12.169106 6.770455 1.440068 31.000000
12.294805 6.789897 1.452411 33.000000
14.863487 6.745532 1.401636 63.000000
-11.848014 6.876376 1.416615 12.000000
12.431211 6.814352 1.465989 33.000000
12.564396 6.836113 1.479155 30.000000
12.701341 6.858997 1.492733 29.000000
14.838409 6.875191 1.404317 59.500000
-11.843127 7.023608 1.423884 12.000000
14.818139 7.007712 1.407568 61.666668
-11.831988 7.168586 1.430604 11.666667
14.784925 7.163246 1.410762 58.000000
-11.824805 7.317461 1.438010 11.666667
-11.815854 7.466846 1.445417 12.000000
-11.805622 7.564534 1.449942 12.000000
-11.560662 7.562202 1.428547 5.000000
-11.390641 7.502193 1.410443 22.000000
-11.798518 7.612368 1.452000 8.000000
-11.707812 7.606049 1.443771 9.000000
-11.375873 7.621346 1.415998 47.250000
-11.367444 7.798107 1.425530 47.000000
-11.360817 7.952037 1.434033 46.333332
-11.353701 8.080616 1.441096 46.000000
-11.347883 8.184378 1.446857 47.500000
-11.342983 8.262355 1.451177 44.000000
-11.336659 8.367345 1.457074 46.000000
-11.324042 8.524079 1.465715 45.333332
10.544436 8.535734 1.402900 44.666668
-11.316850 8.686951 1.475315 45.000000
10.518758 8.680320 1.410306 44.333332
-11.307326 8.812038 1.482447 39.000000
10.503153 8.806962 1.417438 37.500000
-11.088239 12.293148 1.421599 29.000000
-11.362162 12.399570 1.444186 18.500000
-11.252701 12.396944 1.437684 15.000000
-11.076628 12.397265 1.427588 61.000000
-11.632971 12.496681 1.466088 23.000000
-11.536825 12.471727 1.458902 20.000000
-12.116807 12.573566 1.499455 24.000000
-11.957887 12.565731 1.489531 24.000000
-11.799555 12.556392 1.479606 23.500000
-11.078913 12.557785 1.438026 44.000000
-11.069164 12.706779 1.447095 44.500000
-11.057972 12.856148 1.456164 46.000000
-11.049212 13.010427 1.465746 44.000000
-11.036385 13.162048 1.474986 45.000000
-11.028439 13.321693 1.485082 42.500000
-11.017662 13.480206 1.495006 41.500000
-11.234573 17.266726 1.408694 4.000000
-10.709538 18.356682 1.453313 67.000000
-11.050638 18.427696 1.469368 5.666667
-10.894875 18.407459 1.462728 6.500000
-10.711740 18.560749 1.465457 39.000000
-10.698263 18.741005 1.475690 38.500000
-10.687408 18.928461 1.486470 39.000000
-10.680575 19.055931 1.493838 41.000000
-10.279638 25.571392 1.404340 6.000000
-10.264293 25.766855 1.413297 5.000000
-10.253700 25.977333 1.423067 5.000000
-10.241885 26.187996 1.432838 6.000000
-10.225948 26.391394 1.442202 6.000000
-10.208846 26.594944 1.451565 6.000000
-10.193393 26.806118 1.461336 7.000000
-6.686384 -29.766691 1.554565 32.000000
-8.648511 -29.652441 1.573903 30.000000
-8.246318 -29.654860 1.568407 9.000000
-7.906500 -29.507458 1.556601 3.000000
-7.794345 -29.458775 1.552733 8.000000
-8.472332 -29.391575 1.558636 4.000000
-7.074430 -29.331785 1.537467 8.000000
-8.231208 -29.244267 1.548051 16.000000
-8.308815 -29.168318 1.545405 15.000000
-7.136182 -29.185240 1.530953 16.000000
-6.938804 -29.171204 1.527899 6.000000
-7.177863 -28.961044 1.520368 11.000000
-6.796952 -28.978949 1.516704 4.000000
-6.686077 -28.914534 1.512225 11.000000
-6.551704 -28.744543 1.502251 2.000000
-7.374677 -28.598122 1.504897 3.000000
-7.266081 -28.547592 1.501030 6.000000
-5.840493 -22.058607 1.560425 11.000000
-6.341833 -21.986193 1.564791 6.000000
-6.254132 -21.940765 1.560152 2.000000
-6.024855 -21.917927 1.554421 7.000000
-5.961201 -21.956001 1.555786 5.000000
-5.857053 -21.843567 1.546507 5.000000
-7.632444 -21.758310 1.576799 23.000000
-8.472343 -21.618877 1.587851 55.000000
-8.382614 -21.690228 1.590171 48.000000
-7.868316 -21.559465 1.569430 43.000000
-7.747063 -21.541819 1.565474 55.000000
-7.627460 -21.527338 1.561789 56.000000
-7.475030 -21.525831 1.558242 2.000000
-8.227390 -21.489117 1.573524 7.000000
-9.000702 -21.276558 1.579801 2.000000
-8.778002 -21.118958 1.563973 48.000000
-8.656437 -21.106518 1.560016 56.000000
-8.414251 -21.176352 1.558242 37.000000
-7.265965 -21.137850 1.528496 1.000000
-9.930045 -21.035675 1.590716 1.000000
-8.816528 -21.025034 1.559060 2.000000
-8.487101 -21.069809 1.553330 58.500000
-10.141761 -20.969893 1.592900 2.000000
-9.009554 -20.930012 1.558242 1.000000
-9.075677 -20.635735 1.541595 1.000000
-8.973545 -20.667330 1.540776 0.000000
-9.219460 -20.523815 1.538593 11.000000
-9.581310 -20.463209 1.545143 3.000000
-9.412407 -20.435966 1.538593 5.666667
-9.283894 -20.494751 1.538593 3.000000
-9.117594 -20.468832 1.532317 11.000000
-9.864240 -19.915001 1.519763 1.000000
-9.928540 -19.887484 1.520036 1.000000
-9.707964 -19.834007 1.510075 1.000000
-13.823195 -18.728790 1.591808 6.000000
-13.824848 -18.608391 1.585258 10.000000
7.168624 -16.621401 1.554382 6.000000
7.193780 -16.536671 1.548564 29.000000
6.727306 -16.443722 1.525635 21.000000
8.267588 -16.402597 1.577311 4.000000
6.734831 -16.315676 1.515711 21.000000
6.907655 -16.368757 1.525635 31.000000
7.200930 -16.342093 1.533507 15.500000
7.603717 -16.343439 1.547880 37.000000
6.519845 -16.226807 1.501680 25.000000
6.597746 -16.272724 1.507840 34.000000
6.778395 -16.276043 1.514000 19.000000
7.616094 -16.236485 1.540009 37.000000
7.821118 -16.185865 1.543659 28.000000
7.973421 -16.006138 1.535560 15.500000
9.456472 -16.034702 1.598529 2.000000
7.380349 -15.994524 1.512631 24.000000
7.583142 -15.969973 1.518106 29.500000
7.841566 -15.929150 1.524609 22.000000
7.690932 -15.874095 1.514684 35.000000
9.346295 -15.622705 1.563280 1.000000
8.682661 -15.491318 1.524951 9.000000
6.036370 -13.935820 1.570497 6.000000
6.160111 -13.920753 1.574200 3.000000
6.319664 -13.695831 1.559799 12.000000
7.660616 -13.370777 1.593538 33.000000
7.806393 -13.332320 1.597652 32.000000
7.520019 -13.269985 1.577286 33.500000
7.907189 -13.217182 1.592715 14.000000
7.719187 -12.766112 1.542724 35.500000
-12.535827 -12.623596 1.527689 43.500000
-12.387899 -12.632397 1.519304 40.000000
-12.243132 -12.642704 1.511262 37.000000
-12.102856 -12.656013 1.503733 37.500000
7.734713 -12.656588 1.533878 47.000000
-12.614828 -12.544649 1.527689 39.500000
7.861134 -12.577469 1.533796 29.400000
8.117272 -12.561812 1.546633 13.000000
-18.682610 -12.407994 1.533681 3.000000
-18.522869 -12.428014 1.525358 8.000000
-18.363337 -12.446936 1.517034 8.000000
-18.245026 -12.450583 1.510485 8.000000
-18.120304 -12.449081 1.503389 7.000000
8.098108 -12.446204 1.535524 31.000000
-12.548937 -12.361979 1.512631 17.000000
7.864088 -12.356400 1.514622 34.200001
8.098387 -12.193666 1.513717 14.000000
7.065428 -11.163458 1.599934 30.000000
6.765353 -10.915648 1.555211 61.000000
6.933998 -10.880006 1.562424 16.000000
6.597822 -10.720412 1.524434 13.000000
6.991829 -10.672435 1.545112 34.000000
7.339499 -10.683030 1.569638 52.000000
6.865706 -10.408437 1.510007 42.000000
7.082849 -10.449535 1.528762 5.000000
7.312211 -10.431291 1.542708 32.000000
7.370132 -10.443956 1.547997 20.000000
6.882994 -10.363660 1.506641 20.000000
7.151764 -10.386356 1.527159 26.666666
7.499571 -10.383238 1.551123 15.000000
7.824913 -10.397394 1.575889 30.250000
7.935613 -10.323228 1.576851 8.000000
7.156870 -10.278237 1.516739 33.000000
7.479444 -10.253117 1.536937 15.000000
7.549952 -10.197550 1.536576 25.500000
8.215832 -9.521493 1.522991 3.000000
8.358518 -9.444262 1.527319 13.000000
-12.382068 -9.273083 1.599710 13.000000
-12.425135 -9.163967 1.596555 11.000000
6.695055 -8.740950 1.528795 16.000000
6.479826 -8.655462 1.501288 36.000000
6.741895 -8.604445 1.517792 5.000000
7.139364 -8.599404 1.551900 20.000000
6.639385 -8.528664 1.500738 26.000000
7.025578 -8.301885 1.510090 22.000000
-12.352758 -8.204043 1.533466 4.000000
7.897981 -8.224436 1.583257 22.000000
-12.336395 -8.109688 1.526677 21.000000
7.585482 -8.100352 1.540897 9.000000
8.040134 -8.113436 1.586007 33.000000
-12.342285 -7.975508 1.519614 42.000000
8.023340 -7.945303 1.567853 11.000000
8.127333 -7.997869 1.583257 3.000000
-12.339579 -7.809892 1.510151 41.333332
7.601461 -7.816729 1.513941 24.250000
-12.328510 -7.667883 1.501373 44.500000
6.169870 -7.624597 1.537334 0.000000
8.378385 -7.693531 1.579406 1.000000
6.106269 -7.594666 1.527424 2.000000
6.199480 -7.539231 1.529902 57.000000
6.358266 -7.561392 1.548483 20.000000
8.171305 -7.456196 1.535946 1.000000
6.259466 -7.381024 1.516894 63.666668
8.120859 -7.317190 1.517792 12.000000
8.266313 -7.170612 1.519442 2.000000
8.306887 -7.047234 1.512566 24.500000
8.428829 -7.037642 1.524669 7.000000
6.607671 -6.967903 1.505126 4.000000
8.320926 -6.947509 1.505139 3.000000
5.986207 -6.845280 1.588722 9.333333
6.081529 -6.413077 1.544091 0.000000
6.188697 -6.485160 1.566119 1.000000
6.572866 -6.268012 1.586772 1.000000
5.565264 -6.135447 1.596799 21.666666
5.577137 -6.071468 1.589228 26.000000
7.578313 -6.088767 1.523708 0.000000
8.081603 -6.045812 1.581931 2.000000
6.610921 -5.919156 1.550286 4.000000
5.667156 -5.829701 1.567271 0.000000
5.832415 -5.887644 1.597557 33.000000
4.849826 -5.696709 1.579070 35.200001
5.412082 -5.655528 1.508972 21.000000
5.618479 -5.461824 1.510486 36.000000
8.299781 -5.431225 1.554677 7.000000
5.148585 -5.374509 1.570865 20.666666
6.033322 -5.302269 1.548343 31.000000
5.427121 -5.264781 1.549731 27.666666
5.964156 -5.208367 1.526386 18.000000
7.079217 -5.261280 1.540993 5.500000
-12.164146 -5.110879 1.597850 44.000000
6.156630 -5.109519 1.542286 14.000000
6.384416 -5.065671 1.571057 10.000000
-12.159093 -4.974463 1.590957 48.333332
5.166069 -4.943767 1.509187 22.500000
6.338608 -4.996955 1.555914 14.000000
-12.151324 -4.838106 1.583904 48.000000
5.735307 -4.800480 1.578575 26.333334
6.506205 -4.869035 1.566514 1.000000
-12.142916 -4.680767 1.576010 45.500000
5.594335 -4.630893 1.532812 38.400002
-12.135712 -4.525335 1.568516 43.666668
5.827460 -4.593999 1.566184 25.000000
5.832621 -4.568429 1.563706 31.000000
-12.126167 -4.370537 1.560982 41.500000
4.985485 -4.339967 1.518236 64.000000
5.162052 -4.394805 1.557188 56.000000
8.549621 -4.337470 1.502648 3.000000
-12.137278 -4.224320 1.556333 20.666666
7.601977 -4.100091 1.508982 0.000000
-12.124287 -4.070923 1.548839 17.500000
4.733040 -4.064037 1.548868 28.666666
4.836523 -4.013934 1.560434 30.000000
7.015010 -4.015909 1.558186 20.000000
7.176938 -4.048948 1.588471 8.000000
7.646085 -4.092925 1.515177 3.000000
-12.107599 -3.917677 1.541105 17.000000
4.869406 -3.926232 1.553045 35.833332
5.647615 -3.903306 1.576888 80.000000
6.972955 -3.962800 1.546071 2.000000
7.181808 -3.927363 1.577934 31.291666
7.739401 -3.957011 1.518620 15.666667
4.558479 -3.799470 1.586007 22.666666
4.762797 -3.865102 1.522845 7.500000
6.014809 -3.830381 1.505057 60.000000
6.062048 -3.887286 1.519925 15.000000
6.226228 -3.801997 1.539750 63.000000
-12.106617 -3.770842 1.535614 20.750000
4.981879 -3.752853 1.548547 14.666667
7.204497 -3.742435 1.565000 60.000000
9.079140 -3.742151 1.539192 3.000000
-12.103323 -3.624298 1.530044 21.000000
5.551211 -3.634303 1.524056 7.000000
6.181160 -3.694954 1.519925 44.000000
4.766735 -3.578993 1.593065 0.000000
4.874990 -3.547948 1.530920 31.650000
5.505427 -3.554809 1.505252 30.000000
7.073113 -3.506601 1.521843 49.666668
-12.084513 -3.474392 1.522751 20.750000
4.768023 -3.476123 1.577056 8.000000
5.171072 -3.455199 1.544049 48.000000
5.617057 -3.405831 1.508833 7.000000
6.490331 -3.449517 1.551315 0.000000
6.983230 -3.462128 1.502536 40.500000
-12.061415 -3.324575 1.515136 45.000000
4.770808 -3.386678 1.563630 24.000000
5.691925 -3.318037 1.513311 10.000000
5.919339 -3.376296 1.565247 32.000000
6.442286 -3.398069 1.537272 25.000000
6.763921 -3.300446 1.588487 36.000000
-12.006700 -3.228417 1.505679 36.000000
6.364221 -3.255369 1.508774 59.000000
6.536165 -3.240316 1.539750 54.000000
7.114336 -3.198802 1.503672 43.000000
7.614024 -3.252370 1.596042 2.000000
-12.049744 -3.158986 1.508564 19.333334
5.010196 -3.124641 1.522241 12.000000
5.843185 -3.176553 1.527638 0.000000
6.847975 -3.196135 1.525844 36.000000
8.137094 -3.131553 1.523266 14.750000
-12.042306 -3.015922 1.503395 15.500000
5.011349 -3.060127 1.569311 32.500000
7.502875 -3.038977 1.560457 36.000000
7.382061 -2.958606 1.533074 19.000000
4.877112 -2.874521 1.513024 12.000000
7.006810 -2.872255 1.505995 33.000000
6.057831 -2.610167 1.515102 17.000000
7.427854 -2.556165 1.514272 0.000000
8.730474 -2.372018 1.580576 2.000000
5.717709 -2.007916 1.504532 5.000000
7.783562 -1.817040 1.540771 18.000000
5.846895 -1.788691 1.518026 4.000000
5.376689 -1.644845 1.502696 37.000000
5.447920 -1.653991 1.521631 54.000000
5.663999 -1.655196 1.577056 2.000000
6.713353 -1.645231 1.587633 2.000000
5.476115 -1.581635 1.523352 4.000000
5.625396 -1.557867 1.560016 21.500000
5.750609 -1.486138 1.587384 4.000000
6.172030 -1.430600 1.572964 4.000000
6.319821 -1.402228 1.546781 9.500000
6.724209 -1.403536 1.577783 18.000000
6.180488 -1.256342 1.506853 48.000000
5.875749 -1.015974 1.536664 33.500000
7.849974 -1.066871 1.527143 17.000000
5.588287 -0.930146 1.514057 33.000000
7.841744 -0.978130 1.523357 1.000000
6.019161 -0.750910 1.505978 18.500000
6.366564 -0.780698 1.513215 19.000000
6.490662 -0.726885 1.500178 33.000000
6.102777 -0.634958 1.523327 10.000000
6.523722 -0.534043 1.503461 4.000000
5.689404 -0.319814 1.522964 39.000000
6.344339 -0.369145 1.577783 7.000000
5.763911 -0.203754 1.541425 19.500000
6.064128 -0.209712 1.506460 24.750000
6.135965 -0.144602 1.523809 8.000000
5.619307 -0.033333 1.501870 13.000000
5.705132 0.130675 1.525211 27.400000
5.700089 0.206025 1.524385 0.000000
5.918285 0.260401 1.527405 7.500000
6.383247 0.796207 1.597060 28.000000
6.380714 0.816257 1.597060 9.000000
6.762844 1.049401 1.571963 11.500000
6.765859 1.423333 1.588081 2.000000
-11.573709 4.472918 1.502633 48.666668
-11.571633 4.597926 1.507923 46.666668
-11.565877 4.679966 1.510969 47.000000
-11.559858 4.783590 1.515056 45.000000
-11.553479 4.930396 1.521228 47.666668
-11.542750 5.076592 1.527079 48.250000
-11.523063 5.219828 1.531968 34.666668
-11.530955 5.310966 1.537418 35.000000
-11.907045 5.552404 1.591038 10.000000
16.789587 5.549375 1.518449 21.000000
-11.927559 5.653435 1.598491 10.500000
17.178154 5.618004 1.551987 22.000000
17.571104 5.685474 1.585867 21.000000
-11.588433 6.294625 1.597049 0.000000
-11.478571 6.305195 1.585988 26.500000
-11.438744 6.377163 1.585988 57.000000
-11.412028 6.432973 1.586469 26.000000
-11.460825 6.508007 1.596087 40.000000
4.888300 6.575035 1.579385 41.000000
4.983384 6.529703 1.583423 30.000000
10.996715 6.578792 1.551845 6.000000
4.856302 6.662095 1.589228 0.000000
10.879688 6.611313 1.541746 34.000000
10.855967 6.728401 1.546715 27.000000
10.837982 6.883388 1.554850 25.750000
12.845566 6.884845 1.507134 22.000000
13.018179 6.924804 1.524826 3.000000
10.808570 7.032625 1.561623 16.333334
10.803244 7.150560 1.568916 17.500000
10.781017 7.209090 1.570600 9.000000
10.858738 7.335459 1.586950 14.000000
10.573341 7.486324 1.568916 3.500000
10.706020 7.471357 1.581019 20.000000
10.836605 7.470042 1.593923 27.500000
-11.288338 9.163989 1.503568 31.666666
-11.280449 9.265906 1.509602 44.000000
-11.272480 9.378582 1.516391 43.500000
-11.266272 9.463578 1.521534 42.000000
-11.269907 9.527184 1.526060 44.000000
-11.259659 9.609900 1.530792 44.500000
-11.253239 9.727289 1.538198 44.000000
-11.244698 9.875340 1.547593 43.333332
-11.219326 10.010098 1.554862 34.000000
-11.219782 10.157171 1.565066 23.200001
14.038289 11.584623 1.562938 40.000000
14.012595 11.674891 1.566189 51.500000
13.987696 11.803826 1.571665 66.000000
13.956532 11.966498 1.578680 57.333332
14.046656 12.197665 1.597502 81.000000
-12.274893 12.578480 1.509209 24.500000
-13.608162 12.649916 1.595449 27.000000
-13.469960 12.640209 1.586209 27.000000
-13.296375 12.635378 1.575087 27.500000
-13.117659 12.623328 1.563280 26.500000
-12.983684 12.612854 1.554382 26.000000
-12.901244 12.611797 1.549249 26.000000
-11.007820 13.642220 1.505273 44.000000
-10.997622 13.806189 1.515711 43.500000
-10.989264 13.929811 1.523582 44.000000
-10.979878 14.053688 1.531453 46.500000
-10.969240 14.223389 1.542404 42.500000
-10.958110 14.395087 1.553527 40.500000
-10.951385 14.527701 1.562253 38.000000
-10.943539 14.660601 1.570980 39.500000
-10.922152 14.825308 1.581247 33.000000
-10.916785 14.965163 1.590658 0.000000
-10.667225 19.173086 1.500388 40.000000
-10.660952 19.304321 1.508029 37.000000
-10.657804 19.442698 1.516216 40.000000
-10.646254 19.567228 1.523311 39.000000
-10.634206 19.766548 1.534909 36.000000
-10.620668 19.966169 1.546507 36.000000
-10.615649 20.108837 1.554967 37.000000
-10.604272 20.241070 1.562608 38.000000
-10.597700 20.384045 1.571068 36.000000
-10.584846 20.516539 1.578709 37.000000
-10.580344 20.666916 1.587715 37.000000
-10.576820 20.821020 1.596993 29.000000
-10.133126 27.961966 1.515482 32.000000
-10.043886 27.989899 1.515279 2.000000
-10.054598 29.167610 1.572071 17.000000
-10.026133 29.384310 1.582045 4.000000
-10.014298 29.654104 1.594870 3.000000
-6.985119 -32.527275 1.695223 2.000000
-6.758629 -32.464924 1.689727 5.000000
-8.024522 -32.377121 1.699701 1.000000
-6.403941 -32.019478 1.663875 5.500000
-7.392575 -31.969847 1.672018 1.000000
-6.552355 -31.977242 1.663265 16.000000
-7.471995 -31.857010 1.667336 15.000000
-7.021020 -31.722162 1.655530 1.000000
-7.517500 -31.604082 1.655326 20.000000
-8.189375 -31.552212 1.661026 12.500000
-8.020870 -31.513071 1.656954 20.000000
-7.149277 -31.595169 1.650644 23.000000
-10.166387 -31.177799 1.671000 6.000000
-12.859942 -30.414122 1.682603 11.000000
-12.939756 -30.336826 1.680567 35.000000
-12.739622 -30.395424 1.679346 7.000000
-13.117384 -30.225611 1.678939 13.000000
-15.959567 -28.958473 1.684842 8.000000
-15.843588 -28.962908 1.682196 25.000000
-15.699299 -28.986826 1.679753 29.666666
-16.023317 -28.859293 1.681992 16.000000
-7.611377 -23.328400 1.678043 47.000000
-7.645887 -23.186886 1.669584 4.000000
-7.409336 -22.953434 1.649389 40.000000
-7.316551 -22.911974 1.644750 3.000000
-9.707850 -21.979464 1.643113 1.000000
-10.061249 -21.141306 1.601086 2.000000
-13.619828 -19.988396 1.654029 8.000000
-13.641304 -19.619961 1.634107 0.000000
-13.666262 -19.524696 1.629741 22.000000
-14.016167 -19.178715 1.624419 4.000000
-14.282294 -18.973906 1.624010 1.000000
-14.186765 -18.970743 1.619916 4.000000
-14.238202 -18.792166 1.612275 3.000000
7.331557 -17.297237 1.613245 8.000000
7.852455 -17.159159 1.620432 1.000000
9.519434 -17.110071 1.681347 4.000000
9.430804 -16.702887 1.647125 7.000000
9.461558 -16.635071 1.643360 3.000000
5.602083 -15.316694 1.686525 1.000000
5.723234 -15.348297 1.693931 0.000000
5.055681 -14.876599 1.624808 27.000000
5.172469 -14.861629 1.627276 32.400002
5.301808 -14.856165 1.631185 34.500000
6.803104 -14.866123 1.690639 25.000000
6.816434 -14.772422 1.682410 11.000000
6.711422 -14.307848 1.634271 24.000000
6.610888 -14.132253 1.613424 20.000000
7.300785 -13.935484 1.626865 16.000000
7.338956 -13.901922 1.625631 16.000000
7.530595 -13.980072 1.642089 29.000000
7.388201 -13.889337 1.626865 8.000000
7.442711 -13.679291 1.610407 35.000000
7.567436 -13.601583 1.609584 22.000000
7.867654 -13.632669 1.627688 127.000000
7.950436 -13.676681 1.635917 11.000000
7.441661 -13.575594 1.600944 32.000000
7.537060 -13.580454 1.606156 28.666666
7.924552 -13.341162 1.604647 17.000000
-10.120720 -12.930653 1.698045 34.000000
-10.151480 -12.803362 1.689679 33.666668
-10.293781 -12.775406 1.696605 36.000000
-15.190482 -12.061427 1.665605 9.000000
-15.105818 -12.071768 1.660472 8.000000
-14.988923 -12.081550 1.653171 6.666667
6.941173 -12.027310 1.681686 0.000000
6.788767 -11.979504 1.667500 21.000000
7.101509 -11.675351 1.654916 17.333334
7.424638 -11.489932 1.656680 75.000000
7.055126 -11.251281 1.608270 21.333334
7.228972 -11.110406 1.605224 0.000000
8.452675 -11.067646 1.686495 15.000000
-12.491430 -10.541218 1.690228 33.500000
-12.678299 -10.428814 1.697634 8.500000
-12.487123 -10.403929 1.680765 54.500000
7.500199 -9.603296 1.691906 4.000000
-12.421816 -9.425254 1.612464 0.000000
7.492897 -9.440137 1.673477 21.000000
-12.413239 -9.357446 1.607527 13.000000
7.490170 -9.346006 1.663025 10.000000
-12.414329 -9.236515 1.600121 117.000000
7.438295 -9.133263 1.635519 20.000000
7.429984 -9.006884 1.621215 2.000000
8.350979 -8.480236 1.652573 18.000000
6.929920 -8.293975 1.694041 21.000000
6.302931 -8.149158 1.614758 5.000000
7.059342 -8.184101 1.694041 17.000000
8.245897 -8.063709 1.601411 7.000000
7.096315 -7.920089 1.666788 26.000000
6.968814 -7.827050 1.642631 37.500000
7.144835 -7.824647 1.660800 13.333333
7.374300 -7.835372 1.686484 31.000000
6.878829 -7.775100 1.627146 34.000000
6.035998 -7.604622 1.696228 22.000000
5.905468 -7.536942 1.672822 13.000000
6.044148 -7.517378 1.685213 12.000000
7.692285 -7.569751 1.691563 7.000000
9.419558 -7.423115 1.665225 1.000000
6.070442 -7.358800 1.666626 28.000000
6.317062 -7.346827 1.692786 0.000000
7.558614 -7.299271 1.646967 8.000000
7.676522 -7.351276 1.665962 2.000000
7.738926 -7.287695 1.666168 2.000000
6.550154 -6.994750 1.674199 2.000000
-12.281095 -6.782348 1.698998 38.666668
5.473129 -6.327265 1.612699 15.500000
5.696938 -6.360500 1.646013 48.000000
5.668168 -6.131790 1.609671 24.000000
8.508482 -6.159114 1.646348 29.000000
-12.638225 -6.049837 1.696834 11.000000
5.314028 -6.035665 1.697289 25.285715
8.300657 -6.048507 1.609803 32.000000
5.153265 -5.938612 1.659527 39.000000
5.060465 -5.868816 1.635572 9.000000
-12.208929 -5.726974 1.633116 24.500000
-12.162292 -5.704998 1.626864 20.000000
5.390543 -5.686408 1.653745 1.000000
-12.197404 -5.581883 1.624460 43.333332
5.495000 -5.547034 1.647962 0.000000
5.664678 -5.576389 1.677700 2.000000
-12.186613 -5.438633 1.616124 43.666668
5.598238 -5.476460 1.652919 14.000000
5.500357 -5.346995 1.619051 51.000000
5.762749 -5.360703 1.661179 9.000000
6.684591 -5.338151 1.649042 16.000000
7.615582 -5.341484 1.625150 14.250000
-12.178522 -5.275252 1.607268 43.000000
4.829228 -5.235283 1.635987 10.000000
5.201909 -5.251168 1.697773 36.000000
5.752877 -5.279047 1.647962 22.166666
5.927894 -5.242712 1.670266 55.000000
5.002516 -5.113755 1.643151 41.000000
5.157829 -5.174057 1.678074 46.000000
6.906312 -5.101081 1.655099 35.000000
10.308836 -5.189313 1.602511 15.000000
4.885144 -5.054176 1.679760 33.299999
4.988001 -4.999118 1.640728 32.857143
5.111627 -5.021382 1.645837 21.000000
6.347316 -4.939473 1.697525 24.000000
5.143252 -4.799523 1.615840 15.000000
5.237190 -4.831062 1.636584 26.000000
5.522851 -4.853652 1.688819 29.000000
6.030909 -4.816135 1.628963 9.000000
6.750485 -4.888333 1.606642 46.000000
5.621527 -4.653736 1.676283 18.400000
5.659710 -4.539130 1.666433 16.666666
5.802992 -4.457622 1.680760 5.000000
6.519805 -4.415900 1.662005 7.000000
6.205121 -4.375611 1.602530 14.000000
4.862042 -4.259300 1.665858 49.000000
5.920802 -4.273179 1.677178 4.000000
4.779399 -4.173745 1.695826 36.000000
4.969888 -4.151051 1.607662 36.000000
4.700195 -4.027036 1.654171 9.000000
5.833720 -4.086333 1.635987 5.000000
6.892786 -4.091011 1.691743 25.000000
5.492352 -3.898884 1.672238 47.000000
6.014646 -3.937374 1.651210 4.000000
7.498925 -3.925344 1.631628 6.000000
4.630136 -3.818148 1.603909 8.000000
4.782695 -3.839809 1.639195 12.666667
4.889007 -3.866611 1.665876 41.500000
5.984729 -3.811225 1.629719 76.000000
5.953839 -3.765316 1.618078 41.000000
6.155317 -3.758696 1.656583 91.000000
4.946467 -3.605705 1.635925 56.000000
5.199022 -3.617454 1.692728 129.000000
5.019881 -3.516265 1.637990 53.000000
5.537231 -3.526248 1.629830 32.000000
6.122873 -3.530770 1.623451 76.000000
6.876404 -3.585701 1.636811 24.000000
5.229089 -3.399704 1.666908 22.000000
6.940341 -3.458751 1.636673 33.333332
5.486682 -3.350437 1.697737 25.500000
6.490146 -3.371360 1.679864 39.000000
7.001500 -3.375596 1.640528 40.500000
7.080826 -3.345620 1.652919 39.000000
7.222108 -3.315621 1.677287 44.500000
5.084672 -3.249273 1.612687 6.500000
5.602736 -3.254328 1.608626 6.000000
5.835915 -3.292396 1.663564 73.000000
6.967844 -3.198946 1.618225 42.500000
7.210988 -3.221747 1.666962 39.500000
5.610077 -3.146308 1.669786 15.400000
6.252849 -3.124372 1.605542 46.000000
7.337710 -3.107119 1.681830 27.000000
7.966026 -3.139508 1.650556 28.000000
7.176917 -2.933230 1.636398 12.000000
7.257998 -2.992959 1.657049 33.000000
6.781233 -2.821366 1.687028 9.000000
6.866630 -2.714533 1.695983 27.000000
10.017477 -2.553423 1.620333 8.000000
10.201738 -2.566285 1.648825 12.000000
-12.006787 -2.273072 1.696766 19.666666
-11.995586 -2.134615 1.691769 20.500000
5.651448 -2.064782 1.608040 0.000000
8.299494 -2.089309 1.649799 3.000000
-11.984325 -1.977589 1.686543 22.000000
-11.972980 -1.821459 1.681592 23.000000
5.806773 -1.836442 1.627663 24.000000
7.035367 -1.865394 1.671805 2.000000
6.816298 -1.715930 1.614497 0.000000
-11.964513 -1.666621 1.677328 22.000000
5.790925 -1.633210 1.608040 1.000000
-11.957977 -1.512801 1.673615 20.250000
5.903949 -1.446872 1.624564 13.000000
6.952404 -1.473974 1.632406 2.000000
-11.940614 -1.358387 1.668664 19.500000
6.345551 -1.387049 1.674327 16.500000
7.205720 -1.339404 1.683446 2.000000
-11.927605 -1.224200 1.664859 20.000000
6.182285 -1.216093 1.683949 48.833332
6.576046 -1.158351 1.657781 57.000000
-11.922225 -1.091319 1.662337 21.750000
5.943470 -1.008464 1.611138 111.000000
6.426270 -1.090384 1.618264 66.000000
6.584890 -1.021764 1.654407 9.000000
-11.901423 -0.938801 1.657661 34.500000
6.587343 -0.979781 1.653443 5.500000
-11.864045 -0.842101 1.651472 52.000000
-11.904646 -0.769848 1.656423 46.666668
10.816665 -0.763963 1.699615 7.000000
-11.893564 -0.637901 1.653810 46.000000
7.006213 -0.695608 1.617183 6.000000
6.030613 -0.589188 1.619401 9.000000
10.801517 -0.558523 1.695280 4.000000
-11.882827 -0.487671 1.651335 47.250000
6.020932 -0.498594 1.614650 11.400000
6.606639 -0.405237 1.643323 9.000000
-11.878117 -0.338014 1.649959 47.750000
-11.869596 -0.207189 1.648355 47.666668
-11.865419 -0.132541 1.647621 47.000000
6.084670 -0.187781 1.626974 29.333334
6.182973 -0.126248 1.652794 5.333333
-11.856116 -0.039320 1.646246 46.750000
6.544899 -0.071968 1.625010 0.000000
6.758671 -0.042473 1.678021 3.500000
6.716100 0.010550 1.667419 3.000000
-11.847751 0.109592 1.645146 46.250000
-11.834280 0.276812 1.643660 46.799999
5.999003 0.273462 1.604941 0.000000
6.135067 0.337633 1.642122 16.000000
-11.825070 0.443935 1.643083 46.500000
6.107841 0.403517 1.635925 16.500000
6.182997 0.445783 1.656787 26.000000
-11.817568 0.592459 1.642945 49.000000
6.212040 0.557798 1.666908 32.400002
-11.805237 0.740650 1.642395 46.750000
6.276754 0.722915 1.688597 19.000000
-11.797960 0.889162 1.642808 48.500000
-11.786841 1.037443 1.642945 47.750000
-11.774845 1.185673 1.643220 46.750000
-11.767874 1.334546 1.644458 48.000000
6.950406 1.325861 1.625242 1.000000
-11.758037 1.483308 1.645558 45.000000
-11.697994 1.569159 1.638819 177.000000
-11.759790 1.652764 1.648905 17.666666
-11.757198 1.784413 1.651197 16.000000
-11.750461 1.934756 1.653535 16.250000
-11.739847 2.084867 1.655598 16.750000
-11.732182 2.235933 1.658349 17.750000
-11.724400 2.368326 1.660824 19.000000
-11.713206 2.442750 1.661374 19.000000
-11.705199 2.537192 1.663025 20.000000
-11.680132 2.685785 1.664125 49.250000
-11.678164 2.840385 1.668801 46.750000
-11.667382 2.973984 1.671827 47.333332
-11.659779 3.108990 1.675540 49.750000
-11.648399 3.263292 1.679666 52.750000
-11.640685 3.419459 1.684617 49.000000
-11.633722 3.576813 1.689981 47.750000
-11.622748 3.733932 1.695070 49.000000
15.143517 5.270568 1.658135 45.000000
15.106298 5.364279 1.657724 62.666668
15.423326 5.313688 1.686936 27.000000
15.078733 5.515075 1.660329 64.000000
15.058359 5.669088 1.663895 57.333332
-11.918707 5.718165 1.600896 10.000000
17.995010 5.760248 1.622485 25.000000
-11.911673 5.830378 1.606066 10.000000
-7.298854 5.818250 1.630753 7.888889
15.032708 5.821768 1.667050 55.333332
18.449951 5.842037 1.661841 21.000000
-11.905712 5.990600 1.614040 10.000000
15.007975 5.975460 1.670479 53.666668
18.890364 5.916261 1.699828 22.000000
14.988628 6.077110 1.672536 55.000000
-11.895796 6.126781 1.620452 10.000000
14.976360 6.154487 1.674387 52.000000
-11.879681 6.260838 1.626223 10.000000
14.952594 6.282444 1.677199 54.666668
-11.873323 6.377112 1.632154 10.000000
14.928037 6.438319 1.681176 53.000000
14.900651 6.593760 1.685016 54.000000
-11.605774 6.638624 1.619170 13.000000
14.878052 6.723968 1.688376 55.000000
-11.851123 6.878200 1.659405 11.000000
14.855454 6.854779 1.691874 53.666668
14.837367 6.959806 1.694754 56.000000
-11.843837 7.024019 1.667580 11.000000
14.825947 7.039891 1.697223 56.000000
-11.838240 7.172378 1.676236 11.000000
-11.824145 7.317061 1.683930 11.000000
-11.813973 7.465638 1.692426 11.000000
10.915956 7.449153 1.600415 24.000000
-11.777616 7.598821 1.697395 8.333333
-11.594505 7.584341 1.677839 4.000000
-11.394855 7.504968 1.652351 23.000000
-11.376678 7.621886 1.658363 39.250000
-11.371377 7.800789 1.669984 44.333332
-11.364621 7.928096 1.678079 45.500000
-11.355401 8.055030 1.686014 47.000000
-11.344399 8.209021 1.695792 44.666668
-11.179646 11.081013 1.627770 23.200001
-11.150022 11.177295 1.632625 80.000000
-11.112048 11.209446 1.632214 19.000000
-11.149568 11.341973 1.644694 10.000000
14.107297 12.328275 1.608796 78.000000
14.090845 12.431538 1.613587 77.000000
14.068925 12.570278 1.620089 73.500000
-13.882837 12.663443 1.613587 27.000000
-13.743866 12.655783 1.604347 27.000000
14.047290 12.710571 1.626763 71.000000
14.020039 12.847046 1.632923 69.500000
13.992058 13.025108 1.641535 75.000000
13.959852 13.201220 1.649863 80.500000
13.927630 13.379468 1.658418 86.000000
13.940768 13.308130 1.654996 81.000000
13.907299 13.486579 1.663552 86.500000
13.877738 13.628144 1.670225 87.000000
13.858242 13.781112 1.678267 84.500000
13.824741 13.921638 1.684770 79.000000
13.801174 14.073672 1.692641 76.000000
13.784725 14.190002 1.698801 72.000000
11.661515 15.093679 1.637885 4.000000
11.771760 15.088784 1.643360 52.500000
11.136169 15.137890 1.613758 37.000000
11.906829 15.114590 1.652258 53.000000
12.041218 15.137791 1.660985 50.500000
12.222357 15.168900 1.672792 50.000000
12.361581 15.194659 1.682032 50.000000
11.013885 15.271221 1.616838 72.500000
12.502642 15.220871 1.691443 49.000000
10.877875 15.437584 1.621686 69.666664
10.799685 15.532926 1.624538 72.000000
10.660682 15.698529 1.629500 71.500000
10.741030 15.604975 1.626763 74.500000
10.603289 15.773410 1.632067 72.000000
10.523726 15.869583 1.635147 71.333336
-10.891550 15.924607 1.656707 19.333334
-10.831963 16.034981 1.661669 40.000000
10.406267 16.018187 1.640280 69.000000
10.284792 16.162622 1.645072 71.333336
10.204284 16.260715 1.648494 68.000000
10.142227 16.332314 1.650889 67.500000
9.997174 16.500797 1.656707 70.000000
10.061262 16.431404 1.654483 75.000000
9.938746 16.580185 1.659958 66.000000
9.875777 16.652557 1.662525 44.000000
-13.353388 20.952551 1.699057 6.000000
-12.969217 20.925348 1.683501 5.000000
-12.832924 20.924953 1.678589 5.000000
-12.690679 20.913599 1.672858 6.000000
-12.602262 20.915762 1.669857 3.000000
-10.559850 20.950367 1.604361 32.000000
-10.551103 21.097651 1.613094 32.000000
-10.545083 21.252235 1.622373 28.000000
-10.539948 21.410574 1.631924 28.000000
-10.526926 21.554741 1.640384 27.000000
-10.516572 21.706224 1.649389 26.000000
-10.503652 21.854252 1.658122 25.000000
-10.459595 22.027847 1.667537 14.500000
-10.000854 29.924116 1.607694 2.000000
-9.980806 30.179159 1.619704 2.000000
-9.951786 30.411592 1.630492 3.000000
-8.445884 -32.331707 1.702755 19.000000
-8.133013 -32.378876 1.701126 1.000000
-14.665298 -30.581434 1.728199 6.000000
-15.545486 -30.430916 1.741227 11.000000
-15.181298 -30.422371 1.732474 22.000000
-15.053743 -30.405474 1.728810 40.000000
-14.919045 -30.493982 1.729828 16.500000
-15.381173 -30.344202 1.733492 13.000000
-15.239106 -30.299583 1.728199 10.000000
-15.984097 -30.112413 1.737156 14.000000
-15.761265 -30.148527 1.733492 4.000000
-15.837283 -30.063519 1.731456 11.000000
-15.521145 -29.917755 1.717411 19.000000
-15.405135 -29.923746 1.714968 16.000000
-4.934587 -25.697392 1.789385 20.000000
-4.682764 -25.241346 1.755546 8.000000
-4.561975 -25.253286 1.754864 5.500000
-5.229349 -25.097109 1.753090 12.000000
-8.230919 -24.699867 1.780380 1.000000
-8.300835 -24.651194 1.778742 4.000000
-6.041175 -24.688253 1.738081 9.000000
-5.219749 -24.662811 1.723890 4.000000
-6.105316 -24.505226 1.726983 22.000000
-9.016499 -24.466585 1.783109 2.000000
-5.766997 -24.453125 1.718068 28.666666
-8.268980 -24.303865 1.755546 7.000000
-7.338923 -24.292360 1.735352 12.000000
-8.980592 -24.135185 1.761004 12.000000
-7.366230 -24.108892 1.723890 17.000000
-7.125120 -24.131319 1.720615 8.000000
-7.440751 -24.081820 1.723617 29.000000
-8.987603 -23.923800 1.747632 4.000000
-13.424317 -22.474884 1.790204 1.000000
-12.744650 -21.801125 1.726892 3.000000
-13.443890 -21.725082 1.747086 4.000000
-13.304879 -21.728607 1.742311 2.000000
-13.170299 -21.738190 1.738081 1.000000
-14.856445 -21.656721 1.795935 3.000000
-12.485891 -21.669846 1.710245 3.000000
-13.572284 -21.328852 1.728802 1.000000
-13.710357 -21.249861 1.729348 5.000000
-15.168347 -21.101219 1.777105 4.000000
-15.215849 -21.027597 1.774922 5.000000
9.074451 -17.794203 1.715228 5.500000
6.440893 -16.030308 1.786507 17.000000
6.330155 -15.898903 1.769637 30.000000
6.503823 -15.897457 1.776221 19.000000
6.672023 -15.741209 1.767992 45.000000
6.361158 -15.689202 1.750711 18.000000
5.909225 -15.597159 1.724790 17.666666
6.400401 -15.505492 1.734664 28.000000
6.553183 -15.597026 1.749477 26.000000
6.663567 -15.584809 1.752768 26.000000
5.699798 -15.433386 1.701337 1.000000
5.946017 -15.497990 1.716561 5.000000
6.038447 -15.447912 1.715189 11.000000
6.444493 -15.474290 1.733430 30.000000
6.619526 -15.348246 1.728493 32.000000
6.632047 -15.180133 1.713063 12.000000
7.644071 -15.047756 1.745362 23.000000
7.629661 -14.903250 1.731373 59.000000
7.912922 -14.989164 1.752768 1.000000
7.234658 -14.852952 1.708469 24.000000
7.683741 -14.893351 1.733019 16.000000
8.081635 -14.853599 1.748654 1.000000
7.273377 -14.774945 1.702983 17.000000
8.275433 -14.764753 1.750299 7.000000
8.174843 -14.693326 1.738779 1.000000
5.928859 -13.512726 1.787002 16.000000
5.778866 -13.476721 1.775781 21.666666
5.948785 -13.443193 1.780269 25.000000
6.200011 -13.436375 1.792051 32.250000
5.777784 -13.396488 1.766804 26.000000
-10.141069 -13.254466 1.725818 28.000000
6.034191 -13.296131 1.768247 17.000000
6.214916 -13.177489 1.764400 22.333334
6.811798 -13.152482 1.793734 6.500000
-10.131515 -13.070995 1.710183 36.000000
6.266709 -13.091326 1.757667 25.500000
-11.439565 -12.700467 1.767580 38.000000
-11.334569 -12.703727 1.760586 36.500000
-11.201913 -12.714991 1.752357 38.000000
-11.036565 -12.727359 1.742070 38.000000
-10.871675 -12.738047 1.731784 38.000000
-10.741420 -12.746780 1.723761 36.500000
-10.581313 -12.758715 1.714092 35.666668
-10.420385 -12.767505 1.704217 35.000000
7.390036 -12.712656 1.780750 27.000000
-11.818762 -12.674019 1.792061 39.000000
-11.645783 -12.686756 1.780884 38.000000
-11.500787 -12.688049 1.770872 37.000000
-16.550533 -12.557986 1.784015 10.000000
-16.450819 -12.563964 1.777512 13.000000
-16.301508 -12.571915 1.767759 13.000000
-16.155596 -12.581321 1.758348 13.000000
-16.056398 -12.585299 1.751846 13.000000
-15.963593 -12.593713 1.746028 13.000000
7.490437 -12.431747 1.757667 41.000000
7.749961 -12.416988 1.772575 5.000000
7.626000 -12.391039 1.761995 5.000000
8.170397 -12.302091 1.788444 4.000000
8.002113 -12.298666 1.776903 48.000000
-12.439075 -12.176991 1.800085 25.000000
-12.576738 -11.893293 1.790004 39.500000
-12.569797 -11.737997 1.778484 39.500000
-12.558475 -11.580568 1.766552 39.000000
-12.550087 -11.427767 1.755237 40.500000
-12.540277 -11.275530 1.743922 41.000000
8.516829 -11.298110 1.713425 1.000000
8.644712 -11.245676 1.717753 7.000000
-12.535005 -11.129156 1.733430 41.000000
-12.525399 -10.980669 1.722527 41.500000
-12.518944 -10.836647 1.712240 41.000000
-12.506636 -10.689270 1.701337 38.500000
-12.842390 -10.429235 1.710800 9.000000
7.453506 -10.461021 1.783502 52.500000
7.539761 -10.477245 1.792304 32.000000
7.172816 -10.304972 1.743343 27.000000
7.132965 -10.224827 1.731057 35.666668
7.239707 -10.262938 1.743893 36.000000
7.458376 -10.227986 1.757646 29.000000
7.554346 -10.223812 1.765073 25.000000
6.887948 -8.484668 1.712932 38.000000
7.251017 -8.300292 1.727488 17.000000
7.077316 -8.257245 1.704571 11.000000
-12.335457 -8.109064 1.787723 21.000000
7.582798 -8.174379 1.747618 19.000000
7.841990 -8.166131 1.774562 0.000000
7.967529 -8.193192 1.791286 18.000000
9.905752 -8.139637 1.780201 3.000000
6.356112 -8.059797 1.793293 2.000000
-12.348122 -7.979280 1.780430 39.333332
7.961031 -7.983293 1.767129 19.000000
-12.337771 -7.808748 1.768247 43.000000
9.608967 -7.770086 1.715837 3.000000
-12.329647 -7.668586 1.758389 43.000000
8.312263 -7.681047 1.773943 2.000000
-12.323425 -7.557748 1.750694 42.500000
6.252099 -7.530688 1.709996 0.000000
6.336360 -7.583581 1.726518 6.000000
-12.316495 -7.473833 1.744683 42.000000
5.537541 -7.448156 1.789112 4.000000
-12.309752 -7.364386 1.737149 41.000000
-12.301065 -7.228568 1.727852 42.500000
8.906898 -7.248771 1.799957 3.000000
-12.287478 -7.091397 1.718074 41.000000
-12.266146 -6.925856 1.705891 34.000000
-12.546757 -6.826516 1.729775 7.000000
-12.676866 -6.794409 1.741798 10.333333
-12.682851 -6.644598 1.733943 10.666667
8.909348 -6.534995 1.731824 12.000000
-12.676574 -6.489787 1.724646 11.000000
5.333032 -6.425917 1.762508 1.333333
6.592399 -6.448995 1.777755 4.000000
-12.664960 -6.333908 1.714868 11.000000
5.333536 -6.304688 1.742958 8.000000
-12.658680 -6.182307 1.706051 11.000000
7.614745 -6.118038 1.706554 0.000000
6.503222 -6.087739 1.717184 11.000000
8.450509 -5.529859 1.764380 10.000000
8.630755 -5.570673 1.794670 4.000000
6.069265 -5.401819 1.714872 12.000000
7.559723 -5.438216 1.795169 23.000000
8.172621 -5.421654 1.713438 11.000000
4.708442 -5.340669 1.767657 18.000000
5.652932 -5.392629 1.794482 37.000000
4.932998 -5.203750 1.780187 61.000000
5.778380 -5.257971 1.794482 10.500000
7.356740 -5.222366 1.739141 1.000000
4.906445 -5.110997 1.758982 39.000000
5.049890 -5.002519 1.764765 66.000000
4.473249 -4.994279 1.791875 18.000000
4.706331 -4.995985 1.704044 12.000000
5.766166 -4.971954 1.748814 22.000000
4.881320 -4.896678 1.716574 14.000000
4.968751 -4.891309 1.731031 0.000000
5.323778 -4.768373 1.774404 19.000000
6.216434 -4.728786 1.794034 18.000000
6.506510 -4.774263 1.703308 38.000000
5.148216 -4.663942 1.724670 34.400002
5.368607 -4.629153 1.759946 6.000000
-12.134993 -4.522646 1.798172 45.000000
5.859895 -4.530676 1.701355 10.000000
6.767581 -4.460703 1.710742 24.000000
-12.129272 -4.369265 1.790103 44.000000
4.690913 -4.319821 1.704295 12.600000
6.065425 -4.305694 1.708519 8.000000
6.457008 -4.314435 1.783737 13.000000
6.798601 -4.395787 1.708759 16.600000
-12.132970 -4.220430 1.783685 16.000000
5.841340 -4.258018 1.794644 55.000000
6.364989 -4.267332 1.795697 23.750000
6.911023 -4.250028 1.712394 1.000000
8.754671 -4.269938 1.701735 37.000000
8.102971 -4.176884 1.757312 20.000000
-12.126637 -4.069352 1.776075 22.000000
7.136553 -4.041009 1.730980 20.000000
7.396996 -4.011190 1.776000 52.333332
7.965692 -4.074497 1.724756 26.000000
-12.118543 -3.918890 1.768465 21.000000
5.716573 -3.973083 1.706811 60.833332
6.763452 -3.956923 1.799855 25.000000
7.111969 -3.934182 1.715423 32.333332
7.207129 -3.918039 1.731393 3.000000
7.362224 -3.932716 1.761681 48.333332
5.068815 -3.893657 1.708220 9.000000
-12.105371 -3.768155 1.760397 15.500000
5.538428 -3.751208 1.787744 51.000000
6.038935 -3.753041 1.765247 9.000000
6.604072 -3.725760 1.741650 30.000000
6.875547 -3.709843 1.794482 32.000000
