# This PCD file was generated using the MATLAB® pcwrite function
# from Computer Vision Toolbox®.
# .PCD v.7 - Point Cloud Data file format
VERSION .7
FIELDS x y z intensity
SIZE 4 4 4 4
TYPE F F F F
COUNT 1 1 1 1
WIDTH 1241
HEIGHT 1
VIEWPOINT 0 0 0 1 0 0 0
POINTS 1241
DATA ascii
18.338348 -11.705387 0.730455 52.000000
-9.559249 -11.679122 0.769039 2.000000
18.315617 -11.569708 0.727368 50.000000
-8.288960 -11.383685 0.717539 14.000000
-7.911600 -11.421412 0.707971 12.500000
-7.826011 -11.412498 0.705122 2.000000
18.298702 -11.438790 0.724549 50.000000
-8.896412 -11.370514 0.735655 51.000000
-8.556299 -11.346315 0.724120 18.000000
18.269821 -11.261705 0.720590 51.000000
-8.047169 -11.161733 0.701152 5.500000
18.242851 -11.087519 0.716764 51.000000
-8.803884 -11.036333 0.719371 66.000000
-8.435554 -11.065234 0.708989 27.000000
-8.235219 -11.016259 0.700847 22.000000
-8.778488 -10.933859 0.714485 64.000000
-8.600904 -10.921953 0.708379 81.000000
-8.475720 -10.903236 0.703697 103.000000
-8.370567 -10.908737 0.700643 5.000000
18.219572 -10.956079 0.713811 50.000000
-8.602916 -10.854179 0.705732 42.000000
18.205677 -10.831289 0.711261 51.000000
-11.340628 -10.694342 0.794280 17.000000
-10.344587 -10.652440 0.756622 0.000000
-9.256981 -10.611477 0.717539 67.000000
-9.068557 -10.663057 0.713264 28.000000
18.175095 -10.659040 0.707436 44.500000
18.511610 -10.584545 0.715959 22.000000
-8.890618 -10.520626 0.701865 15.000000
18.171564 -10.542162 0.705355 25.000000
18.256557 -10.514950 0.707369 23.000000
18.583015 -10.548044 0.717435 19.000000
18.770222 -10.537588 0.722737 32.500000
18.933252 -10.512161 0.727100 26.000000
19.050213 -10.498939 0.730321 35.000000
-10.234849 -10.407789 0.743797 2.000000
-9.599051 -10.460856 0.723442 3.000000
-9.061367 -10.453354 0.704918 16.000000
-8.981553 -10.427288 0.701254 12.000000
19.220594 -10.474974 0.734952 35.000000
19.387627 -10.447891 0.739448 36.000000
19.501434 -10.430302 0.742536 32.000000
19.658140 -10.395258 0.746630 24.500000
-10.938961 -10.380686 0.768428 5.000000
-10.466307 -10.249365 0.746444 4.000000
6.332654 -9.094550 0.757835 10.000000
6.378136 -9.038256 0.756470 33.666668
6.355888 -8.858200 0.745555 143.500000
6.473890 -8.845313 0.749580 255.000000
6.631875 -8.826273 0.754969 255.000000
6.790999 -8.805446 0.760427 255.000000
6.910674 -8.788185 0.764521 255.000000
6.968137 -8.775858 0.766295 255.000000
7.074461 -8.767337 0.770388 255.000000
7.222069 -8.751657 0.775937 255.000000
7.376656 -8.725873 0.781365 233.000000
7.490098 -8.680426 0.784033 12.000000
-8.188705 -7.916030 0.778848 59.000000
-8.086905 -7.768623 0.766841 5.000000
-8.814495 -7.654258 0.798315 42.000000
-8.196581 -7.654178 0.766909 9.250000
-8.846110 -7.512754 0.793653 35.250000
-8.555508 -7.524139 0.779121 62.000000
-8.251050 -7.497381 0.762383 32.833332
-8.979735 -7.457603 0.798224 25.500000
-8.346878 -7.410671 0.763293 66.000000
-8.252422 -7.396679 0.757835 37.000000
-8.989348 -7.370806 0.794949 24.000000
-9.165440 -7.137672 0.794403 24.000000
9.056992 -7.012707 0.783305 12.666667
9.036177 -6.891301 0.777120 20.333334
-8.827800 -6.815468 0.762656 27.666666
-8.731524 -6.843927 0.758654 56.000000
-8.565416 -6.867150 0.750740 31.000000
9.064494 -6.823150 0.775846 13.000000
9.160594 -6.805640 0.780394 13.333333
9.344732 -6.806748 0.790583 25.333334
9.442406 -6.787557 0.795222 4.000000
-8.927187 -6.751585 0.765408 34.500000
-8.572336 -6.777305 0.747283 27.000000
-8.933229 -6.603054 0.759654 38.333332
-9.205323 -6.452820 0.768751 54.000000
-8.916533 -6.483001 0.753878 32.500000
12.227924 -6.392604 0.703086 255.000000
-8.744576 -6.295194 0.736822 46.000000
12.335999 -6.375203 0.707564 255.000000
12.486183 -6.353732 0.713875 255.000000
12.634788 -6.329742 0.720083 255.000000
12.792542 -6.308539 0.726800 255.000000
-9.239411 -6.252005 0.762883 25.750000
-9.098032 -6.278576 0.755925 39.666668
-8.976651 -6.250560 0.748011 52.000000
-8.828424 -6.271645 0.740551 37.666668
12.930777 -6.275968 0.732398 15.000000
13.079056 -6.272047 0.739116 11.000000
13.204143 -6.255615 0.744510 10.000000
13.325732 -6.236557 0.749701 10.000000
13.414105 -6.226619 0.753568 11.000000
13.532274 -6.204065 0.758555 17.500000
13.672347 -6.190547 0.764764 11.000000
-9.310240 -6.162259 0.763497 33.500000
13.799833 -6.170026 0.770260 255.000000
13.966333 -6.139447 0.777384 255.000000
14.147646 -6.113379 0.785323 255.000000
14.290203 -6.095289 0.791633 255.000000
-9.244822 -5.994598 0.753469 38.500000
14.423709 -6.071986 0.797435 214.500000
-10.020097 -5.909354 0.795495 11.000000
-9.932858 -5.900046 0.790037 16.000000
-9.206566 -5.847225 0.745827 49.000000
-9.360783 -5.720573 0.750194 46.000000
-9.265854 -5.752869 0.745827 50.750000
-9.966372 -5.627226 0.782669 22.000000
-9.823902 -5.205893 0.760291 25.000000
-9.788249 -5.128054 0.755652 19.000000
-7.629314 -5.084323 0.787287 7.000000
-7.760484 -5.072374 0.796127 12.333333
-7.649714 -4.977278 0.783693 2.000000
-10.107803 -4.819011 0.765749 3.000000
-7.513133 -4.821493 0.766582 8.000000
-10.145741 -4.337993 0.754560 18.000000
-10.021854 -4.210923 0.743371 59.333332
-9.878929 -4.041623 0.729908 64.333336
-10.021360 -3.888205 0.735075 65.000000
-9.907933 -3.962890 0.729726 66.500000
-6.435853 -3.900766 0.778254 5.000000
-13.835531 -3.800554 0.731109 35.000000
-13.523341 -3.882856 0.716928 31.333334
-10.060735 -3.823724 0.736003 65.000000
-13.920914 -3.714492 0.734162 24.666666
-10.180153 -3.777974 0.742553 48.750000
-6.463998 -3.757670 0.773193 25.600000
-10.100966 -3.622640 0.733820 28.000000
-6.481757 -3.608967 0.767186 162.600006
-14.824498 -3.518019 0.776367 33.500000
-14.110428 -3.512894 0.740948 45.000000
-10.043050 -3.566275 0.728799 46.400002
-13.557449 -3.443130 0.712755 30.500000
-10.272174 -3.395206 0.739824 0.000000
-10.139095 -3.482879 0.733118 53.000000
-6.485951 -3.463294 0.760356 255.000000
-13.593372 -3.323777 0.713060 26.000000
-10.269521 -3.315849 0.737968 27.400000
-6.492778 -3.311202 0.753704 255.000000
-14.316753 -3.231671 0.747869 32.000000
-10.249350 -3.245381 0.735184 8.000000
-6.494997 -3.159524 0.746915 255.000000
-6.501411 -3.027304 0.741635 255.000000
-13.643694 -2.944887 0.711228 38.000000
-8.434481 -2.957827 0.767523 5.250000
-6.498237 -2.924516 0.736903 255.000000
-8.425890 -2.816713 0.762903 30.916668
-6.505024 -2.854204 0.734599 255.000000
-8.458931 -2.751732 0.763844 31.500000
-6.513617 -2.712784 0.729673 255.000000
-6.520889 -2.551364 0.773657 255.000000
-6.538053 -2.455525 0.773692 136.583328
-6.533145 -2.064167 0.769159 205.199997
-6.532181 -1.956096 0.765448 255.000000
-6.538308 -1.802241 0.761355 255.000000
-6.552099 -0.756963 0.798765 255.000000
-6.554733 -0.611548 0.797253 255.000000
-6.553581 -0.466346 0.795673 255.000000
-6.558462 -0.311554 0.795158 255.000000
-6.563288 -0.202367 0.795206 208.000000
-8.543658 -0.123775 0.733729 9.000000
-9.289559 0.390971 0.798409 18.000000
-9.199345 0.445094 0.790880 11.000000
-9.026758 0.465172 0.776164 12.000000
-9.070555 0.538897 0.780271 3.500000
-9.284753 0.624829 0.799093 15.000000
-9.214117 0.717078 0.793618 2.666667
-9.097385 0.784643 0.784104 26.200001
-9.063732 0.839223 0.781640 6.000000
-8.750602 1.176696 0.758198 14.166666
-8.641131 1.302941 0.750412 3.750000
-8.568633 1.360962 0.745022 19.500000
-8.739001 1.479660 0.761107 86.000000
-8.590279 1.426734 0.747760 13.000000
-9.048492 1.561321 0.788485 73.000000
14.726034 1.563362 0.754586 4.000000
-9.150896 1.623444 0.798067 63.000000
-8.508602 1.675433 0.744680 56.000000
14.714614 1.702540 0.754790 32.000000
-9.019248 1.771100 0.789283 30.666666
-8.489817 1.796889 0.745193 42.000000
-8.424328 1.783015 0.739432 33.333332
14.746768 1.811990 0.757080 16.250000
-8.504713 1.897967 0.748273 46.500000
14.349401 1.889135 0.737487 20.000000
14.462248 1.857788 0.742983 21.000000
14.455968 1.995646 0.743594 41.000000
14.588854 1.967305 0.750108 37.000000
14.526117 2.098481 0.747869 32.666668
-11.453364 2.124822 0.796586 6.000000
-8.974705 2.121531 0.791907 46.500000
-11.429296 2.250613 0.796586 14.500000
13.995195 2.291800 0.722628 26.000000
14.574146 2.245729 0.751397 19.666666
-9.006641 2.376015 0.799876 26.857143
13.923510 2.392592 0.719880 34.250000
14.440144 2.318107 0.745222 21.000000
-10.046634 2.592625 0.709532 74.000000
-7.887946 2.587317 0.712853 13.500000
13.823601 2.577030 0.716521 27.000000
13.931866 2.529372 0.721508 39.000000
13.862209 2.659428 0.719235 28.000000
13.478629 2.798696 0.701458 32.500000
13.912381 2.729500 0.722424 36.000000
10.483651 2.889647 0.743644 71.000000
13.448449 2.902745 0.701051 31.000000
14.081461 2.831646 0.731889 34.000000
15.330424 2.907799 0.795094 0.000000
-9.869495 3.015522 0.705712 31.000000
10.489897 2.926858 0.744736 37.000000
13.634375 2.987734 0.711228 29.000000
13.605205 3.206106 0.712246 23.000000
13.415325 3.295120 0.703900 35.000000
13.665004 3.265546 0.715910 20.000000
13.415005 3.451938 0.705834 35.000000
13.493290 3.539898 0.710821 34.000000
13.601789 3.614073 0.717131 49.000000
-9.573925 3.700033 0.701891 92.000000
9.974657 3.783869 0.729535 51.299999
9.950920 3.853714 0.729726 45.000000
14.818663 3.887603 0.780641 4.000000
-9.695875 3.923254 0.715263 60.666668
-9.637844 3.970463 0.712807 66.000000
10.021788 3.935562 0.736276 35.500000
10.100364 4.058376 0.744372 30.666666
14.312197 4.044549 0.757843 19.000000
10.154346 4.172932 0.750740 31.500000
14.610528 4.178464 0.774331 29.000000
10.168703 4.297544 0.754924 25.333334
14.670238 4.245444 0.778199 2.000000
10.146394 4.363443 0.755288 32.000000
10.385109 4.325030 0.769297 88.000000
14.143411 4.334874 0.753772 31.000000
14.267829 4.324019 0.759675 122.000000
15.063216 4.410501 0.799776 50.000000
-9.644970 4.469810 0.726952 59.500000
10.094572 4.504953 0.755925 15.000000
10.182463 4.460041 0.760182 34.000000
13.999342 4.483889 0.749039 26.750000
14.306495 4.483384 0.763950 26.000000
-9.599521 4.605504 0.728089 51.000000
13.978685 4.606780 0.749972 34.666668
14.652480 4.541305 0.781659 33.000000
10.077006 4.649788 0.758927 35.000000
10.422447 4.690594 0.781577 14.000000
9.161040 4.762855 0.706075 4.000000
10.224308 4.815547 0.772844 36.000000
10.498508 4.764544 0.788399 19.000000
-9.161153 4.938964 0.711715 3.000000
9.258356 4.943466 0.717719 45.000000
10.295604 4.935073 0.780758 26.666666
10.351635 4.975232 0.785397 30.000000
14.680811 5.009196 0.790412 25.000000
-9.017031 5.064257 0.707213 3.500000
8.902417 5.100526 0.701618 31.000000
9.025312 5.114551 0.709396 11.000000
10.348892 5.094774 0.788809 20.500000
14.687663 5.063103 0.791633 31.000000
9.295836 5.133695 0.726179 18.000000
9.441397 5.175441 0.736276 58.000000
10.338468 5.245044 0.792766 24.166666
-9.632129 5.350169 0.753469 0.000000
-9.287972 5.390545 0.734366 11.000000
9.925928 5.387172 0.772298 48.000000
14.398590 5.371958 0.783084 0.000000
-10.004745 5.434395 0.778575 1.000000
-9.706206 5.511650 0.763293 7.000000
-9.326135 5.491319 0.740097 15.000000
9.766321 5.453668 0.764930 28.500000
9.236200 5.525563 0.736003 17.000000
9.333540 5.703928 0.748011 27.000000
9.145014 5.787858 0.740097 5.666667
9.237995 5.717538 0.742935 35.599998
9.556115 5.798792 0.764384 13.000000
8.928862 5.862962 0.730454 24.666666
9.030228 5.821743 0.734730 27.000000
8.697573 6.015750 0.723177 24.000000
8.874174 6.008239 0.732865 12.833333
8.261940 6.167218 0.705029 34.500000
8.367970 6.164928 0.710760 41.000000
8.803459 6.191774 0.736003 18.500000
13.342386 6.210321 0.749904 7.000000
8.234015 6.237514 0.706394 32.250000
8.712421 6.306680 0.735503 29.500000
8.822997 6.267861 0.740097 20.000000
13.496029 6.230324 0.757436 18.000000
-9.445446 6.392642 0.779940 8.000000
13.886023 6.357519 0.778199 20.000000
7.940128 6.510499 0.702164 4.000000
7.935076 6.590252 0.705370 17.500000
5.424116 6.645920 0.736638 35.000000
14.108366 6.675020 0.795297 7.000000
5.873456 6.751838 0.768464 13.000000
6.034103 6.725543 0.775908 30.625000
6.183311 6.735953 0.785176 14.000000
7.922324 6.749583 0.711715 40.000000
8.077505 6.838113 0.723723 70.000000
4.970579 7.101360 0.744338 39.000000
5.176652 7.036845 0.750155 32.500000
5.267561 7.043857 0.755289 17.000000
5.820894 7.018775 0.783009 46.000000
7.586313 7.084277 0.709805 38.500000
7.672361 7.097226 0.714717 52.000000
4.959017 7.180554 0.749357 39.000000
5.114981 7.174840 0.756658 22.500000
5.263664 7.178873 0.764415 62.000000
4.873644 7.250013 0.750155 46.000000
4.933365 7.305804 0.757000 31.333334
5.164976 7.281276 0.766582 7.000000
7.451028 7.233095 0.710123 23.000000
7.659153 7.265908 0.721949 38.500000
8.004851 7.265996 0.739278 45.000000
4.540183 7.388628 0.744680 26.000000
4.643314 7.347836 0.746391 18.000000
4.804758 7.395853 0.757342 35.000000
11.990489 7.330521 0.716114 18.000000
4.534327 7.457585 0.749471 19.500000
4.615801 7.459051 0.753235 4.000000
4.861276 7.452086 0.764050 35.599998
4.979970 7.509668 0.773769 43.000000
8.226542 7.514499 0.761928 34.000000
7.222045 7.552208 0.714581 38.000000
7.356219 7.596430 0.723131 28.833334
8.267530 7.599721 0.767932 37.000000
4.757247 7.633924 0.772400 40.000000
4.945487 7.691622 0.785233 35.000000
7.075810 7.708376 0.715536 45.000000
7.505831 7.629993 0.731910 25.000000
4.671676 7.765760 0.778218 54.000000
4.842639 7.716836 0.782324 38.000000
6.720785 7.799855 0.704074 36.000000
6.970798 7.739139 0.712261 50.000000
7.028678 7.729797 0.714444 44.500000
7.228623 7.751822 0.724814 25.000000
4.691565 7.899632 0.788964 30.200001
7.267879 7.867855 0.732455 93.000000
8.006081 7.911601 0.769706 49.000000
6.991426 7.927434 0.722813 33.666668
7.072395 7.926734 0.726452 32.500000
6.993628 8.065126 0.729999 24.000000
8.030501 8.078337 0.778939 30.333334
6.486669 8.128719 0.711169 19.500000
6.796898 8.143430 0.725360 34.000000
8.227222 8.207143 0.794676 61.000000
6.460035 8.307249 0.719629 28.000000
6.844112 8.292193 0.735253 11.000000
6.466868 8.333885 0.721358 17.333334
7.100412 8.399229 0.752104 29.000000
7.422972 8.669713 0.780485 6.000000
7.138042 9.002740 0.785670 1.000000
7.027342 9.154902 0.789218 13.000000
10.740203 9.211973 0.720999 9.000000
6.058360 9.790200 0.787308 12.000000
6.083983 9.900987 0.794676 80.000000
11.044206 10.091818 0.762321 0.000000
6.468016 12.372154 0.711381 12.500000
7.153067 12.788422 0.746647 5.000000
7.249967 13.154990 0.765375 1.000000
-16.072510 13.410131 0.702805 41.000000
-16.771967 13.509014 0.723073 40.500000
-16.571623 13.476995 0.717167 40.000000
-16.442577 13.458096 0.713409 39.000000
-16.316906 13.441054 0.709785 42.000000
-16.194576 13.425914 0.706295 40.000000
-17.383139 13.600751 0.741059 40.000000
-17.239822 13.576145 0.736764 41.000000
-17.109358 13.560714 0.733006 40.000000
-16.969793 13.537110 0.728845 40.000000
6.763891 13.554416 0.771888 26.000000
6.836954 13.593771 0.775349 22.000000
-18.088587 13.700152 0.761864 35.000000
-17.943724 13.679351 0.757569 38.000000
-17.802336 13.660217 0.753408 40.000000
-17.661253 13.640321 0.749247 40.000000
-17.520466 13.619683 0.745086 39.000000
6.930012 13.618301 0.778606 39.000000
-18.836796 13.806655 0.784146 35.000000
-18.683954 13.785065 0.779582 34.000000
-18.534639 13.765041 0.775152 36.000000
-18.388842 13.746600 0.770857 39.000000
-18.236952 13.722584 0.766294 37.000000
7.076305 13.745389 0.787766 33.000000
7.364815 13.769926 0.795705 3.000000
-19.319948 13.882793 0.798776 17.000000
-19.156393 13.856725 0.793810 33.000000
-18.999651 13.834482 0.789112 33.000000
6.482278 13.964872 0.784509 3.000000
6.583531 13.952771 0.786137 37.000000
6.740598 13.999581 0.791735 35.000000
6.653323 14.100860 0.794483 83.500000
6.835340 14.026950 0.795094 36.000000
-12.665257 16.685869 0.703342 0.000000
-12.579256 16.790693 0.704416 80.000000
-12.464700 17.894344 0.732200 18.000000
-12.410848 17.997301 0.734012 106.500000
-12.640216 18.025297 0.739180 8.000000
-12.396930 18.159601 0.738240 44.000000
-12.384695 18.264633 0.740925 42.000000
-12.363033 18.419064 0.744817 43.500000
-12.338111 18.570339 0.748576 43.000000
-13.603521 18.702930 0.776495 8.500000
-13.459126 18.689032 0.773273 8.000000
-13.356155 18.669443 0.770723 8.000000
-13.258074 18.655912 0.768441 7.000000
-14.515241 18.753448 0.796226 11.000000
-14.364731 18.740664 0.792803 15.000000
-14.212158 18.723837 0.789246 11.000000
-13.854540 18.737007 0.782401 8.000000
-13.755367 18.725672 0.780119 9.000000
-12.315185 18.726831 0.752535 43.000000
-12.295568 18.890182 0.756764 44.000000
-12.266972 19.042023 0.760522 46.000000
-12.239492 19.197369 0.764414 47.000000
-12.204789 19.276253 0.766025 10.000000
6.817926 19.845694 0.704550 9.000000
6.648270 19.962168 0.706429 18.000000
7.009939 19.994867 0.711395 21.000000
6.338712 20.079382 0.706966 20.000000
5.890049 20.194721 0.706295 47.000000
6.867516 20.196301 0.716227 28.000000
7.045397 20.300047 0.721462 19.000000
-12.300097 20.406206 0.799984 8.000000
-12.124976 20.331711 0.794816 90.500000
-12.034101 20.397268 0.795152 29.000000
6.354238 20.351055 0.715825 9.000000
6.862689 20.392067 0.722402 7.000000
4.863314 20.445711 0.705624 15.000000
4.934083 20.457535 0.706563 1.000000
5.148095 20.495426 0.709516 25.000000
-12.038656 20.552261 0.799716 42.000000
4.685508 20.556900 0.707905 3.000000
4.789681 20.517803 0.707413 12.333333
5.020167 20.531250 0.709650 7.000000
5.711860 20.540606 0.715825 23.000000
5.110610 20.620148 0.713274 6.000000
5.891187 20.681173 0.721999 2.000000
5.297261 20.812334 0.721060 20.000000
5.419840 20.747696 0.719986 17.000000
5.368609 20.818817 0.721865 9.000000
5.864096 20.834267 0.726697 1.000000
6.718994 21.053389 0.741999 3.000000
6.464788 21.291615 0.747099 3.500000
6.536138 22.150785 0.775421 4.000000
5.730494 22.814053 0.789783 1.000000
5.843313 22.808086 0.790521 8.000000
6.018769 22.747971 0.790051 21.000000
6.199264 22.848602 0.794884 9.000000
6.293252 22.909969 0.797702 13.000000
6.156424 22.976088 0.798642 0.000000
-8.317492 -23.255423 0.829245 140.000000
-8.351121 -23.120140 0.825353 255.000000
-8.386725 -22.992384 0.821729 255.000000
19.150455 -17.243149 0.865218 20.000000
19.147924 -17.132254 0.862668 3.000000
19.120672 -16.946402 0.857835 12.500000
19.089226 -16.758497 0.852869 12.000000
19.072491 -16.637997 0.849782 26.000000
19.067274 -16.528244 0.847232 19.000000
19.034292 -16.395206 0.843473 19.000000
19.018888 -16.278137 0.840520 26.000000
18.990751 -16.150972 0.837030 21.000000
18.977276 -16.037043 0.834212 38.000000
18.957148 -15.918216 0.831124 20.000000
-6.062847 -15.695920 0.857382 11.000000
18.938145 -15.750764 0.827031 20.500000
-6.939572 -15.412439 0.861284 8.333334
-7.212563 -15.285907 0.861250 2.000000
-8.050837 -15.282701 0.880181 12.000000
-6.679825 -15.260467 0.848833 4.000000
-8.084209 -15.172318 0.876008 13.500000
-7.789422 -15.130584 0.867153 4.000000
-7.017144 -15.117138 0.849240 7.000000
-6.948359 -15.155446 0.849545 0.000000
18.853701 -15.137102 0.811796 32.000000
-7.683694 -15.041141 0.860639 1.000000
18.835529 -15.025446 0.808977 23.000000
18.809278 -14.844097 0.804503 35.333332
-7.448563 -14.694633 0.839469 13.000000
18.781096 -14.694525 0.800655 42.000000
-7.249477 -14.642457 0.832548 5.000000
-7.299787 -14.551901 0.829563 12.666667
-7.115378 -14.485879 0.822371 6.000000
-7.012085 -14.389655 0.815653 2.000000
-8.091377 -14.359883 0.839876 11.000000
-7.962371 -14.235312 0.831123 16.000000
-7.832278 -14.211589 0.826849 7.000000
-6.867743 -14.206605 0.804050 5.000000
-7.849739 -14.138016 0.823999 13.000000
-7.658157 -14.051891 0.815450 14.500000
-7.458403 -13.944818 0.805815 9.333333
-8.511396 -13.334591 0.806086 43.000000
-8.573339 -13.247293 0.804050 61.500000
-8.968530 -13.167109 0.811786 0.000000
-8.812094 -13.113782 0.805068 4.000000
-8.746458 -13.104851 0.802829 12.000000
-8.674945 -13.176159 0.803847 46.000000
-9.137166 -12.902972 0.805638 12.600000
-9.245875 -12.782067 0.803847 15.000000
-8.536969 -9.183658 0.857442 31.000000
-8.858220 -9.176160 0.872179 10.000000
-8.634599 -9.172420 0.861445 29.333334
-8.344161 -9.176592 0.848164 43.000000
-8.346262 -9.063780 0.842569 33.000000
-8.069592 -9.015844 0.827424 12.000000
-8.459157 -8.818046 0.835611 31.000000
-8.792279 -8.770820 0.849255 60.000000
-8.666107 -8.699446 0.839704 39.000000
-8.332283 -8.740592 0.825786 24.000000
-8.549212 -8.654247 0.831881 18.333334
-8.386103 -8.605561 0.821693 30.000000
-8.663506 -8.547841 0.832268 22.000000
-9.220945 -8.449473 0.855259 1.500000
-9.125394 -8.441337 0.850074 3.000000
-8.707287 -8.470423 0.830698 18.000000
-9.142406 -7.592870 0.812687 34.000000
-9.504054 -7.546334 0.829880 1.000000
-9.093668 -7.384964 0.801089 22.000000
10.767496 -6.721696 0.868017 2.000000
10.849604 -6.666894 0.870814 8.000000
10.974650 -6.639583 0.877145 10.000000
11.114236 -6.614860 0.884459 9.500000
11.276100 -6.591745 0.893192 8.666667
-10.125221 -6.122455 0.809139 13.500000
-10.078657 -6.029562 0.803136 7.000000
14.568362 -6.052295 0.803847 143.000000
14.713164 -6.031231 0.810259 56.000000
14.872885 -6.015075 0.817485 13.000000
15.021660 -5.992964 0.824101 11.500000
15.181695 -5.974107 0.831327 12.000000
15.263660 -5.951053 0.834787 24.000000
15.326999 -5.920344 0.837230 27.000000
15.476063 -5.894187 0.843846 10.500000
-11.577443 -5.881275 0.888007 4.000000
-10.142536 -5.853449 0.800816 13.500000
-11.676816 -5.702672 0.888644 33.333332
-11.571656 -5.741701 0.883368 2.000000
-11.843246 -5.555342 0.894556 0.000000
-11.050300 -5.526345 0.844889 18.000000
15.542514 -4.960249 0.831327 1.000000
15.611354 -4.928232 0.834177 255.000000
15.569425 -4.807673 0.830309 255.000000
15.561144 -4.698186 0.828274 255.000000
15.548620 -4.614581 0.826442 255.000000
15.551041 -4.535660 0.825424 255.000000
15.539579 -4.452971 0.823694 255.000000
15.700768 -4.419200 0.831123 255.000000
-15.509911 -4.330441 0.820539 13.000000
-15.488542 -4.376978 0.820131 35.000000
15.579866 -4.332396 0.823999 15.000000
-15.698696 -4.277015 0.829088 7.000000
-15.739559 -4.076341 0.828477 22.333334
17.186684 -4.031100 0.899519 36.000000
17.170422 -3.942028 0.897687 31.000000
17.223911 -3.868942 0.899519 8.000000
-15.899327 -3.694040 0.831734 28.000000
16.900545 -3.740572 0.882013 27.000000
-6.484779 -3.607979 0.898695 255.000000
16.870270 -3.622875 0.879231 255.000000
-6.491347 -3.466163 0.891177 255.000000
16.841049 -3.450891 0.875974 255.000000
-6.494209 -3.311925 0.882841 255.000000
16.829132 -3.310900 0.873972 255.000000
-6.499916 -3.146738 0.874554 255.000000
16.839697 -3.164884 0.873097 255.000000
-6.495121 -3.021827 0.867533 255.000000
16.858704 -3.026055 0.872771 113.800003
-8.923491 -2.856431 0.804569 3.000000
-17.137693 -2.256224 0.880791 0.000000
-17.024689 -2.132610 0.874278 3.000000
-16.963894 -2.070881 0.870817 28.000000
-16.877361 -1.952781 0.865728 15.000000
-16.739664 -1.830304 0.858061 15.000000
-16.648014 -1.696891 0.852701 17.666666
-12.746661 -1.594460 0.878455 38.000000
-12.603052 -1.616723 0.868904 17.000000
-6.539665 -1.648770 0.816764 255.000000
-13.002126 -1.543506 0.895375 43.000000
-12.690991 -1.506463 0.873953 40.500000
-6.542609 -1.508142 0.813111 255.000000
-12.912424 -1.450641 0.888553 77.000000
-12.826278 -1.318680 0.881730 78.000000
-12.679208 -1.343824 0.871906 32.000000
-6.542116 -1.367962 0.809413 255.000000
-12.595976 -1.215072 0.865356 22.000000
-6.542642 -1.207944 0.805738 255.000000
-12.454383 -1.132318 0.855191 22.000000
-6.543843 -1.049365 0.802612 255.000000
-6.548479 -0.902880 0.800551 255.000000
-12.653162 -0.860390 0.867267 20.000000
-12.687453 -0.774626 0.869231 16.400000
16.470070 -0.707568 0.840012 170.333328
16.469454 -0.586651 0.839741 255.000000
-9.993479 -0.469552 0.859097 15.000000
-9.484386 -0.405803 0.815178 37.000000
16.401093 -0.429478 0.836009 255.000000
16.471537 -0.483108 0.839673 26.000000
-9.464322 -0.330475 0.813210 49.500000
16.376785 -0.325905 0.834652 255.000000
-9.800333 -0.265187 0.841872 36.000000
-9.502303 -0.227253 0.816205 53.000000
-9.403358 -0.195332 0.807649 25.000000
-9.734657 -0.171617 0.836054 41.000000
16.363152 -0.171365 0.833838 255.000000
-10.264151 -0.035838 0.881398 15.000000
-9.999194 0.012216 0.858640 46.000000
16.362629 -0.068541 0.833770 36.000000
-9.692239 0.042293 0.832289 72.000000
-9.512723 0.071394 0.816889 58.000000
16.538507 0.034637 0.842726 116.000000
-9.451043 0.145061 0.811670 62.250000
16.521931 0.138409 0.841912 255.000000
-9.418636 0.292767 0.809189 59.166668
16.531158 0.259715 0.842455 55.000000
-16.524755 0.848671 0.843133 3.000000
-11.902629 0.838576 0.815962 8.000000
-16.480892 1.054218 0.841505 2.000000
15.874121 1.483777 0.812396 11.000000
17.507589 1.470154 0.895244 18.000000
16.537399 1.598197 0.846594 13.000000
17.533813 1.583361 0.897076 8.000000
16.400499 1.662950 0.839978 25.500000
-9.206913 1.738002 0.804569 22.000000
15.960049 1.745090 0.818096 10.000000
16.374619 1.738381 0.839062 26.000000
17.080914 1.894765 0.875703 13.000000
16.222368 1.980362 0.832752 7.000000
-9.153774 2.108259 0.806622 36.666668
-9.268032 2.298758 0.819969 47.000000
-9.119632 2.237656 0.806349 46.000000
-9.276225 2.331748 0.821338 52.000000
-9.138167 2.511924 0.813809 78.000000
16.179796 2.493200 0.834177 3.000000
15.927194 2.531099 0.821760 7.000000
-9.780619 2.655505 0.870276 3.000000
-7.717832 2.693673 0.845320 1.500000
-9.863061 2.761272 0.879516 25.000000
-9.650978 2.800205 0.862918 29.500000
-9.949609 2.836098 0.888414 16.000000
-9.192810 2.903776 0.827840 13.000000
-9.956839 2.939900 0.891494 33.000000
-9.824796 2.945770 0.880771 27.333334
-9.430412 3.011442 0.850085 66.000000
-9.295749 3.000651 0.838791 33.000000
-9.438366 3.145208 0.854306 27.333334
-9.275941 3.188545 0.842282 22.600000
15.684192 3.179585 0.815450 12.000000
15.752868 3.142016 0.818503 5.000000
-9.724546 3.240584 0.880201 24.000000
-9.322703 3.270247 0.848374 12.000000
-9.518992 3.372722 0.867196 3.000000
-9.188770 3.337196 0.839476 12.500000
15.700419 3.337227 0.817892 10.000000
-9.312818 3.454173 0.852937 31.666666
-9.423885 3.540327 0.864458 7.000000
-7.289736 3.596468 0.840588 6.500000
-7.243103 3.656421 0.839045 8.000000
-9.270176 3.853110 0.862063 70.000000
-9.140417 3.832894 0.851112 54.000000
-9.083735 3.859543 0.847518 70.500000
-9.705056 3.926956 0.899023 61.000000
-9.658094 3.978806 0.896970 70.000000
-9.019172 3.966711 0.846092 70.500000
-9.042927 4.096346 0.852480 49.000000
-8.827010 4.032006 0.833316 127.000000
-9.100266 4.191431 0.860352 93.000000
-9.238866 4.290499 0.874725 84.000000
-9.103140 4.279683 0.863774 97.000000
-8.715202 4.231909 0.831947 57.500000
11.698243 4.312002 0.852585 34.000000
12.020489 4.311061 0.873270 12.000000
-8.450126 4.352100 0.816205 9.000000
11.924338 4.318904 0.867267 23.000000
-9.263272 4.444184 0.882254 76.000000
-8.457929 4.423578 0.819627 0.000000
8.958622 4.550882 0.862861 38.500000
9.267869 4.562366 0.887045 1.000000
15.801187 4.518981 0.837434 1.000000
16.291992 4.604028 0.862675 6.000000
-8.763742 4.689235 0.853507 11.000000
-8.646555 4.696651 0.844952 0.000000
9.034472 4.697038 0.874383 20.000000
11.368704 4.651060 0.839977 0.000000
15.650644 4.635932 0.831734 16.000000
-8.903318 4.799961 0.868565 4.000000
-8.686674 4.789371 0.851796 0.000000
-8.266811 4.763231 0.819285 6.000000
9.155437 4.723449 0.884650 83.000000
-9.164416 4.848238 0.890296 2.500000
-8.643134 4.907987 0.853507 3.000000
-8.204660 4.900668 0.820654 2.000000
-8.134584 4.893547 0.815178 17.000000
-8.003279 4.848867 0.803542 13.000000
11.483833 4.867497 0.852939 12.000000
-8.577336 5.014200 0.853165 19.000000
8.688048 5.014026 0.861378 36.000000
8.816379 5.014508 0.870961 30.000000
15.293564 4.951480 0.819114 29.000000
-9.044370 5.023698 0.888414 0.000000
-8.692499 5.081643 0.864629 19.500000
8.740341 5.080904 0.868154 36.200001
9.005608 5.084758 0.888072 11.000000
14.923566 5.039739 0.802625 53.000000
15.346274 5.021864 0.822778 6.000000
-8.717054 5.169638 0.870276 14.000000
8.820410 5.127420 0.876094 38.000000
15.443238 5.161242 0.829699 12.000000
8.949868 5.316156 0.893890 19.000000
8.970907 5.405193 0.899365 35.000000
10.466661 5.462633 0.807366 29.500000
11.310368 5.567843 0.862082 16.000000
15.198555 5.616085 0.825627 6.000000
16.710554 5.672472 0.899213 12.500000
-10.806798 5.914095 0.842433 3.000000
-10.791657 5.949947 0.842706 9.000000
-10.283874 6.011819 0.814597 11.000000
10.666309 5.978312 0.836156 0.000000
11.222400 6.060338 0.872179 3.000000
7.834045 6.301055 0.863318 43.000000
7.998714 6.289766 0.873784 46.750000
8.110548 6.254886 0.879516 47.500000
8.340755 6.308023 0.897996 22.000000
5.536557 6.487065 0.881939 36.500000
7.923326 6.496723 0.879858 35.000000
11.044323 6.490049 0.875999 34.500000
11.112755 6.459991 0.879001 15.000000
5.580826 6.573766 0.891745 30.666666
7.831690 6.551813 0.876827 42.428570
7.981105 6.557957 0.887045 35.333332
11.246035 6.616350 0.892282 19.666666
7.659528 6.668884 0.872101 25.083332
7.826768 6.668171 0.882938 32.000000
10.178738 6.622785 0.830426 11.000000
11.075221 6.625758 0.882549 22.000000
10.351971 6.758713 0.845435 29.500000
10.356028 6.901357 0.851029 23.000000
14.617358 6.972123 0.825220 13.000000
10.359311 7.021694 0.855805 22.000000
10.450837 7.035917 0.861536 66.000000
14.656588 7.047439 0.828681 1.000000
6.043428 7.167185 0.805048 25.400000
10.312834 7.180961 0.859353 9.000000
10.597861 7.280986 0.879274 6.000000
14.132007 7.294072 0.810361 5.000000
5.748580 7.368444 0.802516 13.000000
5.839241 7.352728 0.806280 24.750000
6.275153 7.329110 0.828525 86.000000
5.636936 7.464191 0.803200 24.000000
5.721873 7.442033 0.806109 29.000000
10.538738 7.511599 0.885005 24.000000
9.458570 7.780349 0.837521 32.000000
8.877303 7.831968 0.809549 16.500000
9.354280 7.818618 0.833700 3.000000
8.278943 8.576092 0.815143 3.000000
7.742972 9.396317 0.832609 6.000000
7.155250 9.443796 0.810231 53.000000
8.082001 9.560371 0.856078 2.000000
7.265460 9.715475 0.829607 6.000000
8.218895 9.629948 0.865766 19.000000
6.475390 9.831643 0.805046 4.000000
6.568000 9.904376 0.812687 72.000000
6.792743 9.902003 0.821147 13.000000
7.253803 9.892939 0.838885 27.000000
6.831047 10.093208 0.833427 18.000000
6.528940 10.295918 0.833700 30.500000
6.165883 10.396926 0.826605 32.000000
6.273135 10.390863 0.830016 41.500000
6.981866 10.386196 0.855805 30.000000
6.204571 10.462066 0.831790 34.500000
6.360479 10.424230 0.835065 23.000000
6.529816 10.454066 0.842888 22.333334
6.678590 10.422969 0.846526 28.000000
6.801223 10.483459 0.854550 31.799999
7.009033 10.497689 0.863173 26.000000
6.614627 10.614450 0.855259 14.000000
5.863240 10.634398 0.830426 0.000000
6.146890 10.687564 0.843115 21.250000
6.074126 10.735994 0.843525 9.000000
6.375247 11.477618 0.897831 7.000000
-11.214604 12.706970 0.863591 38.000000
-11.055798 12.686840 0.857484 39.000000
-10.939748 12.673825 0.853108 38.000000
-10.860868 12.662645 0.850054 40.000000
-10.741610 12.643618 0.845372 39.000000
-11.926915 12.807967 0.891783 39.000000
-11.798733 12.790571 0.886695 39.000000
-11.673633 12.775300 0.881809 38.000000
-11.543619 12.753119 0.876517 37.500000
-11.379405 12.731573 0.870105 37.500000
-10.667027 12.717033 0.845780 40.500000
-12.013533 12.819985 0.895244 38.000000
-10.650421 12.819387 0.849240 39.000000
-10.633003 12.921882 0.852701 39.500000
-10.604502 13.053544 0.856975 38.500000
-10.577970 13.146941 0.859825 25.000000
-19.474100 13.900995 0.803340 32.000000
-19.796373 13.944124 0.813004 30.000000
-19.638334 13.925309 0.808306 34.000000
7.239030 13.953582 0.800997 25.000000
7.351676 13.955460 0.803745 12.500000
7.430826 14.105749 0.812396 5.000000
6.981525 14.213373 0.806900 41.000000
7.058048 14.255810 0.810564 28.000000
6.717943 14.713950 0.824203 37.000000
7.369404 14.709897 0.838350 0.500000
6.019507 14.750352 0.811786 25.000000
6.646103 14.739944 0.823897 36.500000
6.819265 14.812523 0.830920 56.000000
6.191762 14.904073 0.822371 27.000000
6.311583 14.992504 0.828884 47.000000
6.576187 15.153116 0.841708 84.000000
6.722894 15.228443 0.848222 59.000000
6.816198 15.309431 0.853922 63.000000
5.987330 15.356709 0.839876 22.000000
6.596440 15.331491 0.850461 63.000000
6.742298 15.403191 0.856772 56.000000
7.109650 15.316429 0.860436 30.000000
6.373062 15.477540 0.852904 44.000000
6.266011 15.587206 0.856025 33.666668
6.625041 15.532191 0.860436 52.000000
6.219353 15.660359 0.858604 30.000000
6.211082 15.783907 0.864303 3.000000
6.481385 15.882149 0.874074 9.000000
5.920832 15.920637 0.865525 2.000000
5.853538 16.047594 0.870410 32.000000
5.265189 16.190228 0.867509 26.750000
5.378589 16.149811 0.867357 28.000000
5.860093 16.223709 0.878959 58.000000
5.172091 16.324635 0.872581 25.000000
5.147473 16.486614 0.880079 34.000000
5.071375 16.608454 0.884863 19.000000
-14.688414 18.793449 0.800857 12.500000
-15.106544 18.855968 0.811214 9.666667
-14.963582 18.838787 0.807769 13.000000
-14.854796 18.822937 0.805085 13.000000
-12.511482 20.464952 0.805353 3.000000
-12.397334 20.422144 0.802132 8.000000
-12.020258 20.669464 0.802803 39.000000
-11.992414 20.847176 0.807501 39.500000
-11.967274 21.032003 0.812467 37.000000
-11.948322 21.153042 0.815689 37.000000
-11.930694 21.277647 0.819044 39.000000
-11.912399 21.402348 0.822400 38.000000
-11.885537 21.593100 0.827568 36.000000
-11.868786 21.805109 0.833541 22.000000
-11.849633 21.933735 0.837030 21.000000
-11.833568 22.069502 0.840789 21.000000
-11.814878 22.201860 0.844413 21.000000
-11.795483 22.334311 0.848037 21.000000
-11.777217 22.470406 0.851795 21.000000
-11.756377 22.603052 0.855419 21.000000
-11.700880 22.757732 0.859178 25.500000
-11.693162 23.008652 0.866560 7.000000
-11.660415 23.123808 0.869513 5.000000
-11.641378 23.267580 0.873540 5.000000
5.687687 23.261242 0.804011 5.000000
5.783818 23.336388 0.807232 11.000000
-11.625110 23.418621 0.877835 6.000000
-11.599164 23.551865 0.881459 7.000000
-11.584791 23.710312 0.886023 5.000000
-11.557319 23.843721 0.889647 6.000000
-11.532599 23.984394 0.893539 6.000000
-11.519156 24.150404 0.898372 3.000000
5.486276 25.162333 0.864681 10.000000
5.660913 25.201477 0.867231 19.000000
-8.381461 -28.404539 0.994343 6.000000
-9.051437 -28.361898 0.999578 10.000000
-8.454649 -28.324438 0.992464 9.000000
-5.683794 -28.188478 0.965484 10.000000
-5.773930 -28.178316 0.965753 1.000000
9.340683 -25.278259 0.904814 1.000000
-8.217633 -16.663797 0.946744 2.000000
-10.436893 -16.522297 0.995801 16.000000
-10.378565 -16.544851 0.995190 27.000000
-8.317321 -16.408531 0.937380 4.000000
-8.208711 -16.449743 0.936770 4.000000
-8.023561 -16.465326 0.933309 1.000000
-9.478875 -16.221153 0.957329 3.000000
-8.893010 -16.017031 0.933513 27.000000
-9.087628 -15.893612 0.932902 34.000000
-8.969622 -15.889370 0.929747 35.500000
-8.709745 -15.862650 0.922113 0.500000
-8.546238 -15.799351 0.915294 8.500000
-9.435896 -15.747568 0.935446 46.500000
-9.673368 -15.638086 0.936973 28.000000
-9.532457 -15.656529 0.934022 48.500000
-8.846107 -11.375607 0.985431 52.000000
-8.207104 -11.291936 0.954594 23.333334
-8.152520 -11.341256 0.955139 0.000000
-8.978716 -11.179250 0.980519 52.000000
-8.687489 -11.099498 0.963872 68.000000
-8.895883 -11.005121 0.967693 46.000000
-8.811625 -11.042084 0.966055 58.000000
-8.492201 -11.015363 0.951137 21.666666
-8.416646 -11.036437 0.949136 1.000000
-8.174962 -11.003585 0.937401 43.000000
-8.661699 -10.959833 0.955276 44.000000
-8.027794 -10.948528 0.928396 37.000000
-8.060531 -10.821001 0.922719 26.000000
-8.739008 -10.741853 0.946953 25.000000
-8.712037 -10.640241 0.940403 23.000000
-8.746544 -10.445852 0.931670 31.500000
-8.957026 -10.362311 0.936651 27.750000
-8.777142 -10.349617 0.927986 34.000000
-8.504326 -10.320242 0.914478 34.000000
-8.958596 -10.200946 0.928396 31.000000
-8.516326 -10.268899 0.912295 32.000000
-10.128638 -10.103917 0.978336 0.000000
-8.837320 -9.999317 0.912567 49.000000
-8.845116 -9.882298 0.906946 45.599998
-10.133095 -9.734279 0.960870 14.000000
-9.905881 -9.727627 0.949409 13.500000
-9.889401 -9.440616 0.934945 4.000000
-9.852697 -9.287959 0.925939 26.000000
-9.843830 -9.192403 0.921027 11.000000
-9.736613 -9.236471 0.917753 34.000000
6.348852 -9.056974 0.949786 34.000000
6.348875 -8.877912 0.937238 182.000000
6.466978 -8.835877 0.940261 255.000000
6.627191 -8.820016 0.947362 255.000000
6.768477 -8.804863 0.953665 255.000000
6.913761 -8.791984 0.960452 255.000000
7.021132 -8.785781 0.965757 255.000000
7.101283 -8.772412 0.969179 255.000000
7.226767 -8.757350 0.974997 255.000000
7.374686 -8.738978 0.981927 255.000000
7.522786 -8.709047 0.988229 177.666672
-8.741560 -7.687764 0.999637 40.000000
-8.594617 -7.510781 0.980130 59.000000
-8.139971 -7.365345 0.942657 1.500000
-8.820041 -7.048425 0.969521 29.000000
-8.732202 -7.068674 0.964730 17.000000
-8.164803 -7.045300 0.926059 57.500000
9.049589 -7.014554 0.983210 12.500000
-8.858454 -6.921016 0.965329 37.750000
-8.462319 -6.983242 0.942143 54.000000
-8.207833 -6.970581 0.924690 86.500000
-8.068346 -6.961952 0.915107 42.000000
9.029354 -6.886093 0.975111 17.333334
-9.079415 -6.844317 0.976366 29.000000
-8.969534 -6.839115 0.968580 27.000000
-8.146126 -6.808803 0.911685 40.000000
9.058719 -6.818802 0.973628 18.000000
9.164311 -6.808412 0.980358 15.666667
9.344029 -6.806225 0.992678 30.333334
-9.331987 -6.740284 0.988515 38.500000
-9.115846 -6.782313 0.975681 42.666668
-8.237779 -6.771770 0.915723 30.000000
-9.255030 -6.618626 0.977050 60.000000
11.430213 -6.569966 0.901561 9.000000
11.576559 -6.549637 0.909566 4.500000
11.676932 -6.534042 0.915024 0.000000
-9.250224 -6.441052 0.967924 43.000000
-9.147905 -6.477005 0.962506 37.000000
-8.787756 -6.431600 0.935128 47.000000
13.179554 -6.323070 0.999622 44.000000
-9.368628 -6.222143 0.965757 11.000000
-9.284783 -6.194512 0.958456 16.333334
-9.153856 -6.236114 0.951127 34.250000
-9.234594 -5.936510 0.942714 37.666664
17.449833 -5.811552 0.937177 21.000000
17.433340 -5.714967 0.934836 20.500000
17.417164 -5.598768 0.932223 22.666666
-12.093456 -5.238297 0.901242 26.000000
-7.896268 -5.084875 0.971223 9.250000
-7.850270 -4.968487 0.960731 6.000000
-7.788359 -4.895105 0.951268 3.000000
-7.813825 -4.876935 0.952502 1.000000
17.373398 -4.831134 0.918857 255.000000
17.292189 -4.750076 0.913768 255.000000
17.279640 -4.659189 0.911936 255.000000
17.261549 -4.509202 0.909086 182.333328
17.236441 -4.358306 0.905931 34.500000
17.220295 -4.210646 0.903318 39.666668
17.201138 -4.091545 0.900944 50.000000
-6.472342 -3.902622 0.915285 215.899994
-13.427538 -3.791977 0.954139 21.666666
-10.442532 -3.819355 0.954805 55.000000
-10.298834 -3.840335 0.943854 5.000000
-13.665507 -3.720523 0.968511 2.000000
-10.330181 -3.778306 0.944539 52.000000
-6.484531 -3.756061 0.907527 255.000000
-14.143882 -3.660490 0.999076 2.000000
-13.685895 -3.603179 0.967784 26.000000
-10.128736 -3.596804 0.922979 26.666666
-10.147159 -3.495858 0.921610 50.333332
-13.929903 -3.465370 0.981610 46.000000
-13.782223 -3.446917 0.971513 53.400002
-14.081115 -3.315660 0.989252 36.000000
-13.863552 -3.333457 0.975061 34.500000
-13.897096 -3.226287 0.975607 35.000000
-13.506480 -3.090913 0.947498 43.000000
-8.888453 -3.124889 0.974309 1.000000
-13.411016 -3.024762 0.940130 52.000000
-8.695342 -2.995764 0.951062 32.500000
-6.507110 -3.013209 0.937887 255.000000
-13.389287 -2.975692 0.937947 33.000000
-8.806383 -2.972232 0.961142 2.000000
-8.768107 -2.898157 0.954971 24.666666
-12.888399 -2.800656 0.901924 34.000000
-8.931560 -2.859014 0.969783 39.000000
-8.669202 -2.855318 0.943861 24.000000
-6.512159 -2.856721 0.924338 255.000000
-13.062298 -2.731265 0.912567 30.000000
-6.519935 -2.702727 0.917389 255.000000
-6.525026 -2.573307 0.942759 255.000000
-6.544593 -2.447882 0.970212 134.125000
-13.111229 -2.342571 0.910794 30.166668
-13.029357 -2.243562 0.904108 28.333334
-13.013390 -2.170691 0.902197 9.000000
-6.537394 -2.063101 0.951852 143.750000
-6.539258 -1.956976 0.947785 255.000000
-13.473466 -1.792953 0.929487 12.000000
-6.539239 -1.801284 0.941812 255.000000
-6.543791 -1.648608 0.937018 255.000000
-6.546714 -1.507860 0.932827 255.000000
-13.448510 -1.468102 0.925121 49.000000
-6.551354 -1.368702 0.929317 255.000000
-6.547512 -1.207648 0.924483 255.000000
-13.419570 -0.997244 0.920209 18.000000
-13.336610 -1.075422 0.914969 8.400000
-6.549878 -1.049155 0.921065 255.000000
-13.418655 -0.954799 0.919936 0.000000
-6.551739 -0.902182 0.918314 255.000000
-6.554253 -0.756052 0.916114 255.000000
-6.555767 -0.610494 0.914227 255.000000
-9.511198 -0.436892 0.984595 6.000000
-9.468797 -0.405136 0.980069 45.000000
-6.558574 -0.465538 0.912970 255.000000
-9.467653 -0.330571 0.979657 44.500000
-6.562946 -0.310654 0.912312 255.000000
-6.564226 -0.181061 0.911800 227.555557
-9.572860 0.041772 0.989944 54.000000
-9.458655 0.122881 0.978217 60.000000
-9.336864 0.158085 0.965668 64.000000
-9.451598 0.249187 0.977737 53.666668
-9.563359 0.327355 0.989532 68.000000
-9.074282 0.410475 0.939336 0.000000
-9.033206 0.437056 0.935221 14.000000
-8.818162 0.509995 0.913414 3.000000
-9.320570 0.634614 0.966080 6.250000
-8.967786 0.660126 0.929872 12.000000
-11.486040 0.736729 0.988343 6.000000
-9.176806 0.791571 0.952502 13.000000
-9.143244 0.832104 0.949416 12.500000
-8.841632 0.987060 0.919998 7.000000
17.682663 1.484779 0.904200 9.000000
-9.214911 1.520534 0.965805 18.000000
-9.113262 1.569563 0.956287 67.300003
-9.246260 1.870976 0.975543 22.000000
-9.177324 1.942319 0.970057 37.666668
-9.282883 2.025692 0.982538 41.000000
-9.408097 2.153866 0.998070 19.750000
-9.257696 2.234390 0.984842 52.599998
-9.235374 2.331782 0.985006 44.333332
-9.014619 2.362599 0.963693 36.400002
-8.877612 2.440302 0.952090 23.000000
-8.733746 2.464864 0.938444 12.833333
-8.379853 2.445679 0.902717 20.000000
13.654037 2.439542 0.948499 20.333334
14.171040 2.593204 0.985158 54.000000
13.802409 2.705558 0.961825 23.500000
14.145656 2.649838 0.984158 24.666666
17.913746 2.702803 0.923131 0.000000
13.945443 2.733459 0.971786 19.000000
10.480295 2.876917 0.933245 40.000000
13.477938 2.906647 0.942859 30.000000
13.849224 2.827790 0.966601 33.000000
-8.984765 3.009706 0.979863 11.500000
10.472003 2.921866 0.933588 16.000000
13.417562 2.952494 0.939493 29.000000
13.775871 2.925639 0.963053 19.000000
13.952961 2.917468 0.974788 42.000000
13.055620 3.074190 0.917207 12.000000
13.150734 3.053014 0.923210 40.000000
13.562840 3.059006 0.950773 13.000000
13.611514 3.114952 0.954867 29.000000
-9.123781 3.120214 0.997144 14.000000
12.774328 3.206273 0.900651 38.000000
12.959701 3.137779 0.911840 28.666666
-10.610929 3.242059 0.952752 3.000000
-10.349398 3.251228 0.931534 3.000000
12.752412 3.279024 0.900424 33.500000
12.846855 3.367913 0.908201 37.000000
12.971208 3.444100 0.917753 23.000000
-7.280479 3.606100 0.983909 7.666667
13.147417 3.557326 0.931397 10.500000
-7.246133 3.674629 0.983909 6.333333
13.026883 3.678871 0.925667 1.000000
-8.358538 3.754720 0.947565 109.000000
-10.900457 3.900780 0.994161 2.000000
-8.320347 3.848066 0.947976 3.500000
13.144835 3.846308 0.936582 0.000000
-10.302148 3.944311 0.947277 52.000000
-10.254283 3.990740 0.944881 64.750000
-9.999920 3.973389 0.924005 83.000000
-10.612595 4.024990 0.974654 2.000000
-8.327848 4.027633 0.956616 3.000000
10.201187 4.036863 0.942086 51.166668
12.520653 4.094799 0.900833 6.000000
10.312236 4.193695 0.955946 31.000000
10.823071 4.171912 0.996043 35.000000
12.511515 4.135366 0.901106 2.000000
-8.241690 4.244749 0.958674 5.000000
-8.109802 4.274004 0.947976 2.000000
10.336823 4.266864 0.960281 2.000000
13.933950 4.244093 0.996074 25.500000
10.455812 4.354476 0.972601 12.000000
10.399651 4.446558 0.971232 23.000000
10.596397 4.452140 0.986975 63.000000
-9.511098 4.526376 0.904499 68.000000
10.025210 4.530800 0.944710 3.000000
10.696107 4.533620 0.997584 107.000000
9.976617 4.641578 0.944881 15.000000
10.030540 4.705054 0.951383 36.000000
-9.354490 4.780757 0.902103 2.000000
-7.879776 4.807947 0.954559 0.000000
10.087765 4.770619 0.958228 48.000000
-7.847682 4.822266 0.952502 8.000000
-7.539149 4.864236 0.927815 7.000000
10.183786 4.874876 0.969521 33.500000
10.314933 4.997544 0.984237 49.000000
-9.235220 5.110728 0.906381 5.000000
10.106146 5.073958 0.971061 42.500000
10.203115 5.062651 0.978077 23.000000
10.306344 5.033422 0.984921 50.000000
9.644935 5.149961 0.938892 36.500000
9.762523 5.153728 0.947961 32.000000
10.109923 5.480123 0.987488 53.000000
10.137495 5.681920 0.997926 21.000000
16.871624 5.638619 0.906440 30.000000
13.130328 5.810338 0.981883 1.000000
9.542509 5.914301 0.964046 25.000000
13.170318 5.877581 0.986250 15.000000
16.682730 5.838990 0.900638 43.000000
9.236445 6.009684 0.946250 20.000000
9.521188 6.000940 0.966441 27.200001
9.739309 5.951901 0.980130 9.000000
13.169710 5.951946 0.988296 21.000000
16.831924 6.010242 0.910714 6.500000
9.030499 6.100321 0.935812 32.000000
9.192675 6.105287 0.947619 20.000000
9.267452 6.071391 0.951383 33.250000
9.478621 6.082830 0.967126 25.000000
7.384789 6.172387 0.995292 44.000000
8.847069 6.201690 0.927770 49.000000
12.429610 6.167408 0.948863 1.000000
8.579529 6.279093 0.912969 40.750000
8.681195 6.228879 0.917503 44.500000
8.868130 6.279028 0.933074 40.000000
9.080823 6.301927 0.949159 27.000000
9.164608 6.254016 0.952752 47.000000
8.352101 6.378737 0.902445 47.000000
8.572285 6.377955 0.917503 38.000000
-9.457012 6.553223 0.988001 3.500000
8.820160 6.605528 0.946250 35.000000
5.776317 6.647269 0.910671 29.666666
5.915105 6.650645 0.920409 2.000000
11.835934 6.682820 0.929487 4.000000
5.591105 6.741854 0.905734 35.666668
5.919146 6.718788 0.925964 48.000000
6.654203 6.893096 0.990767 7.666667
5.477160 6.975277 0.917117 36.500000
5.583876 6.930066 0.920340 38.166668
5.502870 7.076387 0.926992 42.000000
5.118377 7.215663 0.914854 34.000000
5.355424 7.208456 0.928638 36.000000
5.556022 7.191245 0.939747 37.000000
11.820021 7.121855 0.943678 16.000000
5.035123 7.315269 0.918352 34.000000
5.119875 7.290264 0.921232 38.500000
5.279896 7.224450 0.925346 46.500000
5.368845 7.322180 0.938924 34.000000
5.671494 7.388566 0.963200 26.000000
7.538565 7.356551 0.904499 41.000000
4.847702 7.513480 0.924661 33.666668
5.083897 7.477944 0.935084 26.000000
5.413750 7.432276 0.950856 38.000000
5.592418 7.461848 0.964297 35.333332
5.690769 7.486479 0.972457 20.500000
4.967962 7.542720 0.933987 36.500000
7.311681 7.526648 0.901076 42.000000
7.583789 7.517957 0.916990 20.000000
7.622066 7.555840 0.921610 60.000000
8.352737 7.557872 0.967297 21.000000
5.076302 7.634170 0.948058 34.000000
7.362992 7.627394 0.910365 38.000000
8.049483 7.636005 0.952752 59.000000
4.946211 7.816309 0.956534 33.000000
7.250150 7.815819 0.915450 38.000000
7.332398 7.779263 0.917982 42.799999
7.604774 7.730573 0.931192 54.000000
8.276428 7.802040 0.976708 32.000000
4.896729 7.857749 0.957439 5.000000
7.241238 7.913440 0.921096 10.500000
4.719923 8.016038 0.961965 19.000000
7.009069 7.955869 0.910487 4.500000
8.328547 7.975708 0.990226 14.500000
4.744870 8.043964 0.965771 6.750000
6.953938 8.096125 0.916476 25.000000
7.094712 8.052895 0.921610 5.000000
7.940239 8.021028 0.969179 13.000000
8.321002 8.043922 0.993819 16.000000
7.044768 8.175856 0.926743 12.000000
8.097593 8.128745 0.985263 35.000000
6.897812 8.237919 0.922636 15.000000
10.773072 8.281417 0.929214 0.000000
10.330451 8.416307 0.911203 0.000000
10.897353 8.322618 0.937674 18.000000
11.021999 8.363121 0.946134 1.000000
6.828517 8.483867 0.935185 33.000000
7.017884 8.516402 0.947619 6.000000
6.828647 8.896050 0.963019 4.000000
6.624935 9.216178 0.974654 32.000000
6.732593 9.428301 0.994846 13.000000
9.661624 9.458059 0.924575 4.000000
5.809790 10.083161 0.999295 23.000000
7.972096 10.801243 0.918025 4.000000
7.775247 10.997581 0.921027 2.500000
7.810273 11.158370 0.931397 0.000000
6.676587 11.503830 0.909566 31.000000
6.772496 11.419799 0.907928 2.000000
6.734848 11.520695 0.912567 4.000000
6.801323 11.890147 0.936719 10.000000
7.631937 12.246921 0.986795 0.000000
6.743642 12.322618 0.960597 32.000000
6.492121 12.476395 0.961780 30.333334
6.596446 12.484828 0.965600 22.000000
6.788707 12.498040 0.972605 19.000000
7.041010 12.490683 0.980519 4.000000
6.502297 12.528143 0.965237 31.000000
6.776026 12.615992 0.979291 18.000000
6.909490 12.532023 0.978609 28.000000
6.385609 12.690853 0.971513 7.000000
6.471590 12.712171 0.975470 40.500000
7.061216 12.712596 0.994437 14.000000
-12.551141 12.897610 0.917025 40.000000
