# This PCD file was generated using the MATLAB® pcwrite function
# from Computer Vision Toolbox®.
# .PCD v.7 - Point Cloud Data file format
VERSION .7
FIELDS x y z intensity
SIZE 4 4 4 4
TYPE F F F F
COUNT 1 1 1 1
WIDTH 1230
HEIGHT 1
VIEWPOINT 0 0 0 1 0 0 0
POINTS 1230
DATA ascii
4.435829 14.518003 1.038100 5.000000
4.482525 14.837479 1.059932 0.000000
10.243661 17.156656 1.018192 3.000000
9.505386 17.376341 1.009236 7.000000
9.596566 17.412868 1.013103 8.000000
9.880044 17.794762 1.037123 8.000000
6.436524 18.735504 1.009439 7.000000
6.575261 18.755011 1.012696 3.000000
6.338717 19.032795 1.022196 6.000000
-12.290161 27.295864 1.005081 40.000000
-12.230418 27.392748 1.007228 105.000000
-12.665833 27.436527 1.014611 1.000000
-12.562940 27.439829 1.013269 4.000000
-12.450222 27.420925 1.011121 4.000000
-12.218751 27.599188 1.013403 19.000000
-12.193053 27.776539 1.018503 18.000000
-12.167942 27.957670 1.023738 17.000000
-12.140243 28.135239 1.028839 15.000000
-12.114677 28.320267 1.034208 15.000000
-12.084961 28.498041 1.039308 15.000000
-12.060444 28.690649 1.044946 14.000000
-12.045585 28.909224 1.051523 7.000000
-12.018802 29.102112 1.057160 7.000000
-11.995469 29.306213 1.063200 6.000000
-11.961941 29.488237 1.068435 6.000000
-11.925910 29.666618 1.073536 7.000000
5.790587 29.679352 1.015282 19.000000
5.895467 29.719833 1.017295 33.000000
-11.872588 29.804220 1.077160 9.000000
5.723681 29.834812 1.019980 5.000000
5.264031 29.976158 1.021859 2.000000
5.645482 29.935143 1.022799 1.000000
-11.859630 30.045889 1.084542 2.000000
5.587109 30.145342 1.029376 11.000000
-11.832164 30.254261 1.090717 2.000000
5.527470 30.355467 1.035953 5.000000
-11.800605 30.455307 1.096623 2.000000
-5.399135 -34.557060 1.174339 16.000000
-5.599461 -34.419865 1.170849 8.000000
-6.050732 -33.831814 1.153937 8.000000
-5.935434 -33.799469 1.152192 26.000000
-5.840764 -33.884922 1.154474 20.000000
9.615289 -33.821922 1.180581 7.000000
9.790689 -33.831963 1.182527 1.000000
10.031448 -33.865608 1.185883 5.000000
11.751018 -33.744331 1.199708 37.000000
-6.212917 -33.521900 1.144675 4.000000
11.787990 -33.511143 1.192728 11.000000
10.223657 -33.356754 1.171386 8.000000
-5.694082 -33.033958 1.125481 9.000000
-6.126313 -32.484737 1.109911 9.000000
-5.909908 -32.455727 1.107629 9.000000
-5.800876 -32.434780 1.106287 9.000000
-6.623768 -32.325756 1.107898 4.000000
8.274691 -32.157707 1.114877 4.000000
8.421033 -32.099072 1.114206 2.000000
13.161824 -30.502787 1.115414 14.000000
13.256394 -30.371639 1.112640 33.666668
14.844626 -29.438408 1.106958 29.000000
14.909865 -29.338171 1.104945 52.000000
15.011073 -29.308977 1.105616 45.000000
-5.180108 -22.726887 1.187755 11.000000
-5.986745 -22.203178 1.171776 16.000000
-8.416340 -21.994129 1.199969 9.000000
-8.975146 -21.758177 1.199317 36.200001
-8.399030 -21.743992 1.187755 40.000000
-9.087090 -21.617268 1.194880 19.333334
-8.458593 -21.695164 1.186534 56.000000
-9.264696 -21.533077 1.194473 10.000000
-8.646672 -21.379772 1.175135 13.000000
-8.364334 -21.255861 1.163939 43.000000
-5.923988 -21.217241 1.122481 8.333333
-5.834687 -21.240616 1.122414 2.000000
8.751107 -19.935579 1.109386 21.000000
8.433748 -14.613567 1.153808 2.000000
8.090636 -14.541975 1.137980 25.000000
8.451538 -14.538698 1.149988 12.000000
8.572101 -14.328609 1.141801 6.000000
-17.978678 -14.006104 1.161293 4.000000
8.204788 -14.012730 1.110418 11.000000
8.483715 -14.013830 1.120242 8.666667
-18.106171 -13.968746 1.165262 17.500000
8.311014 -13.991779 1.112874 8.000000
8.571570 -13.927434 1.118332 4.666667
-17.068850 -13.822080 1.119157 3.000000
-18.354576 -13.750968 1.168621 6.000000
-18.423943 -13.667904 1.168926 30.000000
-17.307041 -13.658477 1.123431 7.000000
-17.148310 -13.620846 1.115900 31.000000
-17.629978 -13.513258 1.131879 35.000000
-17.283852 -13.552269 1.119157 22.000000
-18.864500 -12.965209 1.166382 1.000000
-19.004028 -12.798985 1.167501 7.000000
19.270592 -12.471537 1.169639 50.000000
19.248466 -12.328848 1.164753 50.000000
-18.842857 -12.264767 1.145619 1.000000
19.230383 -12.189910 1.160173 49.500000
19.201588 -12.003193 1.153863 50.500000
-18.054300 -11.995246 1.104501 7.000000
19.079624 -11.802222 1.143176 7.000000
19.070297 -11.103668 1.124449 28.500000
-11.934784 -11.040130 1.111782 4.000000
19.060139 -10.977777 1.120785 29.000000
19.035143 -10.831093 1.115968 49.000000
-12.442383 -10.668183 1.120788 1.000000
19.012665 -10.686901 1.111354 52.666668
18.986753 -10.489941 1.105315 50.333332
18.974489 -10.379622 1.102058 32.000000
-9.759864 -9.797411 1.187518 0.000000
-10.495872 -9.114279 1.193678 3.000000
-10.485812 -9.019236 1.187689 24.500000
-9.649345 -8.897955 1.127115 15.500000
-10.368953 -8.834034 1.169722 2.000000
-9.648094 -8.757522 1.118902 42.333336
-10.867734 -8.629112 1.191625 2.000000
-10.595011 -8.659525 1.175027 24.000000
-9.856140 -8.695465 1.128655 10.500000
15.021282 -8.561037 1.182326 16.000000
15.163516 -8.516293 1.189285 6.000000
-11.087064 -8.385105 1.193678 1.000000
14.245834 -8.327929 1.128429 10.000000
-7.319184 -8.229318 1.138888 2.000000
-10.388512 -8.142705 1.133446 8.000000
-7.015425 -8.115906 1.109366 8.000000
-7.633788 -8.024590 1.145334 12.000000
-7.073848 -8.029348 1.106589 7.500000
-7.421949 -7.909084 1.121607 26.000000
-7.347444 -7.953970 1.119756 4.250000
15.315718 -7.949089 1.180007 9.000000
-8.164293 -7.892431 1.174272 7.000000
15.286061 -7.691430 1.170182 16.000000
15.585969 -7.598418 1.185737 34.000000
14.730394 -7.586653 1.133068 9.000000
15.158858 -7.508443 1.156810 15.000000
-11.821342 -7.404101 1.197785 26.500000
-7.715832 -7.365684 1.103092 5.000000
14.678177 -7.327866 1.121879 22.000000
15.530769 -7.391169 1.176186 8.000000
-11.772026 -7.236548 1.186605 58.500000
15.060101 -7.283579 1.143984 12.000000
-11.844372 -7.111187 1.186320 52.500000
15.167771 -7.160059 1.146986 18.000000
-11.952269 -7.074177 1.192651 37.500000
15.089279 -7.026610 1.138253 34.000000
15.173042 -6.959515 1.141528 22.000000
-8.930292 -6.864845 1.164809 2.000000
-12.245378 -6.737549 1.200180 7.000000
-8.847465 -6.757063 1.151231 1.000000
-6.957744 -6.726058 1.171938 1.000000
14.963636 -6.750030 1.122562 26.000000
-8.873860 -6.689364 1.149174 9.000000
14.974718 -6.642184 1.120242 13.500000
16.048346 -6.670425 1.188466 120.000000
14.866978 -6.510678 1.109872 2.000000
15.929008 -6.562211 1.178096 105.000000
-8.675671 -6.476150 1.119550 31.500000
14.762901 -6.409903 1.100593 32.000000
15.026780 -6.412566 1.117240 19.000000
15.328070 -6.427592 1.136616 3.000000
-8.667863 -6.323076 1.109510 59.400002
-7.255900 -6.300791 1.163763 1.000000
-7.182325 -6.316543 1.158313 3.666667
15.024800 -6.355997 1.115603 9.000000
-8.804591 -6.221457 1.114859 33.799999
-8.734943 -6.246693 1.110498 60.000000
-7.230562 -6.239051 1.156550 7.000000
-12.131279 -6.138557 1.167498 7.500000
15.339422 -6.150882 1.130157 10.333333
15.999440 -6.125597 1.171547 1.000000
15.205776 -5.986648 1.117513 17.000000
15.891896 -5.913301 1.159539 6.000000
-9.321506 -5.556794 1.122224 6.500000
-9.579389 -5.369111 1.135596 22.000000
-10.142683 -5.293571 1.183118 5.000000
-8.554032 -4.210961 1.154626 73.000000
-8.487403 -4.211336 1.147413 70.000000
-8.314541 -4.223606 1.129379 21.500000
-8.269291 -4.168066 1.121445 17.000000
-8.256788 -4.032455 1.112789 39.000000
-8.954866 -3.962644 1.185884 15.000000
-8.343675 -3.961833 1.118559 31.000000
-8.247076 -3.979692 1.108941 40.500000
-8.927278 -3.817017 1.175786 21.000000
-8.870347 -3.858778 1.171458 15.000000
-8.473525 -3.813489 1.125292 25.000000
-8.779337 -3.753826 1.156309 43.500000
-8.344039 -3.723733 1.106537 31.000000
-9.086133 -3.626925 1.184785 25.285715
-8.986876 -3.610825 1.172900 20.666666
-8.570344 -3.600879 1.125773 40.000000
-8.633069 -3.579436 1.131784 30.000000
-9.212827 -3.468382 1.192136 53.000000
-9.219847 -3.322946 1.186846 32.000000
-8.928983 -3.297618 1.152703 65.000000
-8.872170 -3.244996 1.144047 16.000000
-10.464278 -3.169317 1.130659 16.000000
-9.122450 -3.153509 1.168893 24.333334
-10.792043 -3.011160 1.158637 23.000000
-10.618873 -3.016901 1.141562 2.000000
-10.462114 -3.079167 1.127779 20.500000
-10.325532 -3.091917 1.114612 39.000000
-9.059690 -3.026111 1.156742 52.000000
-10.911644 -2.989115 1.169952 13.000000
-9.106611 -2.921300 1.158185 49.400002
-10.723884 -2.883487 1.148351 21.000000
-8.973064 -2.518841 1.128658 11.500000
-12.663533 -2.482194 1.108122 0.000000
-9.000223 -2.450342 1.129620 19.333334
-12.616229 -2.390705 1.102646 1.000000
-10.492263 -2.159418 1.107755 14.666667
6.223261 -2.162298 1.151012 16.000000
6.330684 -2.132953 1.167120 20.400000
-8.084719 -2.023232 1.157186 17.000000
-10.603218 -1.957422 1.115024 6.500000
-8.145302 -1.916463 1.161862 15.000000
6.597127 -1.919100 1.200347 11.666667
6.758948 -1.904947 1.100662 78.000000
6.810582 -1.896424 1.108095 85.000000
7.126263 -1.864223 1.154549 83.000000
7.214378 -1.855005 1.167557 26.333334
-9.738789 -1.766337 1.198628 13.500000
-8.423587 -1.759779 1.194869 1.000000
-8.194658 -1.792622 1.164750 36.000000
-8.361298 -1.678389 1.184142 10.500000
-8.326795 -1.576376 1.176715 3.000000
-9.370254 -1.291895 1.145489 16.000000
-9.254026 -1.201996 1.130101 57.250000
-9.263482 -1.084929 1.129500 55.250000
-9.786735 -0.944079 1.190693 47.000000
-9.116404 -0.980668 1.110384 10.500000
-9.539356 -0.859755 1.159916 32.000000
-9.394271 -0.876442 1.142604 29.000000
-9.098120 -0.503877 1.103491 37.000000
-9.865400 -0.453023 1.195983 25.000000
-9.385460 -0.431116 1.137795 24.000000
-9.207572 -0.307054 1.115674 32.000000
-8.219016 -0.315826 1.142057 40.666668
-9.101323 -0.274891 1.102690 16.000000
-8.446922 0.184310 1.173139 34.500000
-8.109007 0.138711 1.126104 62.000000
9.160479 0.103927 1.109422 2.000000
-8.502621 0.252331 1.181116 39.333332
10.897875 0.294888 1.127367 30.000000
10.958412 0.262076 1.133539 49.000000
11.086476 0.230293 1.146705 5.000000
-9.364433 0.364656 1.134910 43.000000
-8.491013 0.385525 1.180199 39.666668
11.191192 0.338012 1.157814 25.000000
11.269606 0.375820 1.166043 0.000000
-9.271965 0.448662 1.124170 39.000000
-8.249038 0.439527 1.147009 40.000000
17.365072 0.469885 1.187921 1.000000
-9.219085 0.533103 1.118319 38.500000
-9.158676 0.577752 1.111346 40.666668
13.006370 0.597441 1.118046 30.000000
13.104311 0.546900 1.126260 36.000000
17.336462 0.578122 1.186192 4.666667
13.298988 0.652755 1.143371 10.000000
-9.372053 0.749106 1.138596 42.666668
17.326258 0.741303 1.185919 6.333333
-9.442998 0.844509 1.148134 36.000000
17.305321 0.876662 1.184919 2.000000
-9.546776 0.929387 1.161599 39.500000
-9.465273 0.966456 1.152222 55.000000
-9.384316 1.032669 1.143325 56.500000
17.279276 1.011430 1.183645 17.666666
-9.374526 1.151113 1.143806 59.500000
17.231085 1.182538 1.181098 145.399994
-9.445981 1.250330 1.153905 50.000000
17.203854 1.387211 1.180279 150.000000
17.214157 1.306425 1.180552 139.000000
17.194742 1.495269 1.180279 255.000000
17.174557 1.629528 1.179734 255.000000
17.154577 1.763676 1.179279 255.000000
-11.413945 1.895708 1.196491 41.000000
-9.265135 1.854717 1.144287 30.000000
-9.331604 1.974982 1.155107 7.000000
-7.967265 1.957709 1.139169 16.000000
17.133230 1.924819 1.179006 255.000000
-13.119606 2.052132 1.140291 3.000000
-11.245760 2.049786 1.182090 4.000000
-7.937582 2.049634 1.101622 15.750000
17.107985 2.074531 1.178478 255.000000
-8.088122 2.129457 1.161312 7.000000
-13.136007 2.224147 1.144055 20.000000
-9.078489 2.548246 1.141917 32.857143
-9.237165 2.664422 1.164244 48.000000
-10.497391 2.744148 1.122018 20.000000
-10.455517 2.785813 1.118933 10.000000
-7.546193 2.742119 1.114826 39.500000
-7.519986 2.813118 1.114826 19.500000
17.057362 2.872755 1.182872 145.000000
-10.330057 2.926998 1.110292 12.500000
16.976776 2.985542 1.178751 122.800003
-10.233290 3.004069 1.102886 37.000000
-6.698421 3.035720 1.152691 21.000000
-6.681042 3.044699 1.106877 170.333328
-15.879227 3.126974 1.106734 6.000000
-10.292231 3.133098 1.112555 32.000000
-6.662749 3.136463 1.180689 204.000000
16.696220 3.136666 1.161722 127.500000
-10.322289 3.224918 1.118315 61.000000
16.669729 3.267449 1.161631 255.000000
-9.313354 3.332828 1.197907 9.000000
-10.965112 3.501522 1.190319 15.000000
-10.439114 3.442278 1.136693 11.666667
-8.856749 3.486978 1.152703 62.000000
-6.675574 3.426500 1.176125 255.000000
16.647310 3.426304 1.162268 255.000000
-10.403840 3.576238 1.137653 9.000000
-6.682198 3.577058 1.187997 255.000000
16.628586 3.586123 1.163269 255.000000
-10.356819 3.614696 1.134362 10.000000
-8.704689 3.650178 1.143085 10.000000
-8.667578 3.666679 1.139719 0.000000
-6.684342 3.728252 1.199662 255.000000
16.651867 3.728237 1.166907 255.000000
16.630684 3.849912 1.167344 159.399994
-8.584195 3.953737 1.144528 36.000000
16.613045 3.966979 1.167999 1.000000
-8.831355 4.033991 1.175786 44.000000
-8.656204 4.053118 1.157512 30.500000
-8.423534 4.025028 1.130582 24.500000
-8.778560 4.110308 1.173862 33.000000
-6.705434 4.328137 1.108170 255.000000
-6.710437 4.482199 1.120493 255.000000
-13.133081 4.699735 1.197785 18.000000
-6.707442 4.608181 1.129955 170.833328
-6.738811 5.065389 1.170564 197.272720
-12.686898 5.195562 1.177251 26.333334
-6.725191 5.231820 1.183097 255.000000
-12.700717 5.349307 1.183411 20.500000
-7.559807 5.344742 1.121204 45.000000
-6.731485 5.391110 1.197482 255.000000
-12.663073 5.498180 1.185465 1.000000
-7.739458 5.417213 1.144047 27.000000
-7.642817 5.457606 1.137314 34.000000
-7.462650 5.435877 1.118078 30.000000
-7.375084 5.407635 1.107499 34.000000
-7.960744 5.516354 1.172900 25.500000
-7.703017 5.537219 1.148856 11.000000
-12.693072 5.673016 1.193883 12.000000
-12.636177 5.628631 1.187860 14.000000
-7.772445 5.624244 1.161840 2.000000
-6.746271 6.134463 1.104253 255.000000
16.286676 6.189981 1.191468 231.000000
-6.744882 6.289849 1.116876 255.000000
16.274059 6.273121 1.192696 255.000000
-6.745786 6.430744 1.128658 255.000000
16.232311 6.403870 1.193287 255.000000
-6.748545 6.576615 1.141161 255.000000
16.190937 6.564625 1.194743 255.000000
-6.754696 6.700696 1.152222 176.666672
16.168871 6.733803 1.197745 255.000000
16.148355 6.844593 1.199382 255.000000
14.873734 9.089659 1.192014 14.000000
14.756553 9.274776 1.191878 30.000000
14.897738 9.233389 1.198563 19.000000
13.433867 9.354177 1.119423 30.000000
13.541956 9.366408 1.125973 41.000000
14.713227 9.376968 1.193106 34.000000
-9.407623 9.490082 1.147478 21.000000
14.301171 9.498078 1.174003 45.000000
14.427851 9.439231 1.179024 36.000000
14.640614 9.460567 1.192014 20.000000
-9.422514 9.565014 1.152953 55.000000
-9.002144 9.549502 1.126944 4.000000
13.942996 9.579174 1.156810 33.000000
14.314386 9.571797 1.177550 20.000000
-9.459326 9.662922 1.161167 33.000000
-9.199561 9.636887 1.144055 2.000000
13.659986 9.736469 1.147122 34.500000
13.827068 9.724931 1.155992 40.000000
14.309714 9.732141 1.183418 25.000000
14.515972 9.772726 1.196653 7.000000
-9.559533 9.826851 1.177251 12.000000
12.930168 9.875278 1.112601 30.000000
13.305251 9.834592 1.131431 32.000000
13.444836 9.840101 1.139345 34.000000
-9.427063 9.937529 1.176224 3.000000
13.031788 9.952747 1.121334 27.000000
13.370564 9.969746 1.140527 29.000000
12.842877 10.066482 1.115876 32.000000
12.929021 10.046882 1.119696 26.666666
13.291640 10.019607 1.138253 40.000000
-9.403983 10.134033 1.187176 7.000000
-9.270419 10.180962 1.182384 34.166668
12.596325 10.196663 1.108235 25.000000
12.920845 10.193290 1.125427 44.000000
12.561135 10.233665 1.107962 5.000000
12.787961 10.219463 1.119423 12.000000
12.913762 10.253684 1.127610 34.000000
14.201840 10.223863 1.196653 44.000000
-7.465181 10.649519 1.116792 13.000000
12.962762 10.662816 1.147805 3.500000
12.753095 10.727695 1.139618 3.000000
12.881655 10.766914 1.148078 0.000000
12.946115 10.751889 1.150807 6.000000
19.145212 11.133836 1.128520 9.000000
11.729581 11.244431 1.111145 34.000000
12.855133 11.234017 1.167453 2.000000
12.852739 11.303337 1.170455 1.000000
11.232521 11.526489 1.100594 61.500000
11.217956 11.657252 1.106324 47.000000
19.262205 11.610536 1.146026 1.000000
12.669190 11.756484 1.181917 3.500000
10.626937 12.451382 1.119423 18.500000
10.663500 12.614082 1.129521 0.000000
10.372400 13.870119 1.184373 27.000000
10.418323 13.840652 1.184646 22.000000
7.238226 14.385567 1.101249 34.599998
7.327857 14.338396 1.101139 43.000000
7.148873 14.432922 1.101412 47.000000
7.131655 14.512614 1.105779 39.000000
7.083767 14.646953 1.112601 45.000000
7.162974 14.692780 1.117786 32.000000
7.891356 14.637472 1.137162 91.000000
7.719744 14.760233 1.139072 21.000000
6.908540 14.851927 1.120133 41.799999
7.053845 14.822065 1.122516 35.666668
7.821894 14.841821 1.147259 50.000000
8.082451 14.824368 1.154627 20.500000
7.741355 14.915468 1.149169 15.000000
9.088313 15.000680 1.199382 7.000000
6.688399 15.015337 1.124063 40.000000
6.755161 15.037933 1.127337 40.000000
6.872726 15.046013 1.131158 31.000000
6.625486 15.103310 1.127829 36.400002
6.841891 15.103881 1.133887 27.000000
8.537323 15.256977 1.195562 12.000000
7.825959 15.553425 1.190650 20.000000
6.484571 16.171642 1.191468 11.000000
-11.122244 19.690571 1.152336 44.000000
-11.036888 19.683599 1.149894 45.000000
-10.905272 19.665482 1.145823 44.500000
-11.798952 19.784992 1.173812 43.500000
-11.659894 19.763004 1.169232 41.000000
-11.524366 19.745232 1.164957 41.500000
-11.345298 19.722027 1.159359 43.500000
-11.211713 19.704136 1.155186 45.000000
-10.847047 19.779737 1.149487 42.000000
-12.554627 19.897793 1.198849 45.000000
-12.408862 19.873762 1.193862 43.000000
-12.314793 19.861717 1.190809 42.000000
-12.216724 19.842482 1.187348 42.000000
-12.125159 19.833046 1.184499 43.000000
-11.982990 19.809593 1.179715 42.000000
-10.823046 19.883894 1.153558 41.000000
-10.797314 20.061317 1.160886 38.500000
6.483237 21.073988 1.123499 27.666666
6.761721 21.073011 1.127706 6.000000
6.682818 21.169422 1.131167 23.000000
6.802016 21.785181 1.162921 4.000000
5.844833 21.813215 1.150708 30.000000
6.049514 21.887890 1.157120 43.000000
6.334610 21.846607 1.159054 52.000000
5.746030 21.996382 1.158443 38.000000
6.562004 21.983774 1.169028 47.000000
5.824301 22.012980 1.160275 35.000000
6.197488 22.018761 1.165568 42.000000
6.277576 22.037603 1.167603 48.000000
5.701836 22.111032 1.163532 20.000000
6.040951 22.265108 1.175542 38.000000
6.557352 22.222675 1.180631 43.000000
5.728910 22.508234 1.183481 12.000000
6.073333 22.665987 1.195694 4.000000
-11.779372 30.686302 1.103602 2.000000
-11.745422 30.887573 1.109508 2.000000
-11.708930 31.085190 1.115280 1.000000
-11.683887 31.316586 1.122260 1.000000
-11.643634 31.510635 1.127897 15.000000
-11.605040 31.712248 1.133803 4.000000
-11.574811 31.940239 1.140649 1.000000
-11.531127 32.134480 1.146286 22.000000
-11.509089 32.392799 1.154205 10.000000
-11.472262 32.613594 1.160782 10.000000
-11.440747 32.853340 1.168031 9.000000
-11.402613 33.078098 1.174742 7.000000
-11.368358 33.318066 1.181990 8.000000
-11.331429 33.554359 1.189104 7.000000
-11.291842 33.786957 1.196084 7.000000
-5.514476 -37.616524 1.276485 9.000000
-5.160798 -37.674747 1.276753 11.000000
-5.709601 -37.312412 1.267357 6.000000
-5.064765 -36.973694 1.252995 7.000000
-5.138164 -36.652752 1.242660 13.000000
-5.246479 -36.588940 1.241049 18.000000
-6.752759 -36.434631 1.244136 12.000000
13.163697 -35.624306 1.275143 16.000000
12.932188 -35.338867 1.263465 7.000000
12.508885 -35.206783 1.254472 23.000000
12.345154 -35.095058 1.249103 14.000000
12.578923 -35.054428 1.250445 15.000000
12.984885 -34.803699 1.247224 1.000000
12.838070 -34.743076 1.243600 12.000000
12.492845 -34.473507 1.231117 18.000000
12.605207 -34.445351 1.231519 10.000000
16.554834 -34.429150 1.282659 8.000000
16.678610 -34.409348 1.283867 20.000000
11.588520 -34.315666 1.216083 13.000000
17.041267 -34.329411 1.286820 3.000000
11.206150 -34.244785 1.209775 36.000000
11.323722 -34.239777 1.210849 30.000000
17.145456 -34.268555 1.286552 31.000000
10.711585 -34.180714 1.202661 16.000000
10.834613 -34.196438 1.204406 45.000000
10.932237 -34.131771 1.203332 29.000000
11.061578 -34.165718 1.205748 17.000000
11.427433 -34.192657 1.210446 26.000000
11.645922 -34.131531 1.210849 27.000000
11.685336 -33.898247 1.203869 43.000000
-6.371171 -24.706642 1.300119 12.000000
-7.046077 -24.443716 1.296251 10.000000
-7.489046 -24.253132 1.293402 38.000000
-3.085544 -24.220573 1.244141 1.000000
-8.047057 -24.162180 1.297676 47.000000
-7.524722 -24.099833 1.286481 40.000000
-7.382487 -24.177200 1.288109 6.000000
-2.966519 -24.195164 1.242105 71.000000
-2.809372 -24.169674 1.239866 82.000000
-2.652650 -24.143169 1.237627 81.000000
-2.496787 -24.119625 1.235591 81.000000
-2.379952 -24.099350 1.233963 82.000000
-0.782638 -24.100012 1.228670 6.000000
-7.929846 -24.062136 1.290959 38.000000
-2.302709 -24.090801 1.233149 85.000000
-2.186821 -24.075493 1.231826 86.500000
-2.031973 -24.046963 1.229688 88.000000
-1.879127 -24.037352 1.228569 85.000000
-1.763338 -24.012104 1.226838 86.000000
-1.649081 -24.004175 1.226024 84.500000
-1.496607 -23.988148 1.224701 85.000000
-1.344397 -23.971151 1.223378 87.000000
-1.192472 -23.953192 1.222055 86.000000
-1.041334 -23.946243 1.221342 80.000000
-0.928162 -23.942930 1.220935 72.000000
-0.853370 -23.957705 1.221546 48.000000
-8.966056 -23.879116 1.299712 24.000000
-8.782708 -23.845011 1.294827 4.000000
-8.950302 -23.389515 1.276099 10.000000
-9.398556 -23.238882 1.277321 1.000000
-10.053167 -23.065693 1.282104 3.500000
-9.150616 -23.041296 1.263275 26.000000
-8.562371 -23.023518 1.251672 15.000000
-8.130756 -23.075684 1.246685 19.500000
-5.510654 -23.006512 1.205465 17.000000
-5.400343 -23.024477 1.205058 11.000000
-7.895416 -22.982067 1.238238 6.000000
9.970179 -22.907972 1.273046 35.000000
-5.598122 -22.894949 1.200987 4.000000
9.874419 -22.884161 1.269992 8.000000
-10.811029 -22.727013 1.282409 12.000000
10.063063 -22.794531 1.269653 44.666668
10.200308 -22.781603 1.271892 52.000000
-10.877194 -22.682129 1.281799 2.000000
-6.826169 -22.609358 1.203429 5.000000
-8.291175 -22.510502 1.222360 23.000000
-8.225890 -22.551449 1.223174 30.000000
-8.102409 -22.505524 1.218832 25.333334
-7.043711 -22.559273 1.204244 1.000000
11.894958 -22.522770 1.297880 58.333332
-9.004497 -22.467344 1.233352 10.000000
-7.139681 -22.493431 1.202513 7.000000
12.053309 -22.479326 1.299712 47.000000
-8.378800 -22.209213 1.209536 7.500000
-9.258132 -21.705381 1.202412 10.000000
-9.681959 -21.563469 1.204447 9.000000
19.798225 -16.101059 1.300323 45.000000
19.772705 -15.926173 1.293707 45.500000
19.739859 -15.746845 1.286684 45.000000
19.732878 -15.640087 1.283020 46.000000
19.705748 -15.468019 1.276506 24.000000
19.671246 -15.291599 1.269585 14.000000
19.665438 -15.188217 1.266125 43.000000
19.643124 -15.023810 1.260120 41.500000
19.619822 -14.859896 1.254115 27.000000
19.628105 -14.769361 1.251672 18.000000
19.441242 -13.663584 1.210825 38.333332
19.426180 -13.501547 1.205465 19.000000
-9.376711 -11.826224 1.296003 5.000000
-9.412390 -11.757010 1.293265 3.000000
7.829185 -11.589924 1.201036 15.000000
-9.829662 -11.228336 1.281458 0.500000
-9.864102 -11.090721 1.274557 7.000000
15.226447 -10.945342 1.282343 5.000000
-10.176585 -10.742644 1.270678 13.000000
-9.605409 -10.398354 1.215580 1.000000
-9.844550 -10.326965 1.225163 5.000000
-9.584291 -10.245615 1.204743 4.333333
-10.889380 -10.136762 1.277523 4.000000
-9.823437 -10.176020 1.214554 1.000000
-9.807111 -9.969343 1.200865 2.000000
-11.298441 -9.873635 1.288474 41.000000
-11.266212 -9.783217 1.281287 25.000000
-10.575221 -9.241618 1.205998 1.000000
-16.595577 -9.131064 1.295305 25.500000
-16.622807 -9.010435 1.292986 26.000000
-8.613503 -8.922659 1.282483 2.000000
-8.489025 -8.849181 1.268082 10.000000
-8.962444 -8.528845 1.279397 7.500000
-9.074822 -8.394556 1.278369 40.000000
-8.977492 -8.374597 1.269591 32.666668
-6.872351 -8.103572 1.286752 5.000000
-6.746612 -8.161016 1.282304 6.500000
-6.970160 -8.089267 1.293124 7.000000
-6.689567 -8.014834 1.264270 11.000000
-6.565934 -8.019149 1.255133 3.000000
-6.422163 -8.021789 1.244433 3.750000
-9.448505 -7.897375 1.273431 22.000000
-9.180810 -7.972321 1.257385 3.000000
-6.996444 -7.996956 1.286776 2.800000
-12.296654 -7.864049 1.253396 6.500000
-9.344485 -7.860425 1.262734 17.000000
-7.051211 -7.878007 1.280380 8.250000
-8.991932 -7.758888 1.228172 4.000000
-7.400674 -7.763331 1.298894 8.000000
-7.362594 -7.772129 1.296490 5.000000
-7.259208 -7.711369 1.282544 15.000000
-7.152492 -7.742907 1.276533 7.750000
-9.337911 -7.656610 1.248744 21.000000
-9.456045 -7.532570 1.250185 2.500000
-12.085218 -7.076186 1.202576 7.000000
16.599792 -6.777630 1.226126 82.000000
16.717184 -6.764365 1.233221 37.000000
-10.072453 -6.689586 1.250390 0.000000
-7.852990 -6.480413 1.233012 2.000000
16.462543 -6.421789 1.208388 17.000000
17.758160 -6.480998 1.292713 159.000000
17.827225 -6.442810 1.296261 136.000000
-8.656032 -6.314408 1.297548 61.200001
-8.730750 -6.243694 1.299856 56.000000
17.078680 -6.293885 1.244683 3.000000
17.535519 -6.275170 1.273610 2.000000
17.533176 -6.150339 1.270608 2.000000
18.002163 -6.124932 1.300354 97.000000
-10.226791 -5.816709 1.216651 3.000000
-8.480477 -5.885314 1.250084 6.500000
17.003954 -5.725767 1.226945 16.000000
17.331419 -5.715046 1.247958 7.000000
-10.394233 -5.613111 1.221589 1.000000
17.082434 -5.692504 1.231311 27.000000
-10.330562 -5.453599 1.208011 14.000000
-9.231831 -5.444474 1.297933 2.000000
17.160221 -5.479825 1.231857 3.000000
-8.836935 -5.352899 1.251206 3.083333
-9.059175 -5.228208 1.266675 1.000000
18.214470 -5.284908 1.296943 47.000000
-9.405254 -5.155626 1.298894 8.000000
-9.226295 -5.114202 1.277495 6.000000
18.191193 -5.108256 1.292099 50.500000
-11.217376 -4.963834 1.268494 0.000000
18.162420 -4.961882 1.287528 59.000000
18.145033 -4.834832 1.284117 58.500000
18.119049 -4.706172 1.280160 59.500000
18.106247 -4.611860 1.277704 59.000000
18.094841 -4.518283 1.275384 58.500000
18.069597 -4.361533 1.271154 59.666668
18.054499 -4.218042 1.267879 56.666668
-9.116363 -3.999904 1.205601 17.000000
-8.212649 -4.083859 1.273537 56.666668
18.032188 -4.083602 1.264332 54.000000
18.008955 -3.941778 1.260675 57.400002
-9.923175 -3.700255 1.282544 13.000000
17.974991 -3.774837 1.256008 44.500000
-9.595351 -3.646849 1.243111 37.000000
17.967072 -3.655445 1.253825 28.500000
18.263990 -3.626307 1.273337 13.000000
18.584711 -3.629335 1.294896 17.000000
-9.293413 -3.576631 1.205922 21.000000
-9.759291 -3.465533 1.254171 31.000000
-9.609041 -3.378225 1.233493 43.000000
-12.017298 -3.190820 1.285775 3.000000
-11.818919 -2.822206 1.256562 1.000000
-10.266076 -2.519688 1.280140 3.000000
-8.640031 -2.350685 1.243280 0.000000
-8.741768 -2.260775 1.253733 25.000000
-8.680230 -2.279790 1.246141 18.600000
-9.943952 -2.111836 1.231088 23.000000
-10.075570 -1.942072 1.242630 1.000000
6.372880 -1.953211 1.212880 102.800003
6.466403 -1.932945 1.219492 52.666668
6.820300 -1.922140 1.237980 3.333333
-10.173458 -1.894722 1.253209 39.000000
-9.874839 -1.871227 1.217142 41.000000
-8.069333 -1.871790 1.238629 20.799999
-7.941313 -1.772184 1.275331 30.333334
-8.486426 -1.689595 1.201471 15.000000
-8.082928 -1.657416 1.293293 30.666666
-10.045773 -1.557004 1.231088 26.333334
-8.121079 -1.581538 1.296803 19.333334
-10.148560 -1.496825 1.242309 16.333334
-9.289655 -1.130751 1.299393 56.000000
-9.273165 -1.187937 1.298109 62.000000
-10.056369 -1.001988 1.223875 3.000000
-9.233959 -0.881905 1.287978 27.750000
-8.969078 -0.764309 1.249882 47.250000
-8.788280 -0.665418 1.223751 56.000000
-9.223667 -0.538293 1.282889 24.000000
-9.082896 -0.501452 1.263085 34.000000
-8.712182 -0.590882 1.212473 43.333332
-10.122039 -0.401235 1.226760 15.000000
-8.911749 -0.435856 1.238879 39.000000
-8.813394 -0.467963 1.225493 39.333332
-10.166902 -0.371028 1.232050 2.000000
-9.277838 -0.307777 1.288941 5.000000
-8.854936 -0.377323 1.230627 40.000000
-10.666993 -0.255107 1.292162 1.000000
-9.357964 -0.281008 1.299943 15.000000
-9.247580 -0.172397 1.284264 31.000000
-9.211329 -0.073955 1.279038 0.000000
-7.777565 -0.032761 1.219090 33.000000
-7.758083 0.121063 1.216179 86.500000
-9.245268 0.332548 1.284539 34.000000
-8.780979 0.343471 1.220175 62.000000
-8.240205 0.400168 1.293087 32.333332
-9.942492 0.418451 1.205120 51.000000
-9.148066 0.573942 1.272712 30.000000
-8.757124 0.507998 1.217975 62.000000
-9.238373 0.710869 1.286557 29.666666
-9.145821 0.718183 1.273812 27.500000
-9.939429 0.888818 1.208486 21.000000
-12.027985 1.669015 1.255739 14.000000
-12.023938 1.726250 1.256150 21.000000
-12.366984 1.854880 1.293181 68.000000
-12.085793 1.851544 1.264379 33.000000
-11.896136 1.879920 1.245453 41.500000
-10.088882 1.871684 1.242630 17.000000
-11.796841 1.921235 1.235990 30.000000
-10.047654 1.929399 1.239023 37.250000
-12.008837 2.052747 1.259853 18.500000
-12.097019 2.126501 1.270140 38.000000
-12.117803 2.218474 1.273946 31.250000
-7.850245 2.230569 1.279158 23.642857
-12.050403 2.313999 1.268905 20.000000
-8.333537 2.367522 1.202938 49.333332
-7.943424 2.346917 1.298248 33.000000
-8.937800 2.448383 1.286740 25.333334
-9.758005 2.583644 1.222432 25.000000
-8.901699 2.518954 1.284539 31.000000
-8.293399 2.564064 1.205322 4.000000
-8.272822 2.529295 1.201196 4.000000
-7.801360 2.601219 1.288958 0.000000
-10.330832 2.700608 1.293124 62.000000
-9.891754 2.652338 1.240225 5.000000
-9.636629 2.812472 1.215700 51.000000
-9.942183 2.969564 1.256576 13.000000
-10.206630 3.013654 1.288796 61.000000
-9.473019 3.041449 1.204880 8.500000
-10.249930 3.131760 1.297933 47.000000
-9.688324 3.194729 1.235416 75.000000
-9.524655 3.107619 1.213295 36.000000
-9.641716 3.246669 1.232050 105.000000
-9.552523 3.250081 1.221951 96.000000
-6.677163 3.267138 1.209643 205.333328
-14.626760 3.352601 1.288588 27.166668
-13.591510 3.325819 1.201549 10.000000
-9.339483 3.342167 1.201273 8.500000
-14.567417 3.443567 1.285394 34.000000
-14.423196 3.481346 1.274101 39.000000
-13.736120 3.429948 1.215751 16.000000
-8.682717 3.451730 1.297376 7.333333
-13.845349 3.526566 1.226874 39.000000
-9.590804 3.568693 1.239264 0.000000
-9.453156 3.551323 1.222913 28.000000
-9.317438 3.584082 1.208967 39.250000
-14.409182 3.718420 1.277865 11.000000
-6.690628 3.884777 1.212648 255.000000
-9.454971 4.052456 1.245756 22.500000
-9.245550 4.066170 1.223154 30.500000
-6.695818 4.029742 1.224912 255.000000
-9.819597 4.154023 1.291200 5.000000
-9.503184 4.126188 1.254652 10.000000
-9.300641 4.142858 1.233012 20.000000
-6.702796 4.178727 1.238043 255.000000
-13.555498 4.281839 1.220714 2.000000
-10.817782 4.259054 1.202251 11.000000
-6.706041 4.328522 1.251051 255.000000
-6.709524 4.481601 1.264677 255.000000
-6.704221 4.605978 1.274918 170.166672
-13.369413 4.736983 1.217976 6.000000
-13.151886 4.799995 1.202234 18.333334
-11.558331 4.825497 1.295238 4.000000
-13.218258 4.950013 1.212044 11.000000
-13.208293 5.025311 1.213527 26.000000
-13.437962 5.242025 1.238623 10.000000
-13.555775 5.460383 1.254936 31.000000
-6.732074 5.531879 1.209860 255.000000
-13.491253 5.607582 1.254594 9.000000
-12.985247 5.686613 1.217291 15.000000
-6.732464 5.675403 1.222651 255.000000
-6.740026 5.828238 1.237229 255.000000
-6.741858 5.971397 1.250510 125.857140
-6.734931 6.106926 1.262351 10.666667
-6.729249 6.336893 1.283439 0.000000
-9.688767 6.702457 1.218297 30.500000
16.222176 6.936083 1.206478 70.000000
-9.731061 7.078777 1.244383 59.200001
16.295580 7.028102 1.213573 49.000000
16.320993 7.099957 1.217121 42.000000
-9.760646 7.204058 1.254505 56.000000
-16.422611 7.689415 1.240044 2.000000
-16.042458 7.634681 1.214937 7.000000
-16.423632 7.752900 1.241954 24.000000
-16.183901 7.764452 1.227491 3.000000
-16.507910 7.983790 1.253962 11.000000
-16.363022 8.062222 1.247412 8.666667
17.004395 8.074286 1.287255 17.500000
-16.356293 8.165648 1.250141 4.000000
-16.192474 8.211252 1.241545 8.000000
15.662167 8.268207 1.211117 32.000000
15.741090 8.246740 1.215210 33.000000
16.026661 8.268435 1.233221 24.000000
-16.296375 8.328515 1.251505 6.000000
15.664299 8.332363 1.213300 39.000000
16.071423 8.355561 1.238679 45.000000
16.390724 8.358683 1.258191 5.000000
17.029358 8.316813 1.295988 36.000000
-16.099554 8.452478 1.243455 8.500000
15.657284 8.455271 1.216848 42.000000
15.778739 8.456940 1.224216 48.000000
15.844476 8.620759 1.233494 27.000000
15.780149 8.844546 1.237042 4.000000
16.181252 8.869991 1.261876 20.000000
-16.401049 8.908750 1.276339 17.000000
-16.355478 8.950649 1.274975 2.000000
15.564300 8.949883 1.227763 14.500000
15.333029 9.010254 1.216165 1.500000
15.937252 9.042540 1.253052 34.333332
15.144445 9.189875 1.211390 7.000000
15.357333 9.122144 1.221487 1.000000
14.964058 9.209549 1.201565 13.000000
15.839384 9.207643 1.252870 20.000000
14.890111 9.358665 1.202657 22.000000
-14.884743 9.471678 1.206478 7.000000
-14.868534 9.593134 1.210025 9.000000
14.905363 9.565399 1.211117 42.000000
16.323503 9.557803 1.293532 0.000000
10.296053 9.767175 1.218660 66.000000
10.329586 9.737514 1.219002 14.000000
10.279731 9.813232 1.220371 7.000000
15.573487 10.272723 1.275793 2.000000
-9.666873 10.319406 1.214211 11.000000
14.292444 10.357413 1.207023 60.000000
15.525222 10.381462 1.277158 4.000000
10.649562 10.490902 1.283683 41.000000
15.568668 10.481443 1.283435 15.000000
10.541779 10.582334 1.282656 85.000000
14.485516 10.566892 1.226126 0.000000
15.489320 10.570060 1.282343 7.000000
15.585214 10.563888 1.287528 10.000000
10.680592 10.620987 1.293436 90.500000
14.312843 10.789536 1.225717 11.000000
-15.333120 10.840351 1.284117 2.500000
-15.228284 10.874260 1.279614 9.000000
-9.401498 10.895588 1.235772 57.000000
-9.858729 10.976191 1.266914 65.000000
-9.252475 10.929453 1.229680 66.800003
-9.838986 11.081980 1.272561 52.500000
-9.170116 11.065143 1.234060 50.333332
14.354605 11.034593 1.238134 15.000000
14.462145 11.045152 1.244410 7.000000
13.841060 11.132476 1.214664 34.000000
13.922728 11.126308 1.218758 7.000000
14.433494 11.167548 1.247958 1.000000
9.204317 11.217672 1.246038 31.333334
9.485300 11.256195 1.264005 37.000000
9.596095 11.255454 1.270108 4.666667
9.781893 11.209244 1.277523 49.000000
13.832720 11.269634 1.220122 20.000000
-14.722343 11.374615 1.272246 4.000000
-9.179996 11.340401 1.252883 72.000000
9.165166 11.362612 1.253567 30.666666
8.774793 11.431400 1.237483 38.500000
8.828222 11.501006 1.245012 46.000000
8.913933 11.438052 1.245240 31.000000
9.023837 11.454906 1.252198 19.000000
9.145349 11.460282 1.259043 13.000000
9.520274 11.406333 1.275812 8.000000
13.809860 11.432620 1.225990 20.000000
13.939198 11.429431 1.232676 16.000000
-9.449682 11.598847 1.284710 15.000000
13.800242 11.534700 1.229947 24.000000
-9.541665 11.636906 1.292238 17.000000
-8.981980 11.684422 1.265545 3.000000
8.827988 11.651545 1.255278 0.000000
-9.439469 11.811925 1.298398 4.000000
-9.288530 11.812044 1.290356 0.000000
8.834243 11.890983 1.272047 43.000000
8.786363 11.943704 1.273245 37.500000
8.933612 11.946152 1.280945 38.000000
13.714546 11.985052 1.245502 38.000000
13.831998 11.985820 1.251596 38.333332
13.996546 12.000730 1.260784 46.000000
9.064571 12.042206 1.294292 27.000000
-8.675541 12.171566 1.283512 9.000000
13.763729 12.104506 1.253416 27.000000
14.411363 12.122603 1.287801 26.000000
13.860111 12.266705 1.265696 26.000000
14.504178 12.278693 1.299535 50.000000
-8.480843 12.344324 1.286078 0.000000
-8.229013 12.306332 1.271249 1.666667
-8.154501 12.362255 1.271705 9.000000
13.788337 12.436879 1.269790 36.000000
13.925407 12.481398 1.278795 32.000000
13.787611 12.515001 1.273337 23.000000
14.059911 12.522522 1.287528 27.000000
7.274301 13.096219 1.286421 39.000000
7.483806 13.083342 1.294292 41.000000
7.244668 13.139949 1.288474 38.000000
7.404713 13.135837 1.294862 43.000000
11.401271 13.401186 1.203203 12.000000
5.469094 13.891213 1.281972 35.000000
10.885608 13.818247 1.202930 12.000000
5.548026 13.962852 1.290185 36.000000
5.770736 13.945621 1.296003 18.500000
10.356031 14.406636 1.213300 3.000000
11.175425 14.943933 1.276066 5.000000
9.158258 15.009527 1.202384 3.000000
8.541669 15.377915 1.202930 18.000000
8.376262 15.654449 1.214119 9.000000
7.490921 16.263992 1.224489 2.000000
7.419870 16.379805 1.229674 3.000000
6.401484 16.410494 1.204567 9.000000
6.461780 16.412582 1.206205 9.000000
8.888539 16.738047 1.295988 5.000000
6.735822 16.952206 1.247412 20.000000
6.966191 17.061617 1.260238 1.000000
6.546552 17.261141 1.262421 1.000000
5.955649 17.414764 1.258601 0.500000
-13.286301 19.997478 1.223378 43.000000
-13.186001 19.982441 1.219917 46.000000
-13.038199 19.962360 1.214930 42.500000
-12.843288 19.936420 1.208416 45.500000
-12.698696 19.917620 1.203633 44.000000
-13.904071 20.095011 1.245159 23.000000
-13.747173 20.069614 1.239561 42.500000
-13.595243 20.049919 1.234370 41.000000
-13.487550 20.026266 1.230299 41.000000
-13.386813 20.012091 1.226838 43.000000
-14.635676 20.188700 1.270603 42.000000
-14.532486 20.179474 1.267143 27.000000
-14.375799 20.161482 1.261748 20.500000
-15.261774 20.282433 1.293401 33.000000
-15.081406 20.262772 1.287091 32.000000
-14.967801 20.242594 1.282817 38.000000
-14.797932 20.211313 1.276405 41.500000
-15.416619 20.310656 1.299305 40.000000
6.850053 22.560356 1.201394 16.000000
4.995795 23.086988 1.203633 36.000000
4.910099 23.219736 1.209332 21.000000
4.855855 23.325001 1.214014 7.000000
5.176198 23.386953 1.220528 32.000000
4.733681 23.476444 1.220325 22.000000
4.816233 23.504507 1.222564 22.000000
5.684461 23.568727 1.235388 10.000000
5.566366 23.732325 1.242105 5.000000
5.651989 23.761356 1.244548 10.000000
5.819201 23.799103 1.248415 23.000000
5.965701 23.750448 1.247805 26.000000
-11.257198 34.038612 1.203735 7.000000
-11.223554 34.297981 1.211654 6.000000
-11.178555 34.527039 1.218499 7.000000
-11.051508 35.657612 1.253398 3.000000
-10.986299 35.845039 1.258767 4.000000
-10.949007 36.128059 1.267492 2.000000
-10.912323 36.418861 1.276485 3.000000
-10.872801 36.705948 1.285344 2.000000
-10.820330 36.954781 1.292860 2.000000
-6.336997 -26.641167 1.395384 5.000000
-6.389747 -26.492975 1.388666 9.000000
-8.237773 -26.095112 1.394366 13.000000
-6.420579 -25.905577 1.359965 13.000000
-6.553662 -25.748581 1.353858 7.000000
-6.474683 -25.776791 1.354265 15.000000
-6.622546 -25.681446 1.351415 6.000000
-6.713273 -25.372856 1.337370 34.000000
-6.197785 -25.347425 1.329635 26.000000
-6.777443 -25.293760 1.334316 11.000000
-7.672980 -25.128546 1.338795 38.000000
-7.410936 -25.115456 1.334316 23.000000
-7.284140 -25.121296 1.332790 18.000000
-6.868508 -25.004143 1.321289 7.000000
-6.782604 -24.998608 1.319864 8.000000
-7.943201 -24.889332 1.331263 26.000000
-8.537346 -24.598833 1.326785 22.000000
-8.376192 -24.633078 1.325767 28.000000
-7.361830 -24.663321 1.311518 8.000000
-6.992315 -24.644653 1.305344 13.333333
-8.409403 -24.478188 1.318846 39.000000
-8.214666 -24.409384 1.312332 13.000000
-7.864363 -24.377617 1.305208 60.000000
11.080972 -24.003418 1.347141 28.000000
11.137784 -23.928648 1.344901 75.000000
11.271730 -23.921021 1.347446 28.000000
-9.728117 -23.838017 1.311925 6.000000
-10.398969 -23.356461 1.302765 7.000000
-10.314247 -23.363432 1.301340 1.000000
13.276659 -22.829905 1.345716 1.000000
13.305909 -22.715696 1.341441 45.000000
13.407722 -22.644108 1.340932 33.500000
13.645991 -22.639076 1.346937 3.000000
19.988710 -17.437265 1.351619 39.000000
19.970947 -17.311583 1.346733 40.000000
19.944633 -17.124931 1.339507 41.500000
19.914108 -16.936256 1.332077 39.000000
19.900091 -16.816883 1.327599 41.000000
19.882462 -16.695196 1.322917 43.000000
19.854883 -16.513222 1.315895 43.000000
19.829254 -16.334356 1.309075 44.000000
19.812462 -16.216314 1.304597 44.000000
16.477505 -12.081804 1.397233 22.000000
16.475496 -11.921890 1.390683 6.000000
16.108751 -11.889420 1.369124 10.000000
15.937984 -11.609402 1.348384 0.000000
15.229673 -11.539016 1.306631 1.000000
-16.890039 -11.448315 1.395322 4.000000
15.256281 -11.483915 1.305812 31.000000
15.317851 -11.455049 1.307995 2.000000
15.864454 -11.479732 1.339105 15.000000
16.157242 -11.309222 1.348657 44.000000
15.712182 -11.219808 1.320276 10.000000
15.965048 -11.249590 1.335558 26.000000
16.209074 -11.269795 1.350021 18.000000
16.386055 -11.202880 1.357390 10.500000
15.718060 -11.149611 1.317819 1.000000
16.109768 -11.125837 1.338833 2.000000
-17.203571 -10.964108 1.395049 4.000000
-16.997757 -10.908175 1.381132 5.000000
16.294670 -10.953692 1.342653 2.000000
15.932992 -10.783392 1.315636 74.000000
16.173336 -10.761797 1.328462 2.000000
16.688910 -10.546215 1.350021 5.000000
-12.047949 -10.070076 1.348363 0.000000
-12.693082 -9.631082 1.368212 26.000000
-12.268373 -9.678547 1.341861 13.000000
-9.695786 -9.111292 1.375882 14.500000
-9.126625 -9.104349 1.333091 23.000000
-9.118446 -9.039220 1.327742 27.000000
-9.259626 -8.923214 1.329800 21.000000
-9.118111 -8.911885 1.318485 46.000000
-10.167290 -8.857008 1.394397 1.500000
-9.622555 -8.845294 1.351606 43.000000
-9.805174 -8.705444 1.355927 17.000000
-9.645960 -8.755632 1.347149 57.333336
-13.375850 -8.465663 1.359314 4.000000
-10.562455 -8.279045 1.387814 3.000000
18.662769 -8.278046 1.396141 15.000000
18.646759 -8.131073 1.391092 24.000000
-6.113645 -8.013407 1.399515 0.500000
-6.032083 -8.010660 1.392364 1.000000
18.622276 -7.981545 1.385498 7.500000
-10.314006 -7.825919 1.338851 10.000000
-7.890743 -7.822183 1.345541 30.000000
18.600338 -7.834183 1.380176 34.500000
-8.243745 -7.625778 1.359968 2.000000
-7.793636 -7.677525 1.324863 5.000000
14.008189 -7.608991 1.368897 12.000000
-8.124411 -7.468162 1.336404 3.000000
18.551970 -7.405270 1.365986 7.000000
-10.720399 -7.365170 1.345023 1.000000
-10.687421 -7.244089 1.335148 7.000000
18.530596 -7.211802 1.359777 18.000000
18.477808 -7.074472 1.353023 43.000000
18.387405 -6.907708 1.343199 27.000000
18.059647 -6.849398 1.320821 32.000000
18.472599 -6.873569 1.347838 35.000000
18.441679 -6.796181 1.344018 45.000000
18.395948 -6.583079 1.336104 55.000000
-8.631638 -6.443254 1.304425 37.500000
14.715637 -6.444402 1.379506 19.000000
14.914937 -6.475915 1.396275 3.000000
18.380680 -6.490942 1.333011 56.666668
14.918675 -6.366433 1.392852 6.000000
18.374765 -6.348534 1.329418 37.500000
-11.725494 -6.237182 1.373413 1.000000
-8.790317 -6.230759 1.304826 38.000000
14.740400 -6.235686 1.374372 22.000000
14.818723 -6.214005 1.379848 2.000000
15.057719 -6.230968 1.399355 2.500000
18.422211 -6.203339 1.329281 22.000000
-11.397241 -6.108584 1.337206 2.000000
18.339386 -6.111368 1.321913 14.000000
-11.122425 -6.006351 1.307170 3.000000
-11.663836 -5.994439 1.356132 7.000000
-11.401439 -5.973202 1.331034 8.000000
18.263653 -5.980083 1.314181 47.333332
-9.360357 -5.852350 1.336885 2.250000
18.264874 -5.864177 1.311816 46.500000
15.002874 -5.744048 1.379506 9.000000
18.299435 -5.748776 1.311679 24.000000
-9.370556 -5.466947 1.313802 3.000000
14.890635 -5.487541 1.362737 8.000000
-12.080057 -5.165045 1.358601 10.000000
-11.983394 -5.168308 1.349549 4.000000
-11.824806 -5.144027 1.333503 1.000000
-9.649109 -5.113267 1.322458 15.000000
-9.901875 -4.952009 1.340732 3.000000
-9.776344 -4.927683 1.325824 0.000000
-10.400136 -4.602194 1.377280 4.000000
-8.219683 -4.673162 1.312871 5.000000
-10.621453 -4.541392 1.398920 5.000000
-7.711492 -4.256973 1.380628 0.000000
-8.445892 -4.139455 1.305994 38.000000
-10.346174 -4.006787 1.343618 5.000000
-8.515063 -4.090640 1.311679 84.333336
-9.068794 -3.781732 1.364308 21.200001
-9.280340 -3.693096 1.386863 24.000000
-9.078914 -3.603489 1.356291 23.285715
-8.900401 -3.639436 1.335151 11.000000
18.764544 -3.603294 1.306631 17.000000
-10.275917 -3.576440 1.317649 1.000000
18.940472 -3.575415 1.318092 17.000000
19.128178 -3.548651 1.330373 17.000000
19.304123 -3.518596 1.341834 16.000000
-9.061575 -3.491127 1.348354 23.500000
19.444714 -3.481140 1.350840 37.000000
-9.476067 -3.346358 1.395390 36.000000
-9.279319 -3.326134 1.368708 40.000000
-10.741332 -3.290108 1.360449 6.000000
-10.694172 -3.129220 1.349388 8.000000
-10.329761 -3.128576 1.307070 1.000000
-9.252953 -3.186048 1.358806 26.000000
-9.134855 -3.145547 1.341477 33.500000
-9.031672 -2.999225 1.321398 50.000000
-10.929126 -2.938674 1.370548 10.000000
-10.831714 -2.949004 1.359487 1.000000
-9.088061 -2.907290 1.324882 52.000000
-10.850719 -2.735580 1.355159 9.000000
-12.488198 -2.244734 1.312107 15.000000
-9.479918 -2.105121 1.348354 11.000000
6.449596 -2.148413 1.354821 28.928572
6.640516 -2.122996 1.343916 20.666666
-9.554927 -2.058867 1.357156 43.000000
6.485245 -1.961686 1.376699 56.857143
6.611835 -1.924628 1.369338 74.666664
6.777956 -1.911453 1.357545 73.333336
6.884492 -1.895013 1.376473 26.000000
-8.303334 -1.517956 1.323024 0.000000
-8.236036 -1.541343 1.313320 21.000000
-10.656597 -1.469246 1.302742 3.000000
-9.707974 -1.481996 1.363574 28.000000
-9.638515 -1.419857 1.352755 17.000000
-9.615478 -1.385611 1.348904 17.000000
-9.419697 -1.327206 1.320848 33.000000
-9.415972 -1.296524 1.319747 85.000000
-9.306126 -1.251623 1.303794 56.000000
-9.708150 -1.027219 1.355505 8.000000
-9.449516 -1.059932 1.320298 34.000000
-9.321240 -1.065314 1.302694 45.333332
-9.671915 -0.992672 1.350004 22.000000
-8.909658 -0.632388 1.400035 54.666668
-8.864466 -0.601194 1.392603 38.666668
-8.773769 -0.512037 1.377531 28.000000
-9.441973 -0.253841 1.311496 17.000000
-8.763653 -0.152969 1.373814 57.000000
-8.527009 -0.122045 1.336651 32.000000
-9.520649 -0.001618 1.321948 34.500000
-8.776830 -0.015317 1.375673 55.000000
-8.681897 -0.042430 1.360807 16.000000
-8.823748 0.095484 1.383105 47.000000
-8.456743 0.011807 1.325502 13.000000
-8.619699 0.133901 1.351207 40.000000
-8.351823 0.182151 1.383924 33.500000
-8.638680 0.256391 1.354613 47.000000
-8.486446 0.285198 1.330921 30.750000
10.766239 0.257480 1.304184 179.000000
10.920189 0.295492 1.322939 22.000000
11.076666 0.230089 1.341694 7.000000
11.236741 0.339388 1.361411 18.000000
11.354683 0.378657 1.375837 0.000000
-8.401865 0.434400 1.318688 32.333332
-8.446173 0.550115 1.326663 43.125000
12.831770 0.549028 1.328154 124.000000
13.040635 0.599015 1.349961 19.000000
13.167386 0.521951 1.362715 1.000000
-9.470366 0.653921 1.318097 27.500000
13.356609 0.655584 1.382876 14.000000
-8.758387 0.729303 1.377531 49.000000
-8.625496 0.704786 1.356472 32.000000
-8.522862 0.745708 1.340987 29.000000
-9.449183 0.866523 1.317547 34.000000
-9.328664 0.880170 1.301043 28.000000
-8.571482 0.849508 1.350071 40.000000
-8.646416 0.925646 1.362975 54.000000
-9.387690 1.019754 1.311166 56.799999
-9.392459 1.163365 1.314124 58.111111
-9.871739 1.355770 1.383562 32.000000
-9.757575 1.371339 1.368158 24.000000
-9.862741 1.433503 1.383837 33.500000
-9.774009 1.478180 1.372559 38.000000
-7.845744 1.467890 1.394510 17.285715
-9.942289 1.556923 1.397315 10.000000
-12.793968 1.877839 1.337206 53.000000
-11.238806 1.866620 1.379685 26.000000
-8.474343 1.850804 1.359568 2.000000
-7.759056 1.835571 1.392986 36.500000
-9.397732 1.939607 1.332400 12.666667
-8.591945 1.904790 1.379389 24.000000
-8.549205 1.932859 1.373814 23.333334
-7.641456 1.905159 1.375890 32.333332
-7.459809 1.921472 1.345830 33.000000
15.394796 1.958474 1.332621 170.333328
-7.694538 2.051673 1.391265 19.500000
15.377360 2.070903 1.332393 255.000000
-8.036560 2.169939 1.304752 13.500000
-15.216372 2.233389 1.320643 10.000000
15.355846 2.215542 1.332279 255.000000
-13.030677 2.375126 1.369710 32.000000
15.339535 2.360980 1.332735 255.000000
-8.047685 2.419044 1.317140 22.500000
-7.542974 2.418818 1.383922 20.583332
-7.296628 2.424426 1.343306 23.333334
-7.128018 2.466509 1.317789 33.099998
15.325521 2.497036 1.333374 206.600006
-15.348489 2.549185 1.336043 0.000000
-8.189268 2.503708 1.342225 74.000000
-8.105851 2.506080 1.329838 60.000000
-7.078094 2.534323 1.313475 11.000000
-15.343409 2.697174 1.337754 20.000000
-15.237913 2.629309 1.327830 17.000000
-9.103641 2.648334 1.316447 37.666668
-8.269265 2.670897 1.362046 57.000000
-8.114325 2.649036 1.337890 65.000000
15.318943 2.604759 1.334332 3.000000
-15.158325 2.713756 1.322354 22.000000
-15.004658 2.734927 1.309692 2.000000
-15.675163 2.933487 1.369410 7.000000
-15.575380 3.041652 1.362737 3.000000
-15.570529 3.167804 1.364448 13.500000
-10.309134 3.114474 1.304184 15.000000
