# This PCD file was generated using the MATLAB® pcwrite function
# from Computer Vision Toolbox®.
# .PCD v.7 - Point Cloud Data file format
VERSION .7
FIELDS x y z intensity
SIZE 4 4 4 4
TYPE F F F F
COUNT 1 1 1 1
WIDTH 1236
HEIGHT 1
VIEWPOINT 0 0 0 1 0 0 0
POINTS 1236
DATA ascii
18.341141 -1.018918 0.936023 60.666668
18.432688 -1.004732 0.940637 27.000000
18.406715 -0.887358 0.939009 34.000000
18.423903 -0.772191 0.939619 32.000000
18.253658 -0.678912 0.930765 58.500000
18.297493 -0.565435 0.932800 91.000000
18.293987 -0.479045 0.932495 91.000000
18.004463 -0.386565 0.917635 169.000000
18.014097 -0.301857 0.918042 193.000000
6.945242 -0.140660 0.964551 12.666667
18.082218 -0.104157 0.921401 73.500000
7.076105 0.001235 0.982521 38.500000
18.032595 -0.018883 0.918857 27.000000
18.264055 0.095631 0.930663 15.000000
14.489226 0.164382 0.990889 48.000000
14.512580 0.210248 0.992526 12.000000
6.603005 0.289708 0.917717 23.400000
18.262199 0.315624 0.930697 122.500000
6.819089 0.405121 0.948505 10.333333
18.243418 0.485379 0.929930 109.800003
18.254051 0.611928 0.930663 0.000000
18.240061 0.668833 0.930052 98.000000
18.224577 0.794426 0.929523 155.800003
18.212803 0.925808 0.929238 156.500000
7.481340 1.103419 0.915814 15.400000
18.206263 1.068901 0.929306 148.000000
7.648341 1.226426 0.938064 9.666667
18.196707 1.240539 0.929374 149.666672
7.637109 1.360329 0.939426 13.000000
18.191753 1.383811 0.929645 134.000000
18.182940 1.526868 0.929781 123.666664
7.349020 1.742646 0.914660 28.000000
18.181694 1.670667 0.930358 119.000000
7.334066 1.787853 0.914179 11.500000
18.175262 1.814132 0.930731 119.666664
18.169271 1.986654 0.931341 99.000000
18.159760 2.130068 0.931681 94.000000
18.153002 2.273947 0.932223 88.333336
18.145279 2.446906 0.932970 81.666664
-10.464545 2.595499 0.925830 7.000000
-10.331353 2.579404 0.914423 4.000000
18.134108 2.590563 0.933411 77.000000
-10.450632 2.661893 0.926059 0.000000
18.129623 2.735392 0.934259 76.666664
-10.766644 2.832563 0.956003 17.000000
-10.436829 2.921822 0.930679 6.000000
18.120770 2.879781 0.934938 74.500000
-10.363824 3.024610 0.927085 9.800000
18.118374 3.013802 0.935915 70.800003
-13.222112 3.235428 0.930852 9.000000
-12.812930 3.178002 0.902743 7.000000
-10.458472 3.195478 0.939063 7.000000
-10.314252 3.169225 0.926572 8.500000
18.114620 3.171285 0.937075 62.500000
-13.329242 3.350547 0.939857 3.000000
18.125782 3.290735 0.938703 48.000000
-13.508142 3.440675 0.953229 4.000000
-10.243092 3.449172 0.928112 17.000000
-10.159353 3.385478 0.919556 0.000000
13.835566 3.372738 0.973833 10.000000
18.098858 3.403466 0.938398 68.000000
-13.370100 3.472655 0.944633 7.500000
-10.417080 3.544232 0.944881 20.000000
18.118290 3.525124 0.940535 51.000000
-10.386973 3.643575 0.945223 3.000000
18.087948 3.637325 0.940128 66.000000
-13.371628 3.675629 0.948317 4.000000
-10.579080 3.673676 0.961650 7.000000
-13.355951 3.761737 0.948863 3.000000
-11.001377 3.781636 0.998952 15.000000
18.075077 3.782678 0.940976 65.333336
-18.349319 3.940456 0.956311 23.000000
-10.768452 3.949201 0.984921 32.500000
18.071524 3.930328 0.942367 65.500000
-18.313433 3.992973 0.955090 21.000000
-18.269592 4.043585 0.953461 9.000000
-12.703527 4.034692 0.911476 17.000000
13.808563 3.993471 0.982975 22.000000
18.066132 4.038276 0.943283 64.333336
-18.443890 4.142982 0.963232 27.000000
18.107067 4.147071 0.946540 21.000000
-18.672270 4.255943 0.975853 0.000000
18.032648 4.249403 0.944030 44.666668
-18.530365 4.284888 0.969135 1.000000
-18.345472 4.424683 0.961604 20.000000
-18.075369 4.419668 0.948169 49.000000
-17.658974 4.406125 0.927406 34.000000
-9.829326 4.378335 0.924005 8.333333
-9.794387 4.436750 0.923321 14.000000
18.067951 4.407849 0.947660 39.500000
-17.661259 4.495229 0.928627 31.000000
-9.757339 4.531345 0.923834 3.000000
17.736483 4.474846 0.932088 89.000000
18.029560 4.488591 0.946744 46.000000
-17.902355 4.616533 0.942062 66.000000
-17.651993 4.611159 0.929645 2.000000
18.044022 4.642997 0.949390 30.500000
-9.763860 4.684429 0.929937 5.666667
-9.740776 4.786713 0.931991 9.000000
-18.645327 4.870644 0.981959 36.000000
-18.529503 4.933752 0.977074 18.000000
-17.931606 4.865184 0.946744 20.000000
-17.754436 4.907072 0.938602 27.500000
-17.115292 5.050288 0.909289 3.000000
-9.844218 5.031040 0.949330 70.000000
-9.661842 4.976175 0.933245 58.000000
-9.593873 5.017660 0.929709 67.666664
18.022430 5.031953 0.953461 59.000000
-17.973398 5.058867 0.951426 28.000000
-17.172070 5.125747 0.913157 6.000000
-9.550634 5.129663 0.930935 57.750000
18.031151 5.126139 0.955191 42.500000
-18.287828 5.209424 0.968932 25.000000
-17.289736 5.220078 0.920281 25.000000
-10.250217 5.177739 0.986119 19.000000
-9.572197 5.238451 0.937010 36.000000
17.938608 5.252413 0.952443 10.000000
18.047117 5.222685 0.957329 34.000000
18.003872 5.425431 0.958143 43.500000
17.264524 5.529739 0.923742 116.000000
17.396057 5.511672 0.929849 124.000000
18.026812 5.587135 0.961671 26.666666
-17.365564 5.722941 0.931681 24.000000
-17.190655 5.755204 0.923742 27.000000
-17.197392 5.847768 0.925574 21.000000
16.926600 5.775475 0.911325 5.000000
17.990383 5.855852 0.964046 38.500000
-18.135460 5.913573 0.971985 8.000000
18.006947 6.018056 0.967439 28.666666
-18.302654 6.063694 0.982468 3.500000
-17.639860 6.060121 0.950408 27.000000
-17.693329 6.182319 0.955022 39.666668
17.946972 6.186646 0.967303 1.000000
-17.675644 6.290519 0.956006 21.000000
-17.426020 6.294377 0.944098 1.000000
-17.227371 6.314520 0.934938 2.000000
17.969234 6.320934 0.970628 19.000000
-17.100082 6.359464 0.929645 6.000000
-17.222136 6.466511 0.937380 33.000000
-16.638901 6.547525 0.911121 6.000000
-8.579831 6.500653 0.924348 0.000000
17.972301 6.481102 0.973512 36.500000
-17.381035 6.588556 0.947151 52.000000
-16.603395 6.593872 0.910307 19.000000
17.931530 6.641991 0.974377 53.500000
-17.692310 6.770191 0.965268 31.000000
-12.257001 6.774589 0.957686 40.000000
-12.095932 6.830994 0.949954 51.500000
17.922468 6.783076 0.976463 60.000000
-17.846096 6.893397 0.974835 6.000000
-12.072082 6.905357 0.951046 51.000000
-8.120145 6.864486 0.913054 2.000000
17.917892 6.899602 0.978363 45.666668
-12.096950 7.097241 0.959096 23.500000
17.927542 7.076358 0.982095 42.666668
-17.915455 7.212863 0.984097 7.500000
-12.113156 7.183692 0.963053 4.000000
17.954462 7.217648 0.986030 33.000000
17.931700 7.274016 0.986030 36.000000
17.883106 7.385535 0.985895 55.666668
17.875704 7.514255 0.988066 42.000000
-10.754290 7.628560 0.901652 2.000000
-11.038820 8.201143 0.940403 7.000000
-10.949085 8.187981 0.934945 10.000000
-10.958889 8.303170 0.940221 18.333334
-10.895978 8.363802 0.939311 12.000000
-10.759407 8.448580 0.935491 2.000000
-11.026760 8.547053 0.954048 3.500000
-10.629848 8.496391 0.930579 28.000000
-10.803391 8.732816 0.949954 22.000000
-10.930688 8.892633 0.963599 30.000000
-9.362340 9.503930 0.912295 37.000000
-9.250554 9.479378 0.905745 65.000000
-9.165854 9.511486 0.903289 63.000000
-9.154056 9.619478 0.908065 55.000000
-9.159303 9.716217 0.913113 33.000000
-10.297493 9.816453 0.972878 3.000000
-9.926290 9.826315 0.955139 16.000000
-10.335903 9.946520 0.980928 9.000000
-10.105048 9.940607 0.969330 5.000000
-9.906682 9.868715 0.956231 33.000000
-10.341915 10.046537 0.985977 6.000000
-9.965819 9.990195 0.964964 86.000000
-9.327896 9.957548 0.933035 39.000000
-9.071099 9.993505 0.922938 3.000000
-8.841852 10.053843 0.915569 19.000000
-8.679646 10.011319 0.906086 44.500000
-9.067888 10.085119 0.927440 32.500000
-8.923643 10.082797 0.920754 13.000000
-10.102952 10.191504 0.981338 47.000000
-9.101255 10.218618 0.935764 25.000000
-9.571218 10.412271 0.967147 37.000000
-8.956388 10.445908 0.940949 29.000000
-8.761511 10.448930 0.932489 46.500000
-8.985641 10.546895 0.947498 38.000000
-8.864792 10.471518 0.938220 26.000000
-9.582206 10.826904 0.988706 3.000000
-9.013026 10.852388 0.964691 57.000000
-9.025120 10.971804 0.971513 50.000000
-9.154846 11.236956 0.991162 20.000000
-9.011795 11.300983 0.988433 28.666666
-9.146588 11.371998 0.997984 28.000000
-8.966034 11.438866 0.993891 35.666668
-8.815845 11.394032 0.985158 21.000000
-7.861744 11.443192 0.949409 30.000000
-8.753896 11.537018 0.990343 19.000000
-8.559019 11.503745 0.980519 42.000000
-7.839253 11.487611 0.951046 43.000000
-8.703008 11.582919 0.990752 36.500000
-8.111361 11.649016 0.970695 36.000000
-8.634326 11.681407 0.993345 34.000000
-7.955385 11.736809 0.969603 34.000000
-8.258604 11.940290 0.992799 46.000000
-7.909904 11.869445 0.975402 13.250000
-7.826909 11.947108 0.976698 28.000000
-7.627354 11.926518 0.968102 8.000000
-7.567858 11.957297 0.967693 7.000000
13.438342 12.087164 0.920994 14.500000
13.633057 12.069996 0.927813 5.000000
13.819905 12.081381 0.935345 2.000000
13.912078 12.085061 0.939009 1.000000
14.062752 12.100096 0.945319 0.500000
-8.652267 15.955449 0.924861 1.500000
-8.426043 16.451773 0.941859 39.000000
-8.383368 16.495966 0.942876 29.000000
-7.426424 16.493734 0.921706 7.000000
-7.144903 16.487064 0.915600 2.500000
-8.547315 16.560112 0.949594 14.000000
-7.428312 16.637362 0.928424 0.000000
-6.839108 16.560095 0.912953 0.000000
-8.356416 16.701937 0.951629 3.000000
-6.004204 16.732275 0.905829 6.000000
-9.713402 16.824097 0.989898 20.000000
-8.323446 16.767466 0.953868 9.000000
-5.971673 16.807518 0.908882 27.000000
-9.575972 16.860138 0.988015 66.750000
-5.953303 16.924177 0.914175 54.000000
-9.439496 16.959410 0.989016 70.333336
-8.135650 16.987900 0.959772 12.500000
-9.356466 17.061644 0.991526 64.000000
-8.089638 17.098316 0.963843 14.000000
-5.946090 17.074837 0.921299 41.000000
-5.936677 17.221842 0.928220 49.000000
-7.996783 17.322504 0.972189 1.000000
-5.925119 17.365175 0.934938 70.000000
-5.912718 17.508600 0.941655 106.000000
-5.903264 17.663488 0.948983 114.000000
-8.105788 17.852551 0.999058 34.000000
-5.892903 17.818485 0.956311 86.000000
-5.885345 17.984983 0.964250 58.000000
-5.875576 18.147806 0.971985 32.000000
-5.856312 18.284111 0.978295 5.000000
17.873068 20.166372 0.904747 11.500000
17.842495 20.323988 0.908036 13.000000
17.111418 20.772581 0.903606 28.000000
17.217417 20.767962 0.905754 22.000000
19.306896 22.414665 0.993269 4.000000
19.250355 22.563135 0.995819 6.000000
18.929462 22.833063 0.995819 6.000000
18.756310 23.063179 0.998101 2.000000
13.497848 23.435598 0.908036 14.000000
13.609521 23.458778 0.910586 13.000000
13.911551 23.467028 0.915955 6.000000
14.407388 24.130299 0.943605 59.000000
14.323352 24.161686 0.943069 57.000000
11.401123 24.360926 0.903069 27.000000
9.943803 25.038542 0.904546 15.000000
10.068519 25.122215 0.908707 38.000000
9.343565 25.245188 0.903808 16.500000
9.933895 25.244501 0.910854 27.000000
10.186364 25.186817 0.912197 11.000000
9.509446 25.326313 0.908304 25.000000
9.780847 25.321337 0.911391 27.000000
9.851634 25.268135 0.910586 27.000000
9.631475 25.408459 0.912331 14.000000
11.405158 25.401339 0.934881 10.000000
11.680759 25.583742 0.944277 15.000000
9.093116 25.678167 0.914613 8.000000
8.857200 25.781631 0.915284 20.000000
9.002938 25.809408 0.917767 9.000000
7.641840 26.200943 0.916358 30.000000
7.744481 26.245825 0.918774 1.000000
7.524849 26.259701 0.917163 11.500000
7.263237 26.441103 0.920653 25.000000
7.389360 26.412327 0.920854 19.500000
10.198586 26.402807 0.950317 7.000000
10.854329 26.360689 0.957162 3.000000
11.053741 26.373085 0.960115 7.000000
6.308339 26.520695 0.915284 37.000000
7.096961 26.486216 0.920653 22.000000
7.193743 26.513948 0.922398 4.000000
5.895311 26.636028 0.915955 30.000000
5.985971 26.648581 0.917029 28.000000
6.185390 26.622124 0.917655 31.333334
6.448792 26.615768 0.919490 39.333332
6.584935 26.568712 0.919042 42.000000
7.032123 26.577950 0.923069 28.000000
9.622329 26.639484 0.950988 18.000000
10.476995 26.624653 0.960652 4.000000
6.075880 26.656927 0.917968 39.000000
6.714145 26.730129 0.925351 35.000000
6.940866 26.742340 0.927633 19.500000
8.618845 26.716341 0.942532 41.000000
8.716369 26.730942 0.944008 34.000000
8.859238 26.740755 0.945820 32.500000
9.543976 26.684637 0.951525 36.000000
10.218459 26.703545 0.959981 18.000000
9.855841 26.758564 0.957431 9.000000
8.135707 26.946764 0.945082 36.000000
8.544849 26.920475 0.948303 39.500000
9.799128 26.864510 0.960115 17.000000
8.257683 27.043423 0.949377 13.000000
9.455482 26.970436 0.959578 23.000000
10.027647 26.963531 0.965887 3.000000
8.132196 27.244171 0.954612 18.000000
8.503693 27.235231 0.957968 46.000000
9.458528 27.253050 0.968571 17.000000
7.976528 27.348457 0.956491 5.000000
9.184681 27.291725 0.966826 41.000000
9.342447 27.474689 0.974343 8.000000
9.568996 27.853539 0.988840 5.000000
9.239375 28.334875 1.000651 3.000000
-2.402023 -19.849251 1.018803 1.000000
-10.072218 -18.831932 1.088216 14.000000
10.528936 -18.708866 1.093916 41.500000
10.587411 -18.606958 1.090862 63.000000
10.667995 -18.544716 1.090150 65.500000
-9.712372 -18.507179 1.065011 23.500000
-9.599305 -18.503124 1.062161 5.000000
-9.241488 -18.519363 1.054629 7.000000
-9.169083 -18.519665 1.053001 2.000000
-8.987789 -18.444040 1.045469 27.000000
10.803448 -18.510088 1.092084 61.000000
10.929118 -18.524378 1.095951 21.000000
-10.412131 -18.343575 1.074781 8.000000
-9.254150 -18.304285 1.045130 27.333334
-8.966434 -18.254358 1.036309 14.000000
-8.832439 -18.270773 1.034070 11.000000
-10.205410 -18.111689 1.059311 1.000000
-9.507298 -17.910782 1.033256 61.000000
12.345965 -17.723886 1.100633 70.000000
-9.290858 -17.636604 1.015750 1.000000
5.247417 -15.153706 1.096637 11.000000
6.044713 -14.709241 1.087494 5.000000
-9.767039 -12.600640 1.090223 7.500000
-9.517038 -12.560979 1.077670 4.000000
-9.912433 -12.501895 1.091042 15.000000
-9.988290 -12.436254 1.090769 2.000000
-9.874504 -12.294652 1.078352 7.000000
-9.957937 -12.240140 1.079035 2.000000
-10.473480 -12.077959 1.093225 10.000000
-10.376589 -12.119410 1.091042 5.000000
-10.209052 -12.115085 1.083401 32.000000
10.518508 -12.112964 1.097046 40.000000
-10.400241 -11.993673 1.085584 16.000000
-9.884953 -11.995494 1.062934 5.500000
10.543404 -11.988675 1.091770 49.333332
10.667442 -11.939205 1.094863 38.000000
-9.976437 -11.726418 1.052837 104.000000
-11.075759 -11.618416 1.097683 8.666667
-11.272738 -11.459215 1.099229 0.000000
-11.020113 -11.415648 1.085038 4.000000
-9.958713 -11.197070 1.024728 43.000000
-9.891294 -11.227411 1.023227 19.000000
11.405457 -11.044977 1.085721 46.000000
-10.513105 -11.028281 1.041921 3.000000
11.454466 -10.953765 1.083810 54.500000
-9.913386 -10.902372 1.007672 55.500000
11.557513 -10.925503 1.087585 32.666668
-4.928952 -10.745931 1.015208 19.750000
-4.789235 -10.751542 1.010702 10.000000
9.955191 -10.762012 1.002532 59.000000
11.750717 -10.786427 1.090769 14.000000
-5.049463 -10.714113 1.017090 75.599998
-4.648499 -10.706048 1.002261 1.000000
10.048954 -10.659960 1.001805 64.000000
10.151054 -10.700721 1.008627 14.000000
10.240084 -10.681969 1.011902 10.333333
18.798000 -10.631109 1.100430 56.500000
-10.321216 -10.491953 1.006444 12.000000
11.329043 -10.531284 1.057749 0.000000
18.792894 -10.472916 1.096256 56.000000
18.786541 -10.315219 1.092084 56.500000
18.778950 -10.158014 1.087911 56.500000
18.766603 -9.999434 1.083534 56.500000
-10.785396 -9.914207 1.001805 4.000000
18.761852 -9.846052 1.079667 56.500000
18.754143 -9.692213 1.075697 56.000000
18.747023 -9.539764 1.071830 32.500000
18.737103 -9.374686 1.067589 48.333332
18.733395 -9.250515 1.064603 55.666668
18.725842 -9.088773 1.060634 50.000000
18.720821 -8.953480 1.057411 48.666668
18.714832 -8.782624 1.053408 55.666668
18.700756 -8.680601 1.050558 57.000000
18.702534 -8.610112 1.049133 58.000000
-9.394869 -8.509847 1.088501 25.666666
-9.299245 -8.512260 1.082569 18.666666
18.697411 -8.501227 1.046589 58.000000
18.693928 -8.358311 1.043433 56.500000
-9.499848 -8.249364 1.080402 62.000000
-9.447828 -8.308890 1.080402 10.000000
-9.692300 -8.153001 1.087588 23.000000
-9.410866 -8.224096 1.073215 34.000000
18.685734 -8.214159 1.040075 58.000000
-9.924362 -8.068236 1.098311 41.000000
18.680134 -8.072034 1.036920 58.000000
-10.015574 -7.901308 1.095460 33.000000
18.667978 -7.927953 1.033459 57.500000
-10.177494 -7.772800 1.099680 54.000000
-9.986013 -7.751522 1.085535 50.500000
7.156855 -7.810350 1.095480 13.000000
18.665808 -7.788964 1.030609 58.500000
-9.864695 -7.732128 1.076295 16.000000
18.653385 -7.646539 1.027251 58.000000
-10.125542 -7.517210 1.082911 59.333332
18.647924 -7.473806 1.023688 59.333332
7.571354 -7.355109 1.091571 0.000000
7.658994 -7.370341 1.099183 14.000000
18.639145 -7.300876 1.020024 59.000000
18.628719 -7.162116 1.016971 59.500000
-10.617877 -7.100004 1.096828 31.000000
-10.516978 -7.128561 1.091011 22.000000
7.646498 -7.125989 1.080874 13.200000
18.628502 -7.027999 1.014528 59.000000
18.586105 -6.878971 1.009847 54.500000
18.595709 -6.716877 1.007472 54.666668
18.601456 -6.554276 1.004961 59.500000
7.339032 -6.424843 1.008665 5.000000
18.591290 -6.419671 1.002213 59.000000
7.586025 -6.066694 1.004482 5.666667
-9.710680 -2.480650 1.036437 113.333336
-9.718008 -2.369027 1.034380 255.000000
7.053030 -2.388701 1.033958 19.500000
7.392866 -2.311117 1.075492 5.000000
-9.726442 -2.225907 1.031829 255.000000
7.410078 -2.224849 1.074282 9.000000
-9.733740 -2.067235 1.029031 255.000000
7.418371 -2.105894 1.070761 33.799999
7.234919 -2.030922 1.043402 14.666667
7.454276 -2.000156 1.071642 0.000000
-9.743250 -1.921714 1.026974 223.375000
7.181249 -1.854523 1.029832 2.000000
7.452198 -1.849755 1.066140 3.000000
-9.810101 -1.827050 1.031911 0.000000
7.211026 -1.825999 1.032858 13.500000
7.469518 -1.829161 1.067791 15.000000
15.712692 -1.156626 1.077397 43.000000
-9.744183 -1.125722 1.014356 58.666668
15.680422 -1.104732 1.074941 65.000000
-9.749677 -1.017862 1.013705 255.000000
15.677706 -1.005631 1.074304 24.000000
-9.751366 -0.878882 1.012491 255.000000
15.647044 -0.872150 1.071666 55.333332
15.791471 -0.863528 1.081491 61.000000
-9.757619 -0.725134 1.011833 255.000000
15.603511 -0.705902 1.068119 22.666666
-9.759068 -0.571259 1.010928 255.000000
15.587754 -0.606994 1.066754 46.000000
15.756329 -0.464885 1.077943 1.000000
-9.760885 -0.429144 1.010362 223.250000
15.131801 -0.161107 1.034825 11.000000
15.391535 0.126261 1.052564 75.000000
15.431762 0.078108 1.055293 32.000000
6.648099 0.325179 1.043265 14.333333
15.246018 0.268781 1.042739 8.000000
15.376223 0.343578 1.051745 6.500000
6.888842 0.421079 1.081770 11.125000
-9.848008 1.005535 1.023682 0.000000
-9.807324 1.101121 1.020555 25.400000
-9.806045 1.219689 1.021872 38.799999
-9.812469 1.377326 1.024670 32.799999
-9.824518 1.536798 1.028326 18.714285
-9.759666 1.684015 1.024176 27.799999
-9.846581 1.826733 1.035614 8.000000
-9.748344 1.848110 1.026048 21.000000
-9.739407 1.981528 1.027797 28.000000
-9.798782 2.106045 1.036437 8.000000
-9.746964 2.062891 1.030266 27.000000
14.873297 2.504910 1.031414 13.500000
14.674011 2.637627 1.019543 25.000000
14.661726 2.682996 1.019270 11.000000
14.943976 3.568427 1.050653 11.000000
14.792932 3.828466 1.044922 21.000000
14.955680 3.820496 1.055565 39.000000
15.203654 3.833001 1.072212 1.000000
14.569914 3.991243 1.033051 25.500000
-10.933060 4.146531 1.004086 22.000000
14.488688 4.140883 1.030459 8.000000
14.868054 4.148438 1.055565 13.000000
-11.811218 4.247660 1.077835 6.500000
-11.229570 4.218678 1.030095 6.000000
-10.893926 4.170881 1.001690 27.000000
14.244069 4.167955 1.014904 2.000000
14.793500 4.177774 1.051199 2.000000
-11.018312 4.258245 1.014352 0.000000
-11.212800 4.373943 1.033517 15.000000
14.781925 4.375800 1.054201 15.000000
14.891596 4.510104 1.064025 13.000000
-11.625456 4.577043 1.072873 13.000000
14.745645 4.618179 1.056657 8.000000
14.854128 4.652081 1.064435 37.500000
-11.836905 4.746409 1.095117 3.000000
-11.762168 4.845612 1.092380 1.000000
14.601084 4.826131 1.051609 11.500000
-11.691060 4.902467 1.088615 5.000000
-11.665089 5.064866 1.092037 3.000000
-9.183839 5.138984 1.088280 8.000000
-6.859496 5.129690 1.037288 1.000000
-6.792583 5.113007 1.029594 15.000000
-9.189427 5.218198 1.092806 5.000000
-8.865030 5.163723 1.060918 4.500000
-11.507457 5.300143 1.087931 17.000000
-8.512924 5.323594 1.038289 9.000000
14.978537 5.318893 1.086949 25.000000
14.897759 5.448858 1.084765 12.000000
-9.140777 5.459813 1.101035 0.000000
-8.650447 5.504579 1.060301 10.000000
-8.585563 5.539406 1.056598 8.333333
-8.403422 5.534728 1.040552 2.000000
-8.189797 5.468111 1.018334 13.000000
14.778057 5.776586 1.085038 16.000000
-8.535414 6.115186 1.085811 4.500000
-8.442112 6.149328 1.080051 7.000000
-7.912486 6.073660 1.031500 3.000000
-8.557516 6.274631 1.097332 5.000000
-7.813053 6.315605 1.038906 6.000000
-7.601403 6.446435 1.030677 2.000000
-7.551585 6.610918 1.037877 11.000000
-7.746234 6.955126 1.076553 4.500000
-7.867153 6.974985 1.087251 7.500000
-7.612117 6.987451 1.068530 0.000000
-7.694112 7.197504 1.089514 1.000000
-9.141529 7.437068 1.011957 0.000000
-9.100229 7.474973 1.011272 50.000000
-9.005596 7.530199 1.008046 68.857140
-18.563694 7.575703 1.021653 2.000000
-8.930501 7.646308 1.009561 58.666668
-18.529594 7.663889 1.021755 7.500000
-18.683056 7.830620 1.032238 35.000000
-8.951590 7.762315 1.017432 21.000000
-18.746666 7.926619 1.037123 56.000000
-18.504875 7.892999 1.025113 20.000000
-17.947981 7.990956 1.001094 7.000000
-18.083139 8.119295 1.010050 30.000000
-17.966354 8.202891 1.006386 4.000000
-18.879320 8.334650 1.051576 12.000000
-19.286009 8.441888 1.072746 38.000000
-18.854357 8.430128 1.052390 11.500000
-19.601936 8.506900 1.088827 34.000000
-19.061949 8.630846 1.066232 2.000000
-17.977846 8.621264 1.015953 20.000000
-18.019011 8.710731 1.019821 3.000000
-19.164160 8.871370 1.076070 28.666666
-19.082247 8.930653 1.073560 5.000000
-19.111898 9.017838 1.076817 3.000000
-19.069046 9.070967 1.076003 5.000000
-18.623676 9.147843 1.057275 1.000000
-18.462170 9.212952 1.051372 16.000000
-18.426001 9.267314 1.050965 7.000000
-8.030215 9.576817 1.073215 24.500000
6.232718 10.036722 1.014524 119.500000
6.331877 9.985012 1.015294 255.000000
6.484534 9.981384 1.022110 255.000000
6.623098 9.987364 1.029068 255.000000
6.758621 9.986114 1.035456 255.000000
6.922137 9.989208 1.043613 255.000000
7.090334 9.995437 1.052339 255.000000
7.231731 9.993816 1.059298 255.000000
7.380031 9.998966 1.067169 255.000000
7.499384 9.995459 1.073044 255.000000
6.249654 10.206540 1.027699 18.500000
-10.655594 10.416529 1.018997 4.000000
-10.104135 10.854335 1.014085 14.000000
-10.571319 11.427979 1.064571 3.000000
-9.234996 11.408345 1.003715 63.000000
-10.609027 11.577667 1.073850 1.000000
-8.930750 11.655575 1.004124 36.000000
9.196600 11.787997 1.022408 21.000000
9.300181 11.805698 1.027730 12.000000
9.362018 11.807693 1.030459 11.000000
9.473673 11.833514 1.036599 46.000000
9.147857 11.878795 1.025274 11.000000
10.222634 11.939445 1.074850 12.666667
10.384886 11.950613 1.082673 11.666667
10.496462 11.952079 1.087767 9.000000
-8.798349 11.981890 1.016541 63.000000
9.145058 11.991573 1.031278 12.000000
-8.464032 12.074427 1.008354 113.000000
-8.809540 12.156493 1.026638 27.000000
-8.680773 12.165388 1.021999 59.666668
17.612751 12.309719 1.094933 22.000000
17.759298 12.287951 1.100429 11.000000
-9.141667 12.531761 1.060750 38.000000
17.601883 12.467484 1.099106 22.500000
-8.988091 12.652154 1.061296 66.000000
-8.077117 13.032126 1.048470 14.000000
-8.136531 13.220573 1.061569 0.000000
-7.959211 13.241217 1.056475 31.666666
-8.812929 13.269455 1.089314 33.666668
-8.732285 13.329087 1.089678 17.000000
-8.655540 13.302938 1.085311 45.000000
-8.369070 13.315618 1.075487 39.000000
-8.084356 13.322611 1.065663 38.000000
-8.413830 13.480644 1.086676 31.000000
-8.223980 13.457188 1.078489 3.000000
-8.025691 13.511435 1.074668 44.000000
-7.682787 13.507675 1.062661 2.000000
-8.076459 13.694701 1.087222 27.000000
-8.026353 13.807280 1.092134 43.000000
-8.026824 13.908465 1.098137 42.000000
15.809424 13.908485 1.072949 59.000000
-9.450118 17.426888 1.010152 38.000000
-9.340610 17.420156 1.007200 16.000000
-7.782153 18.113411 1.004554 1.500000
-8.104011 18.461443 1.027352 18.000000
-7.930645 18.701580 1.035088 7.000000
-7.780716 18.673603 1.030813 8.000000
-7.887338 18.763227 1.037123 4.000000
-7.369676 18.843899 1.031016 3.000000
-5.850369 18.771942 1.001908 18.500000
-7.314764 18.878134 1.031627 5.000000
-5.809878 18.955914 1.010254 29.000000
-7.176161 18.961132 1.033052 6.000000
-7.113276 19.065872 1.036920 6.000000
-5.798964 19.134640 1.018803 24.000000
-5.781241 19.294353 1.026335 18.000000
-5.767120 19.469463 1.034680 5.000000
-5.754190 19.652344 1.043433 3.000000
-5.737957 19.827652 1.051779 1.000000
-5.732761 20.045305 1.062364 1.000000
-5.712121 20.213142 1.070303 0.000000
9.599851 28.231674 1.001188 3.000000
8.352312 28.975220 1.012463 14.000000
9.027890 29.236641 1.027362 2.000000
8.933661 29.257214 1.027094 4.000000
7.963392 29.533957 1.027027 22.500000
8.310899 29.527397 1.029912 3.000000
8.144271 29.648420 1.032329 6.000000
8.452906 29.674158 1.035953 9.000000
8.765010 29.704369 1.039845 17.000000
7.765410 -22.075668 1.192437 14.000000
6.961986 -21.973570 1.174524 22.000000
7.390228 -21.997652 1.182463 13.500000
7.496380 -21.970175 1.182870 22.000000
7.178706 -21.937351 1.176153 3.000000
7.545832 -21.889868 1.179817 9.000000
7.049463 -21.773565 1.166178 34.000000
6.656251 -21.717373 1.157425 18.000000
6.722076 -21.688723 1.157018 13.000000
6.935938 -21.654842 1.158647 28.000000
8.789188 -21.666853 1.191419 3.000000
8.856092 -21.571924 1.188230 25.000000
8.934611 -21.442928 1.183684 1.000000
6.183024 -21.281908 1.129267 24.000000
6.051363 -21.243576 1.125535 24.333334
-9.851374 -19.897924 1.131370 13.000000
-9.808950 -19.812067 1.126485 43.000000
11.822950 -19.614601 1.166993 21.000000
-10.004225 -19.507862 1.117121 2.000000
11.857006 -19.463144 1.161293 67.000000
-9.816425 -19.365986 1.106333 5.000000
11.936074 -19.386644 1.160072 65.000000
12.053699 -19.372536 1.162616 58.000000
12.301087 -17.818176 1.103279 40.333332
12.455811 -17.703032 1.102974 44.000000
-8.297359 -15.161722 1.181917 6.000000
-8.511632 -14.808162 1.167999 22.000000
-8.318698 -14.757293 1.158448 21.000000
-8.235821 -14.805476 1.158557 33.000000
-8.641944 -14.676969 1.164724 46.000000
-8.544511 -14.669260 1.160904 33.000000
-8.359108 -14.720675 1.157629 23.000000
-9.389767 -14.553321 1.184373 20.000000
-8.912868 -14.504673 1.164178 36.000000
-9.982664 -14.357826 1.195835 3.000000
-8.576420 -14.358573 1.143711 33.000000
-9.307167 -14.326309 1.168272 6.000000
-10.146063 -14.208516 1.193924 18.000000
-9.444216 -14.193191 1.165816 12.000000
-8.800897 -14.222090 1.143711 47.000000
-8.657319 -14.188535 1.136616 27.000000
-8.542019 -14.233282 1.135160 42.333332
-9.448671 -14.055810 1.158175 5.000000
-9.001672 -14.048496 1.140982 38.000000
-9.932829 -14.002709 1.174003 30.000000
-9.981563 -13.855021 1.167726 19.666666
-9.072505 -13.869525 1.133341 3.000000
-8.704845 -13.919931 1.122698 41.000000
18.958941 -13.942070 1.199155 50.500000
-8.801095 -13.830927 1.121061 27.000000
-8.727754 -13.811278 1.117240 40.000000
18.950787 -13.753460 1.193150 50.000000
-10.960381 -13.646587 1.196926 0.000000
-9.463540 -13.702823 1.138799 9.000000
-9.373037 -13.663382 1.133068 2.000000
-9.548588 -13.551044 1.133614 6.000000
-8.971160 -13.620993 1.115330 8.000000
18.945692 -13.613861 1.188773 51.000000
18.941231 -13.475817 1.184499 50.500000
-11.077703 -13.443108 1.191195 1.000000
18.929073 -13.288828 1.178494 51.500000
18.927568 -13.155004 1.174524 53.000000
-10.245222 -13.047537 1.134433 7.500000
18.918541 -13.016998 1.170148 52.000000
18.872417 -12.854595 1.163532 47.000000
18.843224 -12.748233 1.159257 46.000000
18.906391 -12.704568 1.160682 59.000000
18.899479 -12.571104 1.156611 54.000000
18.886246 -12.391836 1.151013 54.500000
18.885841 -12.264610 1.147451 54.000000
18.876179 -12.132288 1.143380 54.500000
18.865990 -11.958919 1.138189 55.000000
18.861155 -11.790379 1.133406 55.500000
18.858795 -11.665622 1.129945 54.000000
-11.767996 -11.447871 1.122698 13.000000
11.563451 -11.519132 1.116149 13.000000
18.848774 -11.537019 1.126078 55.000000
-11.680641 -11.434537 1.117786 5.000000
18.837097 -11.367788 1.121090 54.500000
18.832619 -11.204279 1.116612 56.500000
-8.268027 -11.080312 1.187176 16.333334
-2.715468 -10.948115 1.166455 8.000000
18.821667 -11.038236 1.111829 55.500000
8.129278 -10.890461 1.166985 42.500000
18.814775 -10.915318 1.108368 57.000000
-4.158957 -10.761407 1.193062 1.000000
-3.033208 -10.769332 1.156991 8.000000
-2.733794 -10.804050 1.152466 37.000000
7.979181 -10.830595 1.155178 17.000000
8.165113 -10.796239 1.162364 67.000000
8.389179 -10.772494 1.172460 19.000000
18.812260 -10.795727 1.105213 55.000000
-4.028980 -10.724361 1.184696 1.000000
-3.886215 -10.700366 1.177255 1.000000
-3.728829 -10.683556 1.170158 1.000000
-3.572078 -10.691201 1.165666 34.666668
-3.428030 -10.696152 1.161518 2.000000
-3.338824 -10.686874 1.157814 2.000000
-3.269287 -10.699991 1.156991 2.000000
-3.141262 -10.716461 1.154831 38.500000
-2.931282 -10.696442 1.146911 38.750000
-2.827709 -10.679706 1.142454 76.666664
-2.764845 -10.713998 1.144237 60.000000
8.258186 -10.742779 1.163562 60.666668
-9.367996 -10.270058 1.193678 70.000000
-9.183077 -10.259897 1.182384 12.000000
-9.209929 -10.225074 1.181700 20.000000
-9.658991 -10.068784 1.198127 12.000000
-9.885056 -9.676783 1.187860 13.000000
-9.924142 -9.593688 1.185293 18.000000
-9.988539 -9.445626 1.180502 14.000000
-10.347777 -9.216294 1.189914 63.000000
-10.563680 -9.115106 1.198127 37.000000
-10.312707 -9.069509 1.179304 15.000000
-10.584340 -9.017537 1.194020 41.000000
-10.066305 -8.909046 1.154322 30.000000
-10.326693 -8.742191 1.161851 58.000000
-10.270267 -8.367270 1.137553 20.000000
-10.311952 -8.240639 1.133515 36.000000
-9.900714 -8.222586 1.105156 25.333334
-10.476003 -7.862742 1.124777 9.000000
-7.526906 -7.571720 1.104052 5.333333
-11.310998 -7.461063 1.163562 11.000000
-7.563524 -7.513492 1.102475 8.666667
-11.388765 -7.349092 1.163904 12.800000
-11.291046 -7.397097 1.159113 20.000000
-10.622912 -7.249179 1.104357 9.000000
-9.746728 -1.008290 1.186654 178.800003
-9.748081 -0.878573 1.185307 255.000000
-9.755134 -0.724942 1.184634 255.000000
-9.756596 -0.571120 1.183576 255.000000
-9.756172 -0.442044 1.182711 153.399994
7.208879 -0.372796 1.131425 4.666667
7.188734 -0.326439 1.127915 1.000000
6.731632 0.371642 1.177860 0.000000
-9.726382 1.694047 1.195622 18.750000
-9.730884 1.836946 1.199253 17.799999
-10.647326 2.323438 1.126956 6.000000
-12.880374 2.810730 1.132078 12.000000
-12.968755 2.872732 1.140633 6.000000
-12.712674 3.026244 1.122153 7.000000
16.668358 3.403285 1.163360 7.000000
16.091606 3.470310 1.125700 15.000000
16.217066 3.550719 1.135251 12.000000
15.898576 3.585815 1.114511 5.000000
16.174664 3.594723 1.133068 0.000000
16.442856 3.871778 1.155173 12.000000
-17.003977 3.972598 1.194106 41.666668
-16.981647 4.061277 1.194015 37.333332
-12.313345 4.081749 1.113940 36.500000
15.730448 4.123871 1.112055 101.000000
-17.010437 4.190784 1.198018 21.000000
-10.794040 4.210591 1.198136 34.000000
16.272829 4.320744 1.151352 52.000000
-15.709071 4.371275 1.115057 5.000000
16.232199 4.364590 1.149442 93.000000
16.318520 4.442821 1.156537 11.000000
16.289093 4.489822 1.155446 14.000000
-16.948868 4.573098 1.200474 20.500000
-13.035084 4.618526 1.187518 7.000000
-15.541161 4.855412 1.113420 4.000000
16.071470 4.757535 1.146167 7.000000
-11.902779 4.859858 1.104015 3.000000
-9.696949 4.955776 1.126133 57.000000
-8.576708 4.888123 1.195502 6.000000
-15.872116 5.013600 1.138253 14.000000
-12.309588 4.980898 1.140291 7.000000
-9.576535 4.989422 1.116670 63.750000
-15.867306 5.094387 1.139618 6.000000
-15.733108 5.133257 1.131704 11.000000
-15.614574 5.148912 1.124336 23.000000
-9.541501 5.116532 1.119609 53.000000
-16.752457 5.233849 1.200201 28.000000
-15.342455 5.220006 1.108235 0.000000
-10.282354 5.173734 1.190319 5.000000
-10.187983 5.166420 1.181267 43.000000
-6.740769 5.159220 1.178641 56.000000
-15.435671 5.414573 1.118605 1.000000
-11.621909 5.441625 1.101962 0.000000
-7.609510 5.470003 1.134910 6.000000
-7.700104 5.608900 1.153664 10.500000
-7.639219 5.638293 1.149817 36.000000
-7.454176 5.574406 1.127215 11.000000
-7.726656 5.740416 1.165687 78.000000
-7.484338 5.745011 1.142604 30.000000
-11.556369 5.769353 1.109149 2.000000
-7.640561 5.789000 1.160878 6.000000
15.428763 5.975130 1.131431 1.000000
15.585315 5.979522 1.141528 5.000000
15.852360 6.369395 1.168272 22.000000
16.028011 6.381561 1.179734 20.000000
16.337536 6.445409 1.201020 10.000000
15.994996 6.485140 1.180279 13.000000
-8.602246 6.560274 1.118727 7.000000
-12.131611 6.821837 1.195161 60.333332
-8.545654 6.775633 1.127779 0.000000
-12.066711 6.877150 1.192651 75.500000
-12.031395 7.008153 1.195646 62.000000
-8.507913 7.055886 1.143002 111.000000
-8.376904 7.014194 1.129836 112.500000
-10.793661 7.109005 1.109833 3.000000
-10.778577 7.196573 1.112913 20.000000
-11.599544 7.330092 1.178278 9.000000
-19.911125 8.566843 1.104501 1.000000
-10.023121 9.171479 1.166642 67.000000
-9.892143 9.166634 1.158087 54.500000
-9.895412 9.256723 1.163562 19.000000
-9.731590 9.394404 1.161509 13.000000
-19.442373 9.474277 1.102058 20.000000
-9.779211 9.499906 1.170749 9.000000
-9.270732 9.470098 1.138010 57.000000
-9.129457 9.503474 1.131621 60.666668
-19.452290 9.656205 1.106604 13.666667
-9.130839 9.625264 1.139264 58.000000
-9.017288 9.748016 1.140291 46.000000
-9.842596 9.804791 1.192994 23.000000
-9.234510 9.795998 1.156033 32.000000
-8.330047 9.777391 1.102988 32.000000
-9.288866 9.947174 1.168696 36.000000
-8.480049 9.890348 1.118731 60.000000
-8.394563 9.916060 1.115651 34.000000
-8.742404 9.982906 1.139493 33.666668
-9.249905 10.094506 1.175711 24.500000
-9.110426 10.132304 1.170064 22.000000
-8.972490 10.095247 1.159798 35.666668
-9.332161 10.281113 1.192309 61.000000
-8.862558 10.271001 1.164931 50.000000
-9.075085 10.450735 1.188545 28.000000
-8.608829 10.365705 1.157060 112.000000
-8.796908 10.660123 1.186834 83.000000
-18.395615 11.741956 1.112032 16.000000
11.392319 12.026000 1.132795 31.000000
11.169896 12.091990 1.125700 8.000000
11.245867 12.097759 1.129521 5.000000
11.376482 12.123173 1.136889 11.500000
11.537432 12.102801 1.143438 4.000000
11.659352 12.115854 1.149851 6.000000
17.889996 12.295454 1.106129 11.000000
18.020918 12.302257 1.111829 11.000000
18.148748 12.306113 1.117325 13.000000
18.286722 12.315983 1.123431 10.000000
17.596218 12.630247 1.103686 139.000000
17.585979 12.791071 1.108063 255.000000
17.572792 12.951088 1.112338 255.000000
17.570894 13.077869 1.116103 255.000000
17.566498 13.203752 1.119767 118.500000
-8.637124 13.599399 1.101685 18.000000
-8.783013 13.686196 1.112055 40.000000
17.550091 13.672214 1.133609 2.000000
-9.324761 13.850589 1.141801 2.000000
-8.923429 13.809368 1.124336 53.000000
17.543514 13.800463 1.137375 8.000000
17.531433 13.970173 1.142260 16.500000
-8.259231 14.105712 1.117786 110.000000
17.519461 14.141537 1.147248 24.000000
-8.730560 14.185777 1.139072 21.000000
-8.817054 14.427656 1.156265 7.000000
17.287886 14.454916 1.148265 43.000000
-8.970602 14.473733 1.164451 6.000000
-8.760592 14.643674 1.166907 2.000000
17.309635 14.565742 1.152744 255.000000
-7.632904 15.817596 1.201020 7.000000
-7.476032 15.808532 1.195835 16.000000
-9.401450 20.198288 1.135238 1.000000
-9.322589 20.362291 1.141141 7.000000
-9.205178 20.617050 1.150504 13.000000
-8.667557 20.619295 1.139716 13.000000
-9.313406 21.036718 1.172285 32.000000
-8.666378 21.078341 1.161293 20.000000
-8.542712 21.154613 1.162514 18.000000
-9.212927 21.168079 1.176356 3.000000
-8.471036 21.265171 1.166382 6.000000
-7.935351 21.475080 1.166586 1.000000
-8.613262 33.692879 1.167628 1.000000
-8.509332 33.727524 1.167896 1.000000
-9.100376 33.821327 1.175950 1.000000
-8.980722 33.799526 1.174205 1.000000
-8.862328 33.781170 1.172594 1.000000
-8.747127 33.774014 1.171386 1.000000
-9.595313 33.954365 1.184675 2.000000
-9.232849 33.889004 1.179306 1.000000
-9.838473 33.997093 1.188299 1.000000
-9.712939 33.962490 1.186017 1.000000
-10.216964 34.098164 1.195144 1.000000
-10.030240 34.057671 1.192057 2.000000
8.805761 34.596828 1.198634 3.000000
8.574010 -23.054678 1.253369 28.666666
8.745020 -23.106426 1.258899 16.000000
9.518328 -23.047518 1.270603 1.000000
9.605916 -22.918741 1.266261 32.333332
7.993881 -22.499113 1.216660 1.000000
9.543289 -22.504417 1.245566 35.000000
9.664209 -22.494034 1.247499 25.500000
8.191841 -22.385260 1.214625 2.000000
8.388367 -22.269678 1.212589 9.000000
8.480883 -22.093458 1.205872 22.000000
8.584206 -22.051344 1.205770 32.500000
8.722522 -21.997000 1.205770 15.500000
8.804517 -21.901922 1.202819 24.000000
4.456904 -18.097687 1.274565 19.500000
4.966643 -18.130087 1.285481 39.500000
5.366952 -18.130150 1.292986 12.000000
5.069733 -18.024132 1.280387 24.333332
4.512973 -17.900764 1.262421 31.000000
4.700706 -17.930782 1.267606 37.000000
4.748823 -17.885069 1.265423 34.000000
4.815350 -17.908600 1.268152 25.000000
4.569945 -17.772991 1.254917 35.500000
5.327724 -17.792068 1.270063 15.000000
5.341950 -17.637749 1.260238 27.000000
6.150940 -17.408133 1.262558 14.000000
6.199841 -17.286966 1.255872 17.000000
6.313374 -17.261343 1.256873 35.333332
6.461202 -17.327347 1.264605 5.000000
5.238214 -17.005955 1.216848 33.000000
5.354580 -17.003149 1.219031 32.500000
5.445473 -16.950510 1.217484 31.333334
5.604527 -17.016272 1.225125 26.000000
5.634895 -16.870274 1.216302 25.000000
-8.807693 -16.776197 1.295715 1.000000
5.715692 -16.804022 1.213778 19.750000
-8.984175 -16.447371 1.281592 38.250000
-8.866272 -16.507875 1.281388 49.000000
-9.245610 -16.401627 1.287528 5.000000
-10.027317 -15.595179 1.267879 9.000000
-11.034415 -14.755377 1.259965 3.000000
-10.401387 -14.761309 1.234859 11.000000
-11.381845 -14.683921 1.270472 10.500000
-10.149007 -14.499670 1.210298 5.000000
18.960629 -14.360627 1.211979 1.000000
-10.667921 -14.172242 1.213027 0.000000
18.968918 -14.226790 1.208213 46.500000
-11.043836 -14.110065 1.225307 2.000000
18.966843 -14.086021 1.203836 50.000000
-11.062850 -13.952840 1.217666 1.000000
-10.964747 -13.740219 1.202111 7.000000
-4.497150 -13.355300 1.210105 1.000000
-13.321811 -12.797494 1.263240 1.000000
-13.739388 -12.550181 1.272519 0.000000
-13.309310 -12.625648 1.254507 0.000000
-13.487740 -12.012916 1.235132 1.000000
-4.320128 -11.779881 1.297501 1.000000
-4.366174 -11.677975 1.289272 3.000000
-4.395095 -11.588447 1.281660 5.000000
-4.426044 -11.506333 1.274871 4.500000
-9.877174 -11.390468 1.294634 82.000000
-4.504150 -11.365644 1.264262 4.000000
-9.836218 -11.235840 1.282314 52.000000
-9.341515 -11.192158 1.251856 1.000000
-4.532448 -11.201313 1.249567 2.000000
-9.625158 -10.890745 1.248092 23.000000
-4.918794 -10.904108 1.237018 6.500000
-4.438273 -10.870231 1.214183 1.000000
-9.947301 -10.836575 1.263149 62.000000
-4.952985 -10.753675 1.224332 51.333332
-4.769584 -10.798579 1.220766 19.666666
-4.641414 -10.782127 1.213908 7.666667
9.956281 -10.763203 1.259043 55.666668
-9.865014 -10.679390 1.248434 55.000000
-5.047170 -10.735472 1.226732 73.500000
-4.479445 -10.729399 1.202354 0.000000
9.993823 -10.668429 1.255278 60.000000
-10.339900 -10.610575 1.272218 54.500000
-9.418305 -10.589463 1.216949 5.000000
10.084428 -10.630418 1.258244 52.666668
10.218204 -10.636847 1.266572 14.000000
-9.727571 -10.464451 1.226874 51.000000
-10.058711 -10.419739 1.243643 17.000000
-9.844949 -10.392561 1.229269 58.000000
-9.464158 -10.441174 1.210105 88.000000
-10.155207 -10.258531 1.239536 5.000000
-9.980391 -10.145490 1.222082 86.000000
-9.712556 -10.188503 1.208736 40.000000
-9.576314 -10.204887 1.201720 33.500000
-10.732803 -9.865862 1.251856 20.000000
-10.549182 -9.882113 1.241247 37.000000
-10.936059 -9.802033 1.261096 25.000000
-10.816430 -9.756264 1.250829 9.000000
-10.526220 -9.737155 1.231323 16.000000
-10.167305 -9.705908 1.207025 4.000000
-10.288466 -9.577380 1.207025 26.000000
-11.247704 -9.461380 1.262123 1.000000
-10.834301 -9.289403 1.225505 27.000000
-11.314595 -9.218094 1.253225 0.000000
-11.264006 -9.235909 1.250829 2.000000
-11.304457 -9.033922 1.242616 3.000000
7.146855 -7.799442 1.281101 7.000000
-7.528951 -7.573789 1.293284 5.333333
-7.564203 -7.514160 1.291200 8.166667
7.383501 -7.343859 1.261144 12.750000
7.394281 -7.228384 1.252248 2.000000
7.464693 -7.138403 1.250805 5.500000
7.575758 -6.983371 1.247759 1.666667
7.673977 -6.283325 1.201113 6.333333
18.487030 -4.400823 1.299535 36.000000
18.489109 -4.339985 1.298717 3.000000
18.479786 -4.184953 1.295715 24.000000
18.477154 -4.019910 1.293095 51.400002
18.467083 -3.878178 1.290393 53.500000
18.459770 -3.713447 1.287637 52.400002
18.455198 -3.573974 1.285481 55.000000
18.442829 -3.409553 1.282561 6.800000
18.435162 -3.300402 1.280705 2.000000
18.424953 -2.852372 1.274975 1.500000
18.398752 -2.759562 1.272246 5.000000
18.403383 -2.701166 1.271973 6.000000
18.392027 -2.640503 1.270608 33.000000
7.509507 -2.451584 1.238167 18.000000
18.392378 -2.522734 1.269517 64.333336
7.028195 -2.403148 1.240475 16.000000
7.416404 -2.369755 1.220360 13.500000
7.511373 -2.374210 1.234761 5.000000
18.387917 -2.375127 1.267879 63.500000
-9.706795 -2.195647 1.205216 5.000000
7.528862 -2.229445 1.230735 5.000000
18.371630 -2.226478 1.265514 42.333332
-9.727334 -2.091480 1.204928 8.200000
18.369423 -2.079944 1.264195 60.000000
7.214671 -1.867141 1.212593 8.500000
7.484680 -1.866140 1.209056 5.333333
18.363325 -1.933316 1.262694 66.000000
7.559627 -1.826074 1.218966 26.000000
7.611456 -1.813305 1.226399 1.000000
18.355570 -1.757766 1.260966 67.666664
18.350296 -1.611904 1.259692 65.500000
18.342463 -1.466146 1.258328 67.666664
18.379234 -1.352912 1.260238 5.000000
18.375051 -1.149630 1.259010 29.500000
18.443113 -1.241158 1.264059 28.000000
18.360699 -0.946178 1.257236 6.000000
18.352972 -0.859090 1.256418 28.500000
18.396713 -0.774267 1.259147 32.000000
18.249664 -0.653239 1.248777 59.000000
18.300085 -0.578301 1.252051 82.666664
18.282934 -0.481949 1.250687 84.000000
15.036596 -0.349105 1.291554 87.000000
17.999714 -0.389609 1.231175 123.000000
14.878814 -0.267520 1.277865 41.333332
17.997816 -0.276458 1.230902 164.500000
18.006395 -0.135173 1.231379 102.000000
14.486559 0.043016 1.243985 30.666666
14.689913 0.028202 1.261438 97.000000
18.005924 0.006285 1.231311 55.500000
14.649593 0.120175 1.258016 34.000000
18.269098 0.092469 1.249322 26.000000
14.708919 0.166874 1.263149 31.000000
14.911553 0.216028 1.280603 46.000000
15.041842 0.288899 1.291896 58.000000
18.279736 0.322224 1.250232 77.666664
6.969189 0.456175 1.220196 20.625000
14.779512 0.423131 1.269652 3.000000
18.304007 0.437750 1.252051 61.000000
-18.527859 0.527201 1.267515 19.000000
18.248802 0.512920 1.248413 87.666664
-18.530825 0.605017 1.267879 29.000000
18.231264 0.607978 1.247412 0.000000
-18.507805 0.691606 1.266515 34.500000
15.032768 0.690522 1.292238 26.000000
-18.857029 0.813428 1.290712 30.000000
18.231022 0.794384 1.247890 90.250000
-18.786617 0.938528 1.286300 22.500000
18.223993 0.923191 1.247821 111.500000
-18.661161 1.079261 1.278249 29.000000
-18.016369 1.098775 1.234313 12.000000
18.218134 1.066395 1.247958 112.000000
-18.144424 1.221130 1.243592 16.000000
18.208601 1.238153 1.248049 109.333336
-18.267460 1.402400 1.252870 3.000000
18.206978 1.381769 1.248640 107.000000
-18.306366 1.492205 1.256008 20.500000
18.196188 1.524783 1.248686 104.666664
-18.670902 1.610510 1.281524 16.000000
-17.743593 1.586693 1.218212 17.000000
-17.668354 1.663911 1.213573 10.500000
18.183657 1.696458 1.248868 101.000000
-18.746262 1.795153 1.287801 17.000000
-17.839046 1.764849 1.225853 18.000000
-17.723337 1.837781 1.218485 9.500000
18.174442 1.839687 1.249186 101.000000
-9.730055 1.979615 1.202475 14.750000
18.167992 1.983305 1.249777 89.000000
-9.731751 2.059671 1.204639 11.000000
18.159157 2.126788 1.250278 87.000000
18.155716 2.271077 1.251233 84.000000
18.144051 2.443511 1.251960 79.333336
-18.839241 2.463506 1.299263 47.000000
14.855328 2.477934 1.293265 5.000000
-18.813416 2.580446 1.298580 36.000000
-18.783854 2.576406 1.296534 43.000000
14.497035 2.652858 1.265545 29.000000
14.658274 2.634798 1.278892 1.000000
18.141457 2.588385 1.253143 77.000000
14.529634 2.753258 1.269880 18.666666
18.129740 2.732173 1.253780 76.000000
-18.814016 2.761434 1.300354 5.000000
14.655499 2.896585 1.282827 14.000000
18.126152 2.877399 1.255053 74.000000
18.144672 3.012077 1.257782 56.250000
18.110168 3.167252 1.257236 67.500000
18.158634 3.293394 1.262012 26.500000
18.101734 3.371301 1.259147 69.000000
14.637673 3.543931 1.293265 5.000000
18.093197 3.487484 1.260056 67.333336
18.090660 3.624742 1.261694 64.666664
18.136602 3.732807 1.266242 36.000000
14.259192 3.834079 1.267941 18.000000
18.079739 3.810005 1.263513 66.500000
13.671381 3.953797 1.222082 23.000000
18.124023 3.908621 1.267879 28.000000
-18.264128 3.965502 1.278068 31.000000
-18.124945 4.034821 1.269790 48.666668
14.534501 4.006197 1.294634 5.000000
18.099960 3.962978 1.267061 38.000000
18.069483 4.090382 1.266924 61.500000
-18.270897 4.167813 1.281524 22.000000
17.830730 4.228146 1.253143 37.000000
18.056507 4.191916 1.267606 63.000000
-10.923796 4.260992 1.212537 4.500000
-8.950665 4.294207 1.202235 3.000000
13.872333 4.296857 1.247065 0.000000
14.506086 4.294145 1.299083 26.000000
-18.162771 4.383972 1.277704 1.000000
-11.126038 4.420843 1.238047 13.000000
-10.815768 4.455728 1.209657 31.000000
-9.741581 4.449764 1.296971 8.000000
-9.594579 4.455691 1.281101 7.000000
-8.987464 4.364105 1.209929 2.000000
17.587328 4.433950 1.240317 97.000000
18.051941 4.400621 1.270608 33.500000
-18.012280 4.527713 1.270063 40.000000
-11.164099 4.497049 1.244630 13.000000
-9.745586 4.488655 1.299375 3.000000
-9.505346 4.487070 1.272926 6.000000
-9.127196 4.485204 1.231569 13.000000
18.025394 4.524305 1.270881 42.333332
-18.093163 4.638790 1.277294 36.500000
-17.470747 4.567070 1.234859 35.000000
-14.260730 4.636329 1.287675 26.000000
-11.356463 4.636799 1.268494 17.000000
13.925103 4.602592 1.259385 11.000000
-17.961676 4.755745 1.270608 5.000000
-17.012087 4.705113 1.207023 32.500000
-9.013396 4.678123 1.229806 76.666664
18.084541 4.680347 1.277431 16.000000
-17.162609 4.833892 1.219304 50.000000
-11.471762 4.810654 1.286392 10.000000
-11.242672 4.839469 1.265751 16.666666
-11.301957 4.949452 1.275900 8.000000
-9.255366 4.914953 1.269079 64.000000
-17.489914 5.025061 1.244410 41.333332
-11.263367 5.017129 1.275077 0.000000
-9.463977 4.987677 1.295528 58.000000
-9.056941 5.030681 1.254652 3.000000
-8.684345 5.003809 1.213776 28.000000
18.035395 5.032179 1.280433 0.000000
-17.556402 5.153827 1.251233 42.000000
-13.760252 5.120126 1.260754 8.000000
-11.090321 5.093942 1.262048 34.000000
-9.248417 5.155925 1.282304 12.000000
18.017212 5.118764 1.280842 45.000000
-17.332588 5.206583 1.237588 23.500000
-17.166662 5.245095 1.227491 1.000000
-16.989960 5.249526 1.216029 7.000000
17.951586 5.252811 1.279068 39.000000
18.029337 5.214129 1.283435 8.000000
-11.282107 5.282522 1.288243 1.000000
-11.330004 5.413856 1.298530 1.000000
-7.325021 5.390574 1.262810 3.500000
18.003370 5.421837 1.285754 12.500000
-11.223386 5.515295 1.293181 20.000000
-7.560670 5.491175 1.297467 32.500000
-7.390316 5.564961 1.284539 5.000000
18.001484 5.575869 1.288710 16.000000
-8.644500 5.693501 1.253530 9.000000
-7.336351 5.707119 1.290591 2.333333
18.011063 5.734188 1.292577 20.000000
-8.959898 5.760969 1.289998 1.500000
-7.239667 5.816684 1.289491 4.000000
-7.123082 5.797032 1.275187 5.000000
-7.027431 5.792881 1.264552 3.000000
-6.943229 5.797209 1.255933 0.000000
-6.888498 5.825344 1.252632 2.666667
17.981956 5.818414 1.292440 2.000000
-17.578821 5.919343 1.268425 1.000000
-8.786019 5.906188 1.282063 57.000000
-8.675916 5.871676 1.268694 19.799999
-8.516704 5.947957 1.258018 36.333332
-8.056452 5.868409 1.207044 0.000000
-17.573357 6.009884 1.270063 12.000000
-8.442722 5.978907 1.252849 47.750000
17.994423 6.041821 1.298034 14.000000
-17.744673 6.161989 1.284526 0.000000
-8.091583 6.251630 1.238302 9.000000
17.979408 6.194327 1.300422 11.750000
-17.772778 6.328603 1.290120 6.000000
