# This PCD file was generated using the MATLAB® pcwrite function
# from Computer Vision Toolbox®.
# .PCD v.7 - Point Cloud Data file format
VERSION .7
FIELDS x y z intensity
SIZE 4 4 4 4
TYPE F F F F
COUNT 1 1 1 1
WIDTH 1215
HEIGHT 1
VIEWPOINT 0 0 0 1 0 0 0
POINTS 1215
DATA ascii
6.365294 1.472985 -0.120660 39.666668
6.489080 1.451702 -0.122801 40.000000
6.569585 1.571156 -0.124746 44.000000
6.387138 1.634031 -0.121755 42.500000
6.494561 1.612663 -0.123583 40.750000
6.463920 1.762377 -0.123733 44.000000
6.398026 1.830979 -0.122900 35.000000
-8.486935 1.918815 -0.160691 20.333334
6.343223 1.945398 -0.122531 39.500000
6.460322 1.920463 -0.124469 39.500000
6.556870 1.943478 -0.126297 43.000000
6.364281 2.083764 -0.123675 37.000000
6.447246 2.081069 -0.125116 38.666668
6.220162 2.211253 -0.121915 37.000000
6.343447 2.243957 -0.124266 43.500000
6.462129 2.213706 -0.126150 41.000000
6.380655 2.347631 -0.125559 41.500000
6.398813 2.480651 -0.126741 38.000000
6.473057 2.439435 -0.127750 40.666668
6.431956 2.516772 -0.127553 49.000000
-10.138117 3.327326 -0.197054 5.000000
-9.969770 3.370640 -0.194358 17.750000
-9.952692 3.469800 -0.194653 21.000000
-9.974049 3.583108 -0.195724 22.500000
6.257004 3.561612 -0.132963 39.250000
6.283984 3.669147 -0.134385 40.000000
-9.994994 3.725387 -0.196990 19.142857
6.207009 3.729594 -0.133732 37.166668
6.199775 3.872616 -0.134998 39.799999
6.211391 4.016864 -0.136608 39.799999
6.255073 4.157475 -0.138706 50.666668
6.235512 4.215414 -0.139001 50.500000
6.253035 4.328373 -0.140447 48.083336
6.191155 4.460044 -0.140921 46.500000
6.264855 4.483650 -0.142275 42.333332
6.237562 4.583706 -0.142952 46.500000
6.300304 4.569044 -0.143728 42.000000
6.327226 4.773263 -0.146372 41.599998
6.288541 4.916802 -0.147421 39.833332
6.300825 5.087871 -0.149563 44.500000
6.292234 5.229570 -0.151099 42.799999
6.320320 5.371550 -0.153182 47.000000
6.346572 5.515150 -0.155279 47.599998
6.355464 5.682615 -0.157447 54.250000
6.330019 5.804558 -0.158610 48.000000
6.349991 5.990324 -0.161218 50.000000
6.322706 6.116619 -0.162463 41.000000
6.339924 6.269609 -0.164667 44.750000
6.175554 7.475390 -0.179069 67.000000
-7.020816 -39.980202 -0.045342 27.000000
-6.496024 -39.931034 -0.045190 10.000000
-7.303836 -39.873852 -0.045281 30.333334
-6.856450 -39.777374 -0.045087 28.000000
-7.079475 -39.583885 -0.044917 26.000000
15.205900 -38.523544 -0.046262 4.000000
15.294285 -38.393833 -0.046164 50.000000
15.410354 -38.334457 -0.046150 55.000000
15.572811 -38.389641 -0.046276 11.000000
-7.026529 -35.715309 -0.040659 27.500000
-6.616604 -35.700001 -0.040556 9.000000
-6.837770 -35.642006 -0.040539 52.000000
-6.721314 -35.639729 -0.040512 54.000000
-7.149657 -35.458347 -0.040405 16.000000
-7.236931 -35.318153 -0.040270 30.000000
-7.330732 -35.213005 -0.040177 44.000000
-7.539233 -35.107590 -0.040110 2.000000
-7.388351 -34.939342 -0.039891 15.000000
-2.933423 -12.869920 -0.014745 1.000000
-2.954917 -12.778800 -0.014651 0.000000
11.258665 -12.014472 -0.018392 66.666664
11.383531 -11.958025 -0.018442 58.000000
11.504882 -11.972058 -0.018547 12.000000
11.923245 -11.725256 -0.018679 17.000000
11.957569 -11.611995 -0.018618 0.000000
12.189077 -11.688907 -0.018864 28.000000
-2.951499 -11.445561 -0.013203 0.000000
9.968956 -11.439816 -0.016950 44.500000
12.206451 -11.414602 -0.018667 21.000000
-2.964190 -11.347220 -0.013100 1.000000
9.975826 -11.303444 -0.016840 57.500000
12.039402 -11.386642 -0.018510 41.200001
10.010379 -11.235405 -0.016809 59.000000
12.119183 -11.261841 -0.018480 39.000000
-2.967634 -11.145664 -0.012884 13.000000
10.087029 -11.179149 -0.016819 51.333332
10.219568 -11.148766 -0.016894 62.000000
10.318173 -11.150420 -0.016970 44.000000
-2.976736 -10.971340 -0.012698 16.000000
11.936635 -10.987899 -0.018122 31.000000
-2.976223 -10.834650 -0.012551 13.000000
11.919619 -10.834641 -0.017993 45.000000
-2.982437 -10.660652 -0.012365 12.500000
12.432141 -10.640586 -0.018279 39.000000
11.700168 -10.501737 -0.017562 53.000000
12.138350 -10.521988 -0.017944 36.000000
12.330360 -10.553301 -0.018129 30.000000
-2.983962 -10.475280 -0.012166 7.000000
-2.986944 -10.362080 -0.012046 14.000000
11.742860 -10.374554 -0.017503 64.000000
11.870123 -10.354969 -0.017595 41.000000
12.217673 -10.324736 -0.017868 38.000000
12.762210 -10.312523 -0.018328 26.000000
12.900595 -10.357522 -0.018480 17.000000
-2.991481 -10.256645 -0.011934 17.000000
12.229359 -10.236238 -0.017814 34.000000
12.363708 -10.249974 -0.017939 25.000000
12.473256 -10.209177 -0.018005 35.333332
-2.993032 -10.085224 -0.011751 16.000000
-2.995524 -9.921653 -0.011577 17.000000
-2.999310 -9.767870 -0.011414 17.000000
-3.003062 -9.618070 -0.011255 18.000000
-3.004719 -9.466568 -0.011094 18.500000
-3.008839 -9.326671 -0.010947 19.000000
-3.010320 -9.183165 -0.010795 19.000000
-3.012724 -8.999070 -0.010600 20.000000
-3.018464 -8.876832 -0.010473 21.000000
-3.017775 -8.739635 -0.010328 20.500000
-3.022777 -8.579029 -0.010160 21.000000
-3.025207 -8.416826 -0.009991 22.000000
-3.029844 -8.266207 -0.009834 22.000000
-3.030624 -8.110241 -0.009671 22.500000
-3.034541 -7.967683 -0.009524 23.000000
-3.036793 -7.825398 -0.009376 22.000000
-3.041046 -7.692709 -0.009240 22.500000
-3.043798 -7.526455 -0.009069 23.000000
-3.046849 -7.366768 -0.008905 24.000000
-3.047295 -7.238721 -0.008773 24.500000
-3.050812 -7.152527 -0.008686 25.000000
-3.053501 -7.066478 -0.008599 25.500000
-3.055802 -6.922144 -0.008452 25.000000
-3.057663 -6.753353 -0.008281 26.666666
-3.060603 -6.620797 -0.008147 25.000000
-3.063229 -6.492263 -0.008019 27.666666
-3.067704 -6.320854 -0.007848 26.500000
-3.072491 -6.157287 -0.007687 14.000000
-3.073985 -6.017625 -0.007548 35.000000
-11.160040 -5.849216 -0.014074 2.000000
-3.077935 -5.865415 -0.007399 39.000000
-3.080326 -5.716174 -0.007253 39.666668
-3.082736 -5.573182 -0.007114 41.000000
-11.078241 -5.412929 -0.013773 7.500000
-3.087202 -5.419302 -0.006967 42.250000
-11.594573 -5.308408 -0.014244 2.000000
-11.771924 -5.255976 -0.014400 1.000000
-11.694180 -5.287448 -0.014336 8.000000
-11.146437 -5.252150 -0.013764 21.500000
-9.997978 -5.240155 -0.012609 14.000000
-11.829694 -5.104467 -0.014392 11.000000
-9.819212 -5.107205 -0.012363 58.000000
-9.787024 -5.012586 -0.012283 34.000000
-9.646823 -4.979095 -0.012126 19.000000
-9.703319 -4.823059 -0.012104 20.833334
-9.634076 -4.845417 -0.012046 19.000000
-10.970035 -4.774461 -0.013364 2.000000
-10.771722 -4.748629 -0.013149 24.000000
-10.687140 -4.771636 -0.013073 25.000000
-10.981428 -4.697573 -0.013342 40.000000
-9.676689 -4.665425 -0.012000 22.333334
-10.088770 -4.580717 -0.012376 20.000000
-11.732368 -4.461396 -0.014021 5.000000
-10.493523 -4.372330 -0.012698 45.000000
-10.361736 -4.355671 -0.012555 39.000000
9.000771 -4.351096 -0.011167 9.333333
-10.614591 -4.247610 -0.012771 56.500000
-10.744257 -4.188975 -0.012881 33.333332
-9.898727 -4.197684 -0.012010 5.000000
-9.615069 -4.148866 -0.011697 10.000000
-9.588068 -4.190923 -0.011688 18.500000
-9.738519 -4.014627 -0.011766 62.799999
-9.821261 -3.770027 -0.011751 12.000000
-9.788190 -3.722095 -0.011697 14.000000
-9.826587 -3.631067 -0.011702 29.000000
-9.738857 -3.621994 -0.011606 25.666666
-9.708044 -3.500842 -0.011528 29.500000
-9.592521 -3.408198 -0.011371 28.000000
-3.207411 -3.464220 -0.087190 31.500000
-11.654156 -3.313242 -0.013534 8.500000
-9.583945 -3.320700 -0.011330 29.750000
-9.538568 -3.171286 -0.011228 31.750000
-9.597077 -3.007537 -0.011234 36.000000
-9.497662 -3.058521 -0.011146 41.000000
-5.532221 -2.954993 -0.007006 32.250000
-10.274910 -2.816652 -0.011901 52.000000
-9.891432 -2.828849 -0.011492 27.000000
-9.714140 -2.844157 -0.011306 33.000000
-9.565404 -2.874181 -0.011157 31.500000
-9.901306 -2.764492 -0.011483 56.000000
-10.018034 -2.678712 -0.011583 51.000000
-10.741540 -2.566923 -0.012336 8.000000
-10.601249 -2.568629 -0.012184 2.000000
-9.690938 -2.445056 -0.011164 34.333332
-9.591257 -2.419810 -0.011049 48.000000
-9.394099 -2.464494 -0.010848 24.000000
-9.463842 -2.277300 -0.010873 23.000000
-10.506276 -2.129887 -0.011974 7.000000
-9.404837 -2.060904 -0.010755 98.000000
-9.220248 -2.091531 -0.010561 36.333332
-9.130202 -2.091211 -0.010463 33.666668
-9.676808 -1.993406 -0.011036 40.000000
-9.293679 -1.975386 -0.010613 33.666668
-9.599901 -1.836473 -0.010918 39.000000
-9.400778 -1.844361 -0.010701 35.000000
-9.343942 -1.863712 -0.010643 34.000000
-9.717453 -1.795738 -0.011038 38.500000
-9.527008 -1.714181 -0.010813 37.000000
-9.846374 -1.675996 -0.011157 36.000000
-9.783634 -1.686432 -0.011090 34.666668
-11.774391 -1.550130 -0.013266 10.000000
-9.756506 -1.550454 -0.011035 37.000000
-10.000717 -1.412631 -0.011282 37.000000
-9.899945 -1.493692 -0.011184 48.000000
-9.766615 -1.410870 -0.011023 61.000000
-9.599893 -1.417591 -0.010839 50.000000
-11.642521 -1.310032 -0.013087 5.000000
-10.311267 -1.324561 -0.011612 48.000000
-10.141715 -1.373992 -0.011432 32.000000
-11.618745 -1.270409 -0.013056 0.000000
-10.279656 -1.287688 -0.011572 37.000000
-9.863681 -1.159590 -0.011094 25.000000
-11.477512 -1.054644 -0.012875 19.000000
-11.390111 -1.052621 -0.012777 34.000000
-10.003613 -1.055721 -0.011236 35.400002
-11.566223 -0.934775 -0.012962 36.500000
-10.000669 -0.987605 -0.011225 22.000000
-11.095823 -0.896646 -0.012435 72.000000
-10.818024 -0.805814 -0.012117 51.000000
-9.632793 -0.824123 -0.010799 6.000000
-11.554385 -0.769474 -0.012935 28.500000
-11.604012 -0.681273 -0.012984 20.000000
-11.198722 -0.622184 -0.012528 16.000000
-10.671593 -0.660182 -0.011943 45.000000
-10.501910 -0.616569 -0.011751 9.000000
-9.717418 -0.601153 -0.010875 3.000000
-9.636638 -0.641745 -0.010788 3.000000
-10.726988 -0.528389 -0.011997 30.000000
-10.536798 -0.485845 -0.011782 61.000000
-9.510919 -0.498434 -0.010638 23.250000
-9.359362 -0.402090 -0.010464 24.000000
-9.772996 -0.312229 -0.010922 26.500000
-9.385122 -0.358900 -0.010491 28.500000
-10.512944 -0.253259 -0.011746 60.000000
-10.020279 -0.272889 -0.011197 74.000000
-10.563537 -0.171482 -0.011801 61.500000
-11.079968 -0.023204 -0.012376 27.000000
-10.335742 -0.070386 -0.011545 32.500000
-10.723988 0.011230 -0.011979 31.000000
-10.559901 0.044236 -0.011796 33.000000
-10.291718 0.075444 -0.011496 77.000000
-10.502520 0.175987 -0.011733 4.000000
-10.211241 0.122927 -0.011407 30.000000
-7.915106 0.162447 -0.008843 8.400000
-0.076913 0.184145 -0.011178 1.000000
-7.908911 0.239130 -0.008838 17.428572
-0.151989 0.311590 -0.092162 1.250000
-11.181363 0.421758 -0.012499 34.333332
-11.034306 0.462473 -0.012336 52.000000
-10.300032 0.496548 -0.011519 19.000000
-10.233610 0.461128 -0.011443 12.000000
-0.070604 0.435519 -0.006592 56.132652
-10.435373 0.552338 -0.011673 30.500000
-0.084984 0.588388 -0.015559 76.250000
-10.761999 0.688403 -0.012046 18.000000
-10.635340 0.629965 -0.011901 21.500000
-0.100738 0.680341 -0.035113 71.909088
-10.556189 0.747453 -0.011821 18.833332
0.073259 0.708514 -0.010799 37.331520
0.101923 0.745365 -0.005223 1.000000
-11.252263 0.897429 -0.012609 42.000000
-10.684697 0.818393 -0.011970 42.000000
-0.118952 0.880512 -0.096040 90.533333
0.067690 0.856974 -0.057354 55.858334
0.106348 0.825101 -0.008094 1.875000
-11.113853 0.921535 -0.012457 33.000000
-10.963448 0.943755 -0.012292 61.000000
-10.769190 0.961123 -0.012077 80.000000
-0.175058 0.979576 -0.004567 11.000000
6.511358 0.919748 -0.007345 27.000000
-11.307808 1.045015 -0.012685 42.000000
-11.248724 1.075203 -0.012622 14.000000
-11.177771 1.115700 -0.012548 40.666668
6.481511 1.194349 -0.007362 21.000000
6.569221 1.189059 -0.007457 27.000000
6.480472 1.351886 -0.007395 27.400000
6.660421 1.503434 -0.007627 22.000000
6.551251 1.642118 -0.007544 29.000000
6.623721 1.789814 -0.007664 29.000000
6.310791 1.890927 -0.007359 22.000000
6.509056 1.824728 -0.007551 33.666668
-8.483483 1.919618 -0.009716 16.000000
6.506505 1.983034 -0.007598 33.000000
6.680178 1.910464 -0.007761 26.000000
6.370434 2.062507 -0.007480 30.000000
6.518912 2.076970 -0.007643 33.500000
6.259663 2.190863 -0.007408 24.000000
6.595424 2.101021 -0.007732 21.500000
6.407578 2.276597 -0.007596 28.000000
6.575187 2.220463 -0.007752 31.000000
6.710536 2.219298 -0.007895 53.000000
6.449557 2.337254 -0.007663 8.000000
6.584645 2.456660 -0.007850 25.000000
6.611090 2.442893 -0.007873 47.000000
-10.141001 3.324348 -0.011921 5.000000
-9.968032 3.371996 -0.011754 18.250000
6.334534 3.307389 -0.007982 47.500000
-9.953777 3.472127 -0.011776 21.000000
-9.970409 3.583774 -0.011835 23.750000
-9.991757 3.726171 -0.011912 17.714285
6.200958 3.791026 -0.008118 35.000000
6.317773 3.700817 -0.008179 43.750000
6.245008 3.872069 -0.008208 35.000000
6.312139 3.868158 -0.008270 38.333332
6.187221 3.985938 -0.008221 35.500000
6.306686 4.007030 -0.008346 41.000000
6.303877 4.159895 -0.008437 39.799999
6.343732 4.323430 -0.008575 41.250000
6.338894 4.455213 -0.008655 41.000000
6.409929 4.465162 -0.008726 39.000000
6.342894 4.634770 -0.008775 38.599998
6.404961 4.658610 -0.008847 42.500000
6.328851 4.803841 -0.008875 38.599998
6.339339 4.938580 -0.008976 40.666668
6.339535 5.084391 -0.009078 38.833332
6.305207 5.204884 -0.009133 40.000000
6.336862 5.349496 -0.009263 42.000000
6.328769 5.497568 -0.009364 40.599998
6.344895 5.671104 -0.009506 42.500000
6.316207 5.808108 -0.009585 43.599998
6.312438 5.990267 -0.009721 43.599998
6.332435 6.162350 -0.009870 41.000000
6.293985 6.261275 -0.009917 41.750000
6.317842 6.424667 -0.010065 42.666668
6.241961 6.550125 -0.010107 46.000000
6.331060 6.560701 -0.010184 42.666668
6.321567 6.739009 -0.010321 43.250000
6.362612 6.933767 -0.010512 42.333332
6.311236 7.009338 -0.010536 40.000000
6.310317 7.129587 -0.010635 33.571430
6.443345 7.111006 -0.010719 45.000000
6.334464 7.261333 -0.010764 8.000000
6.144671 7.435590 -0.010775 43.500000
6.272596 8.121700 -0.011463 46.000000
-19.723833 8.486260 -0.023984 5.000000
-19.628244 8.813045 -0.024034 12.000000
-18.864845 8.865011 -0.023283 3.000000
-16.120930 9.083678 -0.020669 2.000000
-19.101210 9.159971 -0.023663 37.000000
-19.011120 9.190335 -0.023587 39.000000
-16.050571 9.110582 -0.020616 7.000000
-15.943245 9.149295 -0.020533 18.500000
-19.918592 9.271365 -0.024541 38.333332
-19.650372 9.271913 -0.024270 36.000000
-19.534454 9.292357 -0.024163 37.000000
-18.584770 9.237598 -0.023182 52.000000
-15.946696 9.251410 -0.020593 17.000000
-19.193947 9.390537 -0.023868 49.500000
-10.142919 9.395679 -0.015444 10.500000
-18.676273 9.430019 -0.023370 43.000000
-10.033295 9.441739 -0.015389 11.666667
-10.021517 9.580135 -0.015486 17.000000
-18.741245 9.611032 -0.023526 39.500000
-18.832474 9.770163 -0.023698 29.000000
-10.009026 9.719888 -0.015585 13.000000
-18.915115 9.888585 -0.023841 39.000000
-18.781330 9.893892 -0.023712 42.000000
-18.552298 9.847829 -0.023462 34.000000
-10.004892 9.838645 -0.015674 10.000000
6.150239 9.873087 -0.012993 45.000000
6.313220 9.890812 -0.013107 51.000000
-18.449257 9.904892 -0.023390 29.500000
-16.919048 9.934228 -0.021916 27.333334
-16.842871 9.984672 -0.021871 43.000000
6.253495 9.968925 -0.013145 44.000000
-18.434124 10.046369 -0.023451 33.500000
-16.862938 10.068291 -0.021938 48.000000
-16.500935 10.064306 -0.021590 47.000000
6.164075 10.058775 -0.013178 47.333332
-18.353289 10.114852 -0.023408 32.000000
-18.279457 10.149157 -0.023354 38.000000
-18.119331 10.159712 -0.023204 26.666666
-16.801613 10.139319 -0.021920 48.500000
-16.503317 10.137037 -0.021634 43.000000
6.097467 10.139870 -0.013216 40.000000
6.188134 10.145753 -0.013275 51.000000
-16.566641 10.247749 -0.021759 45.000000
6.084630 10.264002 -0.013328 45.000000
-17.685783 10.334739 -0.022881 11.000000
-16.663383 10.380109 -0.021929 46.000000
-10.308582 10.395309 -0.016353 1.000000
6.125266 10.332844 -0.013418 46.000000
-10.301468 10.486609 -0.016420 15.000000
6.077952 10.476586 -0.013529 45.000000
6.102763 10.443626 -0.013511 45.000000
-16.754742 10.546944 -0.022115 39.000000
-9.884556 10.581360 -0.016174 12.000000
6.106896 10.603082 -0.013668 45.000000
-9.727064 10.780277 -0.016219 0.000000
6.133045 10.765560 -0.013840 49.000000
-16.983318 10.802909 -0.022483 68.000000
-16.541355 10.840840 -0.022091 22.500000
6.087203 10.803045 -0.013851 46.000000
-9.275353 11.093204 -0.016152 4.000000
6.158986 11.092834 -0.014173 46.333332
-17.344385 11.147765 -0.023031 37.000000
6.108383 11.166442 -0.014217 48.000000
-16.667814 11.276473 -0.022479 38.000000
-17.498011 11.363343 -0.023305 26.000000
-16.955481 11.393612 -0.022818 55.000000
-15.799887 11.353372 -0.021733 69.000000
-13.895065 11.372982 -0.020057 8.000000
6.137937 11.390062 -0.014453 43.666668
-17.376152 11.440069 -0.023238 9.000000
-17.276785 11.452607 -0.023153 29.000000
-17.147564 11.444650 -0.023028 46.000000
-16.741400 11.403095 -0.022626 37.000000
-16.634727 11.445574 -0.022555 38.500000
-16.396868 11.472681 -0.022354 48.000000
-15.796554 11.426394 -0.021777 70.000000
-14.813484 11.478108 -0.020933 15.500000
-10.038311 11.482838 -0.017037 63.000000
-9.918247 11.417683 -0.016894 12.000000
-9.691265 11.443737 -0.016751 26.000000
-16.445930 11.507046 -0.022421 49.000000
6.151374 11.588563 -0.014655 44.000000
-16.451714 11.665714 -0.022528 50.000000
-16.375917 11.689450 -0.022474 51.000000
-15.343776 11.621255 -0.021500 96.000000
-14.848577 11.693030 -0.021111 9.666667
-14.615370 11.658944 -0.020884 4.000000
-14.538118 11.672252 -0.020826 38.000000
-14.412437 11.670899 -0.020715 34.333332
-9.919173 11.638513 -0.017081 12.000000
-9.554225 11.662982 -0.016841 31.400000
6.141038 11.657376 -0.014718 42.000000
-15.854029 11.774243 -0.022059 44.000000
-15.768907 11.788064 -0.021992 46.000000
-13.905742 11.713850 -0.020309 12.000000
-13.861059 11.788344 -0.020325 1.000000
-13.309661 11.758833 -0.019838 36.000000
-10.834355 11.708234 -0.017819 37.000000
-10.391323 11.736997 -0.017510 38.000000
6.134063 11.763380 -0.014819 36.000000
-16.274717 11.850338 -0.022488 47.000000
-16.189016 11.865934 -0.022421 48.000000
-13.790156 11.840496 -0.020303 4.500000
-13.637016 11.858658 -0.020187 4.500000
-10.870619 11.821713 -0.017939 38.000000
-9.568179 11.815722 -0.016983 28.000000
-16.154882 11.919108 -0.022425 55.000000
-10.531423 11.970797 -0.017810 34.000000
-9.940844 11.965303 -0.017376 73.000000
6.131148 11.955520 -0.015008 7.500000
-10.397220 12.045300 -0.017774 25.000000
-11.501019 12.119551 -0.018663 8.000000
-10.991353 12.130307 -0.018285 27.333334
-9.599846 12.164239 -0.017309 50.000000
-11.509322 12.282043 -0.018802 13.000000
-11.162615 12.216057 -0.018484 24.000000
-10.489537 12.229712 -0.017997 36.000000
-9.879557 12.278912 -0.017604 18.000000
-9.707671 12.221723 -0.017434 39.000000
-9.550648 12.299246 -0.017394 41.500000
-11.005563 12.352377 -0.018480 4.000000
-10.389264 12.346391 -0.018024 5.000000
-9.885893 12.366125 -0.017685 37.000000
-16.211817 12.423635 -0.022815 34.400002
-15.915422 12.452394 -0.022573 34.000000
-16.099733 12.515265 -0.022778 19.000000
-15.889084 12.593489 -0.022647 30.333334
-11.279304 12.579818 -0.018873 5.000000
-9.808393 12.509113 -0.017756 46.000000
-8.305638 12.586600 -0.016845 14.000000
-9.716887 12.635877 -0.017805 48.000000
-9.674716 12.663160 -0.017801 62.000000
-9.570257 12.649598 -0.017718 30.500000
-9.476612 12.732395 -0.017729 28.000000
-8.342798 12.729723 -0.017001 38.000000
-9.619699 12.840213 -0.017921 17.000000
-10.491387 13.039331 -0.018694 3.000000
-15.880357 13.165414 -0.023042 49.000000
-16.245794 13.212012 -0.023390 26.000000
-9.751110 13.230909 -0.018359 24.000000
-16.260626 13.351852 -0.023502 37.000000
-15.961774 13.317739 -0.023220 66.000000
-15.222263 13.363672 -0.022626 37.000000
-15.162222 13.395535 -0.022599 10.000000
-14.995960 13.374924 -0.022445 47.000000
-9.735818 13.341355 -0.018449 31.000000
-14.927882 13.483706 -0.022470 48.500000
-9.725491 13.460053 -0.018549 39.500000
-9.394368 13.486571 -0.018359 32.000000
-9.151658 13.473826 -0.018194 23.000000
-9.022853 13.488359 -0.018127 22.000000
-16.100594 13.519576 -0.023484 22.000000
-13.094037 13.540337 -0.021040 5.000000
-9.521669 13.578164 -0.018525 24.000000
-9.279997 13.502473 -0.018301 31.000000
-16.122194 13.624316 -0.023578 39.000000
-16.013689 13.662454 -0.023513 37.500000
-13.264832 13.631001 -0.021246 12.000000
-12.751186 13.607157 -0.020830 4.000000
-9.685025 13.628257 -0.018676 47.599998
-9.458927 13.670617 -0.018569 43.000000
6.622127 13.643749 -0.016941 43.750000
-15.929431 13.720834 -0.023484 47.000000
-15.047481 13.720980 -0.022747 39.000000
-13.191877 13.770910 -0.021301 16.500000
6.482831 13.739285 -0.016970 45.333332
-15.953617 13.873161 -0.023616 42.500000
-12.301430 13.806828 -0.020656 4.000000
6.330087 13.806976 -0.016966 38.500000
6.195392 13.915069 -0.017014 39.666668
-13.216490 14.015194 -0.021518 8.000000
6.066338 14.099636 -0.017145 40.666668
6.143143 14.034384 -0.017113 43.000000
-15.443433 14.171148 -0.023413 26.000000
-12.932660 14.153145 -0.021415 0.000000
-13.077233 14.221390 -0.021581 1.000000
-12.344689 14.210953 -0.021027 8.000000
-10.670166 14.242360 -0.019878 8.000000
-12.716710 14.363521 -0.021429 2.000000
-9.108994 14.386753 -0.019020 27.000000
-8.909766 14.369974 -0.018886 51.000000
-8.666538 14.378030 -0.018752 0.000000
6.050421 14.309417 -0.017354 57.000000
-12.475097 14.452544 -0.021326 15.000000
-12.390570 14.446118 -0.021259 9.000000
-12.278839 14.499217 -0.021223 32.000000
-10.290348 14.479918 -0.019843 23.000000
-8.767707 14.443054 -0.018873 96.000000
-12.192663 14.582269 -0.021232 49.000000
-9.304669 14.594164 -0.019333 23.000000
-9.140397 14.537207 -0.019181 35.000000
-8.890239 14.541706 -0.019038 108.000000
-12.185139 14.666650 -0.021299 5.000000
-9.951495 14.676211 -0.019807 9.000000
-9.458723 14.699726 -0.019525 66.333336
-9.134935 14.630314 -0.019266 32.000000
6.052361 14.698689 -0.017756 53.000000
6.143049 14.656682 -0.017752 50.000000
-12.177200 14.751126 -0.021366 0.000000
-9.921198 14.781065 -0.019885 17.500000
-9.088966 14.762358 -0.019364 50.000000
5.716955 14.731556 -0.017651 35.000000
5.841568 14.709096 -0.017679 38.333332
6.132269 14.760869 -0.017854 38.000000
-9.688374 14.884644 -0.019838 77.000000
5.649867 14.834486 -0.017731 38.000000
6.028977 14.840042 -0.017892 44.500000
-9.943336 14.965917 -0.020070 44.000000
5.590170 14.959612 -0.017839 39.000000
5.540744 15.116522 -0.017984 36.500000
5.545635 15.353129 -0.018234 30.000000
-9.251645 15.421745 -0.020088 44.666668
-10.268589 15.561313 -0.020826 9.000000
-10.001390 15.686955 -0.020781 0.000000
-9.219684 15.626956 -0.020267 42.000000
-10.324898 15.754078 -0.021040 2.000000
-9.264405 15.702641 -0.020365 37.500000
-9.169575 15.767564 -0.020374 42.000000
-10.221365 15.811923 -0.021031 1.000000
-9.284492 16.198435 -0.020855 37.666668
-9.194981 16.278585 -0.020884 8.000000
-9.214732 16.803188 -0.021406 42.000000
-9.202052 16.905836 -0.021500 68.000000
-9.428023 17.064758 -0.021777 74.000000
-9.608040 17.262234 -0.022068 37.000000
-9.358038 17.321779 -0.021992 51.000000
-9.244538 17.910957 -0.022514 36.000000
-9.131806 17.968620 -0.022514 31.000000
-8.589555 18.008369 -0.022287 25.000000
-9.081377 18.150915 -0.022671 28.000000
-8.559543 18.389517 -0.022657 24.000000
-8.422191 18.395651 -0.022599 26.000000
-9.018782 18.458521 -0.022948 26.000000
-8.888758 18.485985 -0.022912 23.000000
-8.692973 18.448467 -0.022780 27.000000
-8.969466 18.504763 -0.022970 27.000000
-8.548676 18.518005 -0.022783 24.000000
-8.337643 18.517508 -0.022684 17.000000
-8.271269 18.525351 -0.022662 14.000000
-8.470188 18.655121 -0.022885 23.000000
-8.475356 19.143768 -0.023386 9.000000
-9.252502 20.463409 -0.025086 7.500000
-9.174715 20.548820 -0.025137 13.000000
-8.937545 20.535349 -0.025017 28.000000
-9.164407 20.877092 -0.025468 35.000000
-9.296335 20.998161 -0.025651 7.000000
-9.026157 21.009058 -0.025542 41.000000
-8.974733 21.163687 -0.025678 24.000000
-8.753545 21.385847 -0.025812 4.000000
-8.897026 21.543098 -0.026035 11.000000
-9.018504 21.644276 -0.026192 33.000000
-8.822727 23.647755 -0.028193 7.000000
-8.730362 23.626581 -0.028135 5.000000
-9.032261 23.752626 -0.028385 26.000000
-8.089658 23.954903 -0.028242 5.000000
-7.697750 24.033300 -0.028189 4.000000
-7.575100 24.441008 -0.028582 3.000000
-8.001146 24.713022 -0.029015 11.000000
-7.899385 25.068821 -0.029360 18.000000
-7.679968 25.057465 -0.029275 1.000000
-8.077209 25.218014 -0.029578 1.000000
-7.588965 25.327461 -0.029534 1.000000
-7.495731 25.305155 -0.029480 6.000000
-7.083346 25.369686 -0.029422 7.000000
-9.272104 27.743584 -0.032675 14.000000
-9.221328 27.882711 -0.032804 2.000000
-8.766370 28.284630 -0.033077 21.000000
-8.720843 28.453531 -0.033242 12.000000
-8.698030 28.863857 -0.033673 30.500000
-8.582942 28.975513 -0.033756 9.000000
10.108453 30.036657 -0.035400 64.000000
9.949576 30.190754 -0.035508 69.000000
10.031735 30.121399 -0.035463 60.000000
-8.646038 30.231937 -0.035123 6.000000
-8.350081 30.273525 -0.035079 31.000000
9.870801 30.271301 -0.035566 50.000000
-8.578204 30.355183 -0.035235 7.000000
-8.368293 30.907093 -0.035767 26.000000
-8.237990 31.004208 -0.035834 35.000000
-8.271493 31.529041 -0.036410 12.000000
-7.853378 31.545097 -0.036312 11.000000
-8.158424 31.913670 -0.036794 20.000000
-8.059109 31.943024 -0.036799 14.000000
-7.555458 32.061775 -0.036794 13.000000
-7.899272 32.160065 -0.036991 20.000000
-7.458308 32.100941 -0.036812 2.000000
10.155836 32.171032 -0.037683 16.000000
10.244692 32.100861 -0.037639 41.000000
-8.341876 32.209282 -0.037165 25.000000
-7.810435 32.235260 -0.037049 9.000000
10.421631 32.304543 -0.037916 35.000000
-7.480663 32.662277 -0.037429 1.000000
9.417290 32.669762 -0.037978 25.000000
9.958486 32.613453 -0.038090 24.000000
10.084497 32.658443 -0.038179 53.000000
9.325565 32.737652 -0.038023 10.000000
9.920411 33.234982 -0.038742 56.000000
9.828404 33.308182 -0.038792 11.000000
9.603909 33.714787 -0.039158 19.000000
9.858113 33.799694 -0.039328 25.000000
9.748557 33.818970 -0.039314 5.000000
8.878417 33.987476 -0.039238 50.000000
8.994356 33.994221 -0.039279 57.000000
9.328114 33.958084 -0.039337 57.000000
9.488564 33.915634 -0.039339 53.500000
9.253854 34.106895 -0.039475 57.000000
8.826534 34.228233 -0.039484 16.000000
9.165295 34.205345 -0.039556 27.000000
8.761384 34.422478 -0.039676 25.000000
8.719463 34.713634 -0.039980 20.000000
8.515431 34.826019 -0.040047 9.000000
7.967358 34.955479 -0.040047 15.000000
8.659440 34.938869 -0.040208 19.000000
7.868022 35.027172 -0.040101 12.000000
8.418630 35.392506 -0.040637 12.000000
8.552285 35.459209 -0.040744 12.000000
9.317951 36.133892 -0.041682 8.000000
8.752986 36.291348 -0.041700 14.000000
8.400652 36.329361 -0.041651 15.000000
8.515656 36.306683 -0.041656 27.000000
8.913508 36.454060 -0.041919 22.000000
8.081226 36.512367 -0.041772 6.000000
8.683361 36.505455 -0.041915 8.000000
8.446866 38.164391 -0.043662 13.000000
8.645619 38.488907 -0.044064 2.000000
8.755826 38.414757 -0.044010 9.000000
8.352199 38.893280 -0.044435 19.000000
8.242384 38.978031 -0.044502 27.000000
-3.091127 -5.271039 0.046198 44.250000
-3.093577 -5.126474 0.045277 45.625000
-3.097577 -4.972929 0.044305 46.799999
-3.100134 -4.814406 0.048777 48.222221
-3.101704 -4.672242 0.036935 50.111111
-3.106052 -4.529757 0.041536 52.400002
-3.108755 -4.376527 0.044772 55.090908
-3.111759 -4.225453 0.035489 54.545456
-3.114904 -4.078946 0.042771 10.454545
-3.113160 -3.922289 0.034461 33.384617
-3.130494 -3.781906 0.033716 50.846153
-3.128006 -3.626457 0.039306 42.769230
-3.130355 -3.476899 0.035239 41.142857
-3.129082 -3.325483 0.034477 45.642857
-3.129605 -3.172817 0.033690 77.062500
-3.162574 -3.020331 0.033065 96.636360
-5.420258 -2.950313 0.100177 26.000000
-5.359759 -2.943549 0.035554 29.400000
-5.230930 -2.939117 0.052815 30.428572
-5.043306 -2.943281 0.069361 30.937500
-4.914999 -2.930946 0.043274 32.750000
-4.767822 -2.925041 0.042334 34.375000
-4.625276 -2.921589 0.036225 36.888889
-4.481380 -2.923486 0.045735 37.555557
-4.335630 -2.919877 0.039605 39.799999
-4.177511 -2.919480 0.038619 42.166668
-4.015255 -2.920280 0.037627 44.083332
-3.872068 -2.923258 0.032960 46.000000
-3.731440 -2.925617 0.035922 46.000000
-3.573550 -2.925859 0.032243 49.466667
-3.417251 -2.930783 0.034053 57.142857
-3.269192 -2.940176 0.033241 62.250000
-0.046680 0.271633 0.043030 8.076930
-0.005459 0.431957 0.005936 110.127518
0.032621 0.574166 0.003845 93.072289
-2.949923 -11.902269 0.199055 0.000000
-2.961969 -11.792090 0.197367 0.000000
-2.967091 -11.506025 0.192887 0.000000
-2.961535 -11.052599 0.185746 0.000000
-2.967968 -10.939022 0.183993 2.000000
-2.973713 -10.825516 0.182240 2.000000
-2.973420 -10.692815 0.180162 2.000000
-2.980662 -10.526690 0.177598 6.000000
-2.993199 -10.383779 0.175423 10.000000
-2.993328 -10.262980 0.173540 4.000000
-2.993784 -10.087734 0.170813 13.000000
-2.997443 -9.928010 0.168346 13.000000
-3.000680 -9.772324 0.165944 13.500000
-3.002669 -9.616809 0.163542 14.000000
-3.006137 -9.471046 0.161302 15.000000
-3.008444 -9.325447 0.159062 15.000000
-3.011178 -9.185760 0.156920 15.500000
-3.013593 -9.001684 0.154096 17.000000
-3.018068 -8.875669 0.152180 18.000000
-3.019984 -8.746053 0.150200 19.000000
-3.023042 -8.579790 0.147668 19.500000
-3.028195 -8.425131 0.145331 20.500000
-3.029459 -8.265119 0.142896 21.000000
-3.032330 -8.114796 0.140624 21.500000
-3.036275 -7.972246 0.138482 22.000000
-3.040009 -7.833695 0.136404 23.000000
-3.041374 -7.693563 0.134294 23.000000
-3.045398 -7.530412 0.131859 23.333334
-3.047972 -7.369500 0.129457 24.500000
-3.051167 -7.216418 0.127185 24.333334
-3.054687 -7.069223 0.125010 25.500000
-3.055401 -6.921236 0.122813 25.666666
-3.059119 -6.745253 0.171507 27.400000
-3.063079 -6.609898 0.193968 26.799999
-3.066268 -6.472414 0.157663 28.000000
-3.068691 -6.312032 0.183568 29.428572
-3.071723 -6.155746 0.171347 30.500000
-3.074731 -6.019102 0.168337 31.833334
-3.077014 -5.873214 0.157005 33.428570
-3.080662 -5.729193 0.170112 36.714287
-3.084824 -5.576928 0.158696 38.375000
-3.087866 -5.420460 0.155336 40.000000
-10.122448 -5.244720 0.185064 25.500000
-10.141716 -5.194247 0.184967 27.000000
-3.095646 -5.129921 0.201171 44.250000
10.711382 -5.115974 0.192693 10.000000
-10.008236 -5.086254 0.182240 54.000000
-10.167099 -4.987411 0.183831 1.000000
-9.898421 -4.978412 0.179859 40.000000
-3.099422 -4.975885 0.196828 45.599998
-10.890841 -4.821611 0.193342 5.000000
-10.773386 -4.810144 0.191524 11.000000
-3.103538 -4.812355 0.192265 42.400002
-9.811037 -4.736540 0.176851 2.500000
-10.183947 -4.636667 0.181645 26.833334
-3.102346 -4.664302 0.188084 33.000000
8.779039 -4.624747 0.161075 54.000000
8.817457 -4.680433 0.162049 9.000000
-10.706952 -4.500786 0.188538 10.000000
-9.815400 -4.568656 0.175748 12.000000
-9.775653 -4.587578 0.175293 4.000000
-3.109921 -4.535428 0.184641 52.799999
8.778300 -4.554155 0.160534 62.666668
9.464682 -4.557025 0.170521 5.000000
-10.321777 -4.415391 0.182240 65.000000
8.856285 -4.454172 0.160923 51.333336
8.980448 -4.411111 0.162417 26.000000
-11.631855 -4.360580 0.201652 7.500000
-11.201490 -4.299847 0.194770 17.000000
-9.973444 -4.359345 0.176689 32.000000
-3.112228 -4.374825 0.180265 50.500000
10.196517 -4.311372 0.179708 30.000000
10.391258 -4.329626 0.182738 47.333332
10.473384 -4.312541 0.183863 40.000000
10.620188 -4.334019 0.186200 58.000000
-10.915686 -4.229534 0.190031 16.000000
-10.770920 -4.231921 0.187856 26.000000
-10.310225 -4.220133 0.180844 83.000000
-10.170958 -4.237927 0.178864 81.000000
-10.055758 -4.264276 0.177306 4.000000
-9.472584 -4.211532 0.168281 16.500000
-3.110996 -4.216794 0.175943 4.400000
10.470612 -4.234653 0.183344 58.000000
-11.518368 -4.194618 0.198990 4.000000
-10.253096 -4.121716 0.179383 91.000000
-10.112252 -4.139091 0.177371 91.000000
-9.723974 -4.195858 0.171917 49.000000
10.298244 -4.127345 0.180098 32.000000
-3.114627 -4.072543 0.172144 44.000000
10.372341 -4.081529 0.180942 34.000000
-3.117821 -3.921353 0.168207 31.833334
-9.662649 -3.831616 0.168736 55.500000
-9.809337 -3.730136 0.170359 12.000000
-9.694903 -3.756584 0.168779 8.333333
-3.114662 -3.759571 0.197755 31.900000
-10.032194 -3.611894 0.173086 30.000000
-3.119788 -3.622302 0.202042 62.857143
9.523074 -3.661282 0.165620 47.000000
-10.598495 -3.579146 0.181591 13.000000
-10.329321 -3.560720 0.177360 24.833334
-9.742759 -3.565341 0.168411 32.000000
-9.506416 -3.512759 0.164516 23.000000
-9.495334 -3.542605 0.164516 28.000000
9.562739 -3.590611 0.165814 61.333332
-3.122109 -3.467748 0.197217 65.500000
9.616871 -3.473533 0.165983 53.400002
9.722455 -3.408566 0.167243 44.000000
10.200961 -3.468717 0.174904 92.000000
-10.312975 -3.313572 0.175840 48.857143
-3.124661 -3.320703 0.192705 69.071426
9.778456 -3.393741 0.168022 39.000000
9.872284 -3.391593 0.169450 90.000000
9.652098 -3.231387 0.165230 4.500000
9.814069 -3.200150 0.167567 40.000000
9.945875 -3.208597 0.169645 54.000000
-10.424658 -3.123582 0.176657 37.000000
-10.308950 -3.177414 0.175115 55.750000
-3.129712 -3.172920 0.188356 73.500000
9.538070 -3.143339 0.163023 4.000000
10.111516 -3.122303 0.171787 44.000000
-10.399907 -3.080590 0.176072 30.000000
-3.164441 -3.022114 0.184939 89.000000
10.093570 -3.064760 0.171235 39.500000
-10.557106 -2.983381 0.178085 4.000000
-10.356596 -2.997135 0.175017 45.250000
-5.528557 -2.957848 0.156182 32.642857
-5.218957 -2.936951 0.201070 35.250000
-5.072072 -2.928275 0.196640 37.333332
-4.932949 -2.920660 0.192479 40.000000
-4.783182 -2.913801 0.188050 40.500000
-4.629844 -2.910846 0.183621 40.000000
-4.464933 -2.906025 0.178869 44.599998
-4.316607 -2.907021 0.174735 47.599998
-4.173310 -2.906837 0.170762 49.400002
-4.026764 -2.909325 0.166798 51.500000
-3.718599 -2.919866 0.196675 54.461540
-3.576302 -2.928852 0.198451 56.538460
-3.429079 -2.935893 0.188177 57.200001
-3.273922 -2.944481 0.186069 58.428570
-3.198748 -2.941399 0.145903 83.000000
10.191628 -2.937809 0.172177 30.000000
-9.291213 -2.604606 0.156639 24.666666
-9.103704 -2.696709 0.154128 5.333333
-11.915983 -2.571974 0.197887 36.000000
-9.450050 -2.590561 0.159062 52.500000
-9.878929 -2.410013 0.165068 34.000000
-9.161751 -2.418903 0.153820 37.000000
-11.242927 -2.352865 0.186460 2.000000
-9.407567 -2.342083 0.157374 67.000000
-9.175461 -2.330264 0.153674 27.000000
-11.003478 -2.266698 0.182370 32.000000
-10.989983 -2.281966 0.182208 20.500000
-9.801382 -2.277350 0.163347 32.500000
-9.685996 -2.250428 0.161421 44.000000
-9.814035 -2.158684 0.163120 26.000000
-10.356688 -2.037638 0.171344 27.333332
-11.522915 -1.924140 0.189641 3.000000
-10.126101 -1.920671 0.167308 41.000000
-10.490740 -1.853548 0.172934 38.666668
-10.137968 -1.857008 0.167308 34.000000
-10.077040 -1.878585 0.166399 43.000000
-10.052338 -1.656940 0.165382 27.666666
-9.959161 -1.598764 0.163737 45.000000
-9.814001 -1.543853 0.161270 36.000000
-9.534503 -1.453903 0.156563 36.000000
-9.475981 -1.399293 0.155492 45.000000
-9.320128 -1.331424 0.152830 33.000000
-9.583977 -1.231135 0.156855 40.000000
-9.343044 -1.237611 0.152992 38.500000
-9.358130 -1.082861 0.152927 33.500000
-9.276863 -1.073248 0.151596 32.000000
-11.147294 -0.936066 0.181591 1.000000
-9.550242 -0.922947 0.155751 37.000000
-9.236399 -0.965894 0.150752 38.000000
-9.833439 -0.856856 0.160231 34.000000
-9.460505 -0.894260 0.154258 34.333332
-9.662722 -0.756457 0.157335 36.799999
-10.083263 -0.687410 0.164061 74.000000
-9.742733 -0.643665 0.158500 37.666668
-10.274798 -0.570853 0.167048 40.000000
-9.996962 -0.523920 0.162503 54.000000
-9.813806 -0.576170 0.159582 28.000000
-10.259851 -0.424636 0.166691 58.500000
-10.151114 -0.484066 0.164970 37.000000
-11.205354 -0.340398 0.181980 19.000000
-10.536693 -0.353219 0.171138 13.000000
-10.319703 -0.378408 0.167632 61.000000
-10.627087 -0.272786 0.172566 55.500000
-10.542742 -0.154531 0.171160 55.166664
-11.330482 -0.023729 0.183928 22.000000
-10.714441 -0.056103 0.173930 27.000000
-10.566236 -0.088521 0.171528 53.000000
-10.538606 0.011035 0.171073 13.000000
-10.070584 0.042186 0.163477 37.000000
-9.894430 0.072532 0.160620 20.000000
-9.998613 0.129789 0.162321 59.599998
-7.918067 0.162498 0.128561 7.600000
-7.913585 0.239259 0.128521 10.714286
-11.129273 0.419790 0.180790 29.666666
-10.748411 0.467432 0.174644 31.000000
-11.165560 0.538273 0.181461 34.000000
-10.791155 0.576906 0.175423 22.000000
-11.296694 0.669166 0.183701 15.500000
-11.706530 0.748820 0.190420 0.000000
-11.500605 0.771932 0.187109 49.000000
-11.466195 0.878254 0.186676 24.333334
-11.394391 0.800771 0.185421 34.000000
-11.471117 0.951158 0.186850 30.000000
-11.435286 1.038681 0.186395 27.500000
-11.365919 1.168865 0.185477 46.000000
-11.403869 1.271088 0.186265 0.000000
6.715405 1.251902 0.110889 21.000000
-8.485620 1.920109 0.141230 13.833333
6.337533 2.196968 0.160851 15.444445
-10.149175 3.327018 0.173378 4.000000
-9.987743 3.343742 0.170976 14.500000
-9.954763 3.437468 0.170960 22.250000
6.471064 3.495972 0.119394 38.000000
-9.975687 3.585675 0.172079 31.250000
-10.000624 3.729463 0.173262 16.428572
6.596533 3.854796 0.124025 26.666666
6.260370 3.936264 0.120043 22.000000
6.354639 4.014114 0.122013 29.000000
6.516790 4.012374 0.124231 36.500000
6.610593 4.041687 0.125778 32.333332
6.470670 4.182899 0.125075 31.000000
6.569803 4.246944 0.126990 34.000000
6.368008 4.376611 0.125432 36.000000
6.530283 4.329015 0.127185 36.666668
6.364094 4.403422 0.125627 37.000000
6.494407 4.418484 0.127510 37.000000
6.623462 4.410589 0.129176 35.333332
6.532020 4.621512 0.129890 34.666668
6.612108 4.621184 0.130950 38.000000
6.376982 4.808891 0.129652 28.000000
6.497077 4.803856 0.131167 35.666668
6.562615 4.820720 0.132184 55.000000
6.738871 4.845162 0.134732 51.000000
6.646459 5.077842 0.135776 45.666668
6.731114 5.009912 0.136209 39.000000
6.502022 5.131304 0.134456 38.000000
6.349485 5.275189 0.134002 39.000000
6.483652 5.250358 0.135430 42.000000
6.620605 5.202564 0.136685 38.333332
6.834743 5.290116 0.140299 35.000000
6.436510 5.324691 0.135603 38.333332
6.719567 5.371845 0.139650 36.000000
6.464079 5.491550 0.137686 32.750000
6.664432 5.408359 0.139326 31.000000
6.338935 5.517830 0.136426 30.666666
6.442760 5.632214 0.138914 31.000000
6.390329 5.729689 0.139326 31.000000
6.504969 6.019502 0.143870 39.000000
6.635528 6.025040 0.145493 40.500000
6.748720 6.012890 0.146727 51.000000
6.350040 6.102247 0.142961 37.000000
6.484861 6.134638 0.144909 40.000000
6.593091 6.100996 0.145818 33.000000
6.813150 6.186460 0.149389 47.000000
6.392503 6.299464 0.145688 36.000000
6.490623 6.296349 0.146792 26.000000
6.464731 6.431138 0.148025 38.500000
6.557995 6.422064 0.148999 35.000000
6.456442 6.553792 0.149342 32.571430
6.463665 6.740406 0.151596 6.333333
6.457038 6.818585 0.152440 0.000000
6.611868 6.808637 0.154063 21.000000
6.383009 6.934194 0.152992 4.500000
6.585788 7.087151 0.157050 0.000000
6.646264 7.107323 0.157959 19.000000
6.149391 7.370259 0.155816 36.000000
6.149179 7.417252 0.156400 40.000000
6.452708 9.834503 0.190940 42.000000
6.319472 9.934883 0.191134 40.000000
6.457031 9.977283 0.192920 46.000000
6.379428 10.029398 0.192952 46.000000
6.287701 10.164835 0.194024 46.500000
6.317547 10.285036 0.195939 40.500000
6.412073 10.221720 0.195874 48.000000
6.140695 10.321764 0.194965 48.500000
6.234842 10.479963 0.197951 43.500000
6.331528 10.454596 0.198406 44.000000
6.203236 10.654030 0.200126 56.500000
-2.907980 -13.541454 0.224830 1.000000
-2.958679 -12.795277 0.213187 0.000000
-2.960013 -12.105730 0.202301 0.000000
11.265411 -12.021635 0.267441 75.000000
11.402731 -11.978170 0.268458 56.500000
11.503373 -11.970488 0.269497 0.000000
12.467760 -11.658960 0.277093 0.000000
9.982950 -11.565362 0.248007 7.000000
9.954510 -11.423239 0.245962 50.000000
9.971880 -11.298955 0.244631 71.000000
10.040020 -11.233088 0.244566 67.500000
12.094154 -11.238584 0.268004 19.000000
10.121141 -11.181639 0.244826 62.000000
10.220940 -11.150244 0.245540 64.500000
12.070636 -11.146267 0.266705 28.000000
12.198254 -11.099664 0.267722 27.000000
12.252734 -11.172606 0.269172 35.000000
12.808425 -10.858530 0.272581 20.000000
12.925340 -10.853338 0.273977 27.000000
13.057937 -10.825515 0.275340 17.000000
12.452225 -10.742704 0.266965 33.500000
12.882600 -10.748622 0.272354 30.000000
11.691198 -10.493673 0.255019 51.000000
11.747322 -10.378480 0.254456 61.000000
11.874594 -10.358870 0.255798 32.000000
-3.027556 -8.423380 0.300531 5.000000
-3.029521 -8.265308 0.295565 12.500000
-3.033814 -8.118786 0.291001 19.000000
-3.036388 -7.972542 0.286437 19.500000
-3.038692 -7.830317 0.282008 21.000000
-3.041548 -7.693954 0.277780 22.000000
-3.045095 -7.529629 0.272702 22.333334
-3.047309 -7.400660 0.268720 23.000000
-3.050606 -7.343056 0.266975 23.000000
-3.052619 -7.204070 0.296528 18.500000
-11.330282 -5.938485 0.207657 6.750000
-11.391954 -5.655013 0.206456 30.000000
-11.390059 -5.565226 0.205786 18.333334
-11.690496 -5.463777 0.209475 15.000000
-11.391392 -5.455382 0.205028 19.500000
-3.093126 -5.274457 0.205298 43.000000
-3.105451 -4.379742 0.273581 4.000000
-3.113672 -4.290324 0.270120 2.500000
-12.275114 -4.038185 0.209767 15.500000
-3.109827 -3.911109 0.254616 34.333332
-12.081961 -3.455318 0.203989 2.000000
7.796645 -3.471194 0.286552 54.285713
7.879136 -3.343262 0.287377 22.799999
7.935428 -3.384747 0.289659 37.000000
18.318327 -3.187184 0.301829 65.500000
18.317764 -3.039086 0.301418 65.666664
-5.424942 -2.952863 0.207378 33.000000
-5.353190 -2.946552 0.205164 34.000000
-4.029004 -2.910386 0.296576 42.833332
-3.872416 -2.915546 0.208105 51.538460
-3.356241 -2.952684 0.227780 48.000000
18.308712 -2.860550 0.300812 65.666664
18.297686 -2.711764 0.300271 66.000000
18.297256 -2.565021 0.299924 67.000000
18.290443 -2.417732 0.299492 69.500000
18.290306 -2.271721 0.299189 69.000000
18.282463 -2.125061 0.298777 70.000000
18.277346 -1.979113 0.298431 70.666664
18.273792 -1.833637 0.298128 73.500000
18.266352 -1.688096 0.297782 75.666664
18.261522 -1.514219 0.297457 75.333336
18.264090 -1.398932 0.297349 11.000000
18.253414 -1.210803 0.296960 72.750000
18.251873 -1.109937 0.296830 90.000000
18.243290 -1.051902 0.296635 92.000000
18.243744 -0.951335 0.296554 83.500000
18.239111 -0.764460 0.296336 102.000000
18.231010 -0.620713 0.296116 112.500000
18.224909 -0.491567 0.295953 108.750000
18.220516 -0.333949 0.295823 83.500000
18.208542 -0.190695 0.295596 181.333328
18.206863 -0.019067 0.295553 228.333328
-7.922645 0.162597 0.266062 8.000000
18.203157 0.123910 0.295499 255.000000
-7.915308 0.239324 0.265882 9.571428
18.179592 0.266495 0.295142 196.000000
18.178936 0.437985 0.295185 198.333328
18.186302 0.581063 0.295369 255.000000
18.177809 0.723745 0.295315 255.000000
18.174931 0.866643 0.295369 237.500000
18.173517 1.009694 0.295466 253.333328
18.164522 1.181019 0.295488 207.000000
18.156748 1.314222 0.295510 169.333328
18.297935 1.478645 0.297998 7.000000
18.209503 1.529095 0.296635 112.000000
18.150351 1.639053 0.295834 128.333328
18.147177 1.772951 0.295986 113.000000
-8.487163 1.920438 0.292164 13.333333
18.176718 1.929726 0.296722 79.333336
18.145809 2.070666 0.296473 92.000000
18.136299 2.202452 0.296570 88.599998
18.139233 2.417091 0.297057 62.500000
18.161327 2.536210 0.297674 50.500000
18.119699 2.675706 0.297328 52.666668
17.060886 2.766313 0.280566 51.500000
17.996738 2.802119 0.295661 81.500000
18.126598 3.026848 0.298323 0.000000
18.126495 3.261470 0.298972 0.000000
18.107643 3.493538 0.299362 0.000000
18.110575 3.582699 0.299686 0.000000
18.083418 3.737013 0.299751 7.600000
18.073788 3.841701 0.299946 7.000000
18.048809 4.193449 0.300790 0.000000
18.077969 4.335127 0.301780 3.500000
17.938025 4.465802 0.300076 37.000000
18.025280 4.487427 0.301537 33.500000
6.796355 4.976002 0.282813 24.500000
6.662329 5.499816 0.290061 29.000000
6.760469 5.474520 0.292075 5.000000
6.947601 5.710905 0.301963 23.000000
-16.136240 9.092304 0.300660 2.000000
-16.004604 9.117702 0.299005 12.500000
-15.942392 9.182097 0.298648 29.000000
-15.951523 9.254210 0.299362 21.000000
-15.933585 9.344452 0.299849 14.000000
-10.147457 9.399883 0.224538 12.000000
-10.035856 9.444161 0.223704 12.333333
-10.025986 9.584406 0.225154 16.000000
-10.013443 9.724195 0.226583 11.333333
-10.009283 9.842963 0.227881 7.000000
-10.193381 10.182724 0.233887 8.000000
-10.197399 10.283192 0.235088 0.000000
-10.303097 10.499126 0.238788 0.333333
6.231850 10.820032 0.202691 67.000000
6.275251 10.974964 0.205223 41.000000
-13.780882 11.135664 0.287611 2.000000
-10.152142 11.180552 0.245151 20.000000
6.171789 11.115893 0.206391 52.000000
6.284811 11.194771 0.208404 37.500000
6.317738 11.130275 0.207755 42.000000
-13.789272 11.214228 0.288520 4.000000
-10.097711 11.261987 0.245540 19.000000
-11.019384 11.359231 0.256902 7.500000
-10.189631 11.340619 0.247488 30.000000
-9.989119 11.318415 0.245053 20.500000
-13.797739 11.512172 0.291701 9.000000
-10.992949 11.584156 0.259239 11.000000
-10.798792 11.596509 0.257226 25.000000
-10.568205 11.529100 0.253883 17.500000
-10.027317 11.579849 0.248657 23.500000
6.153735 11.549101 0.212429 10.500000
6.348407 11.562019 0.214117 25.500000
-13.752629 11.658978 0.292675 0.000000
-10.905708 11.613320 0.258612 20.333334
-10.794906 11.665602 0.258006 17.000000
6.303391 11.609402 0.214442 30.000000
-10.231786 11.704153 0.252357 12.000000
-13.569700 11.812590 0.292047 42.000000
-13.294821 11.820304 0.288779 29.000000
-10.189661 11.993855 0.255474 22.500000
-7.868297 11.964743 0.232458 4.500000
-9.587223 12.031260 0.249728 2.000000
6.468005 12.002351 0.221324 9.000000
-10.205070 12.127499 0.257291 19.000000
-9.806034 12.109449 0.252942 9.000000
-7.854877 12.192989 0.235445 10.500000
-9.667962 12.250551 0.253331 11.000000
-7.811285 12.251824 0.235867 19.000000
-10.331479 12.475206 0.262940 14.000000
-10.231955 12.474335 0.261901 19.000000
-10.735524 12.516507 0.267679 5.000000
-11.026743 12.613507 0.271964 6.000000
-10.004532 12.759259 0.263199 56.000000
-9.906273 12.757275 0.262193 68.000000
-7.548318 12.771060 0.240817 5.500000
-9.834386 12.872341 0.262961 49.666668
-10.409782 12.937907 0.269562 44.000000
-8.151407 12.964282 0.248592 1.000000
-8.086013 12.995728 0.248462 10.500000
-10.343142 13.021834 0.269951 54.000000
6.772778 13.788394 0.249371 40.000000
6.654632 13.876856 0.249825 46.000000
6.741770 13.890303 0.250637 40.500000
6.881720 13.899664 0.251773 43.000000
-10.308003 13.940639 0.281443 41.000000
6.471310 13.941243 0.249501 51.000000
6.545591 13.986049 0.250669 46.000000
6.645365 13.969927 0.251124 45.000000
6.379223 14.089056 0.251059 41.000000
6.454668 14.078835 0.251416 43.000000
6.616804 14.023289 0.251708 41.000000
-10.574575 14.161083 0.286896 10.500000
-10.373070 14.121229 0.284429 8.000000
6.209694 14.186425 0.251383 42.000000
6.364108 14.233984 0.253104 46.000000
6.313996 14.302222 0.253786 41.000000
6.276552 14.462684 0.255928 31.000000
-10.436819 14.588750 0.291181 15.000000
-10.287285 14.572355 0.289558 23.000000
-10.595069 14.647250 0.293454 18.666666
-10.262123 14.634071 0.290143 18.000000
-10.174946 14.607169 0.288974 32.000000
6.316442 14.680719 0.259434 24.000000
-11.089107 14.705059 0.298972 15.000000
-10.186904 14.797056 0.291620 20.750000
-10.008549 14.760354 0.289493 23.000000
6.307950 14.788782 0.260992 34.000000
-10.751285 14.830504 0.297349 6.000000
-10.543850 14.836630 0.295466 61.000000
-10.003410 14.954227 0.292058 18.500000
6.297155 14.958397 0.263459 8.000000
-9.963256 15.098601 0.293649 6.000000
6.085066 15.045943 0.263459 0.000000
6.185517 15.089226 0.264725 5.000000
6.268027 15.087647 0.265212 11.000000
-9.423923 15.270460 0.291290 57.333332
-9.317734 15.294909 0.290727 72.500000
-9.245120 15.392589 0.291474 52.000000
-10.145277 15.586603 0.301894 32.000000
-10.045651 15.593911 0.301115 16.500000
-9.279773 15.616501 0.294882 26.000000
-9.288605 15.857403 0.298323 17.000000
-9.190489 15.803528 0.296765 21.000000
-9.446091 16.010706 0.301764 19.000000
-2.991046 -10.500146 0.366570 0.000000
-2.989692 -10.371615 0.362409 0.000000
-2.997633 -10.277740 0.359456 0.000000
-2.998119 -10.044182 0.351939 0.000000
-2.992684 -9.912245 0.347644 0.000000
-2.996957 -9.814854 0.344557 1.000000
-2.995082 -9.646008 0.339121 1.000000
-3.001211 -9.455528 0.333081 1.000000
-3.007146 -9.321424 0.328853 2.000000
