# This PCD file was generated using the MATLAB® pcwrite function
# from Computer Vision Toolbox®.
# .PCD v.7 - Point Cloud Data file format
VERSION .7
FIELDS x y z intensity
SIZE 4 4 4 4
TYPE F F F F
COUNT 1 1 1 1
WIDTH 1239
HEIGHT 1
VIEWPOINT 0 0 0 1 0 0 0
POINTS 1239
DATA ascii
-10.955259 15.217820 1.610165 3.000000
-18.884417 15.462225 1.669038 36.000000
17.641716 15.465988 1.604361 49.500000
-10.867459 15.607148 1.633094 18.000000
-10.274320 15.575910 1.602294 3.000000
17.637424 15.609765 1.610638 48.000000
-18.517311 15.653887 1.658122 2.000000
-10.775950 15.684978 1.634120 11.000000
-10.187118 15.656861 1.604005 4.000000
-19.168364 15.795559 1.698511 24.000000
-18.768078 15.765036 1.676133 2.000000
17.635036 15.756536 1.617188 49.000000
-18.964571 15.828743 1.689232 4.000000
-18.564095 15.894508 1.671221 6.000000
-18.365936 15.825105 1.657849 20.000000
-18.282967 15.853961 1.654847 11.000000
17.631763 15.903595 1.623737 48.000000
17.622963 16.046974 1.629877 50.500000
-18.557796 16.194708 1.684320 7.000000
17.619183 16.195993 1.636563 47.000000
-18.473848 16.223959 1.681318 25.000000
-18.294014 16.270760 1.674223 17.000000
17.582140 16.315460 1.640247 45.000000
-18.494549 16.345346 1.687868 28.000000
-18.236864 16.322824 1.673677 26.000000
-18.161768 16.358675 1.671494 0.000000
17.538570 16.429535 1.643386 47.000000
-18.016335 16.642466 1.677225 9.000000
17.594261 16.638161 1.655939 46.500000
17.593666 16.795258 1.663307 45.000000
17.584686 16.945824 1.669993 35.000000
17.548540 17.214849 1.681045 44.000000
17.603365 17.124502 1.679408 30.000000
-9.381317 17.372116 1.695379 5.000000
17.582895 17.430122 1.693053 19.000000
17.573256 17.530367 1.697419 12.000000
-14.264234 18.677099 1.607090 4.000000
-14.037207 19.116341 1.621827 22.000000
-13.944159 19.115208 1.618006 17.000000
-13.793588 19.224106 1.618006 25.000000
-13.679739 19.256390 1.615277 9.000000
-13.493090 19.377911 1.614731 2.000000
-13.647822 19.469400 1.625920 5.000000
-13.600135 19.663076 1.634926 2.000000
-13.469571 19.738255 1.634107 3.000000
-13.432203 19.951601 1.644750 17.000000
-12.595003 20.321569 1.634926 23.000000
-12.583385 20.446007 1.641748 9.000000
-12.870075 20.620443 1.662215 5.000000
-10.450452 21.569752 1.639019 38.000000
-10.379185 21.595282 1.638473 28.000000
-9.278747 21.891220 1.625920 1.000000
-9.192927 21.879789 1.622918 1.000000
-9.713502 21.950787 1.641475 12.000000
-9.636480 21.962919 1.640111 7.000000
-9.589715 22.044319 1.643931 1.000000
-11.032871 22.235308 1.697419 5.000000
-9.472479 22.947840 1.697692 2.000000
-6.850331 -34.533436 1.793948 5.000000
-6.494211 -34.435513 1.785603 14.000000
10.513363 -32.127701 1.722500 8.000000
10.725152 -32.091320 1.724128 1.000000
10.834866 -32.083961 1.725553 7.000000
10.384084 -32.073154 1.717818 15.000000
10.126852 -31.962591 1.708454 3.000000
10.240623 -31.972469 1.710693 7.000000
11.138857 -31.825207 1.718123 2.000000
11.258573 -31.687725 1.713543 10.000000
11.317590 -31.539396 1.707437 4.000000
-7.842444 -25.102020 1.798391 31.000000
-8.065193 -24.985218 1.795389 10.000000
-6.958403 -19.639027 1.789148 7.000000
-7.024513 -19.532883 1.782475 33.500000
-7.050272 -19.317995 1.765877 40.000000
-7.160865 -19.000666 1.743632 24.333334
-7.064389 -19.077120 1.746883 42.500000
8.973826 -11.523236 1.768728 15.000000
9.000781 -11.458442 1.764560 20.666666
8.832631 -11.124053 1.720158 7.000000
12.662867 -11.003688 1.734802 13.666667
12.785337 -10.981619 1.742893 11.000000
13.463208 -10.882850 1.790210 16.000000
12.739992 -10.838752 1.729727 10.000000
13.532965 -10.834187 1.792679 18.000000
13.636883 -10.812336 1.799673 22.000000
13.595774 -10.710350 1.789798 17.000000
7.626450 -10.389750 1.789553 31.000000
7.472694 -10.315539 1.768649 82.000000
6.845204 -10.240705 1.710335 9.000000
6.940527 -10.243413 1.718037 1.000000
7.361565 -10.229625 1.749944 1.000000
7.082379 -10.107174 1.713636 1.000000
7.168909 -10.162575 1.726839 8.000000
7.524738 -10.084164 1.747056 39.000000
7.690537 -10.139253 1.766998 41.000000
7.756505 -10.093875 1.767548 32.000000
7.186536 -10.052870 1.715837 1.000000
7.722600 -10.049896 1.759847 33.500000
7.757479 -9.932724 1.749944 38.500000
7.827133 -9.893088 1.751595 37.000000
7.941775 -9.877636 1.759847 37.000000
7.977790 -9.764332 1.750770 40.000000
7.990945 -9.640588 1.738667 29.500000
5.917616 -9.484896 1.752264 13.000000
6.376661 -9.496733 1.792937 25.333334
6.471418 -9.486742 1.799957 1.000000
5.752370 -9.449783 1.733992 10.500000
5.899032 -9.389296 1.738018 2.000000
6.079013 -9.476308 1.764652 3.000000
8.060311 -9.404117 1.719779 22.333332
8.107501 -9.310259 1.714186 11.000000
6.557981 -8.999186 1.745327 27.299999
4.900514 -7.537488 1.733084 21.000000
4.170693 -7.302960 1.775036 15.166667
4.287903 -7.276511 1.782608 26.000000
5.707481 -7.255538 1.779522 10.000000
3.946521 -6.609588 1.768215 23.833334
4.046161 -6.626086 1.783289 44.500000
3.868237 -6.074255 1.787897 36.000000
3.824434 -5.964033 1.758982 35.000000
4.655106 -5.917734 1.729413 20.333332
3.473957 -5.712512 1.786883 29.250000
3.831183 -5.733785 1.712076 31.333334
4.839593 -5.684492 1.714787 26.000000
4.982137 -5.777976 1.752396 0.000000
11.573210 -5.689787 1.790654 62.333332
3.507079 -5.623414 1.771219 30.000000
11.655029 -5.605331 1.795742 43.000000
3.463071 -5.514193 1.740236 19.000000
3.461788 -5.473891 1.730941 23.000000
4.651993 -5.293294 1.793861 34.333332
5.303702 -5.320389 1.725532 32.000000
4.659542 -5.211643 1.717127 29.000000
4.687632 -5.119256 1.723321 34.500000
5.064952 -5.080888 1.781150 48.000000
5.336817 -5.139311 1.701803 39.000000
4.873711 -5.029340 1.738742 41.000000
4.921825 -5.031271 1.747416 43.000000
8.527604 -0.093769 1.799955 48.000000
9.906937 -0.138386 1.730992 44.500000
8.446461 -0.000036 1.782746 59.500000
8.472815 0.093167 1.788390 47.000000
8.513360 0.133754 1.797064 27.000000
8.338126 0.445742 1.762370 0.500000
7.619385 1.023411 1.765828 0.000000
10.846291 1.147648 1.709526 0.000000
7.393101 1.242444 1.721951 50.000000
6.570834 4.252487 1.797765 8.333333
6.764627 4.540505 1.719553 20.333334
6.981803 4.633432 1.768565 4.000000
6.850688 4.745424 1.758928 3.333333
7.101409 5.526306 1.734598 0.000000
7.072700 5.795125 1.762612 19.000000
17.896206 8.566763 1.703763 3.500000
17.886150 8.665769 1.706672 3.000000
17.877274 9.187668 1.726008 2.000000
17.858047 9.320116 1.729772 22.500000
17.855476 9.461995 1.735248 58.000000
17.848316 9.602324 1.740381 58.000000
17.843597 9.744836 1.745857 37.000000
17.841269 9.889609 1.751674 45.500000
17.832623 10.031792 1.756979 58.000000
17.829803 10.178224 1.762968 55.500000
7.138315 10.297562 1.739767 9.000000
17.825851 10.325008 1.768957 56.500000
17.820757 10.472139 1.774946 56.500000
17.819645 10.622681 1.781448 56.000000
17.810532 10.769480 1.787266 56.000000
17.805359 10.919725 1.793597 54.500000
17.804554 11.034989 1.798730 57.000000
6.699144 12.426070 1.709578 25.000000
6.747626 12.422409 1.711982 1.000000
6.578289 12.772538 1.739874 10.000000
14.166742 14.721428 1.754412 12.500000
14.049109 14.737559 1.748423 26.000000
14.365106 14.787447 1.770326 0.000000
14.041111 14.822127 1.753214 29.000000
13.174055 15.987092 1.778881 13.000000
-19.514900 16.184336 1.733714 12.000000
-19.091145 16.242090 1.714066 9.000000
-11.347978 16.297239 1.705303 19.000000
-19.404167 16.403605 1.737535 10.000000
-12.698782 16.412531 1.781961 9.000000
-19.975258 16.460476 1.770010 5.000000
-19.693741 16.437344 1.754182 6.000000
-19.568670 16.437527 1.747632 11.000000
-12.806598 16.444876 1.789832 8.000000
-19.486280 16.578260 1.749542 6.000000
-10.784614 16.689629 1.706330 0.000000
-11.258357 17.184921 1.764166 23.000000
-11.507935 17.268368 1.781961 4.500000
-10.141970 17.383690 1.728232 64.000000
-10.049968 17.414064 1.726521 66.000000
-10.015018 17.480135 1.729943 59.000000
-10.688891 17.614756 1.769299 60.000000
-9.614803 17.539984 1.717623 3.000000
-10.900743 17.670435 1.782874 36.000000
-10.781590 17.642294 1.775459 45.000000
-10.594472 17.646114 1.767417 67.500000
-9.919978 17.698900 1.742263 4.000000
-9.107510 17.721313 1.710950 3.000000
17.490839 17.668798 1.700148 36.000000
17.571608 17.639208 1.702604 10.000000
-10.521918 17.777519 1.773919 40.000000
-9.300701 17.820978 1.726179 4.000000
-9.008575 17.733850 1.708041 2.000000
-9.494699 17.849421 1.736103 3.000000
17.580770 17.871595 1.714339 13.000000
-10.181270 18.032038 1.778197 6.000000
-10.324570 18.152386 1.793255 24.000000
-10.125906 18.200129 1.788464 5.000000
-8.600742 18.186800 1.727548 1.000000
-9.191389 18.235390 1.753557 2.000000
-8.917727 18.406206 1.756294 3.000000
-9.159895 18.460569 1.769641 1.000000
17.545433 18.521372 1.744630 4.000000
-9.120208 18.600096 1.778881 20.000000
-8.903022 18.523928 1.764850 4.000000
-8.692504 18.531240 1.757663 2.000000
-8.066571 18.542999 1.736446 1.000000
17.525455 18.617083 1.748451 13.000000
-7.691305 18.632803 1.730970 0.000000
-7.586058 18.710310 1.733708 0.000000
17.518681 18.727419 1.753636 21.000000
17.514248 18.900532 1.762096 20.000000
17.508717 19.073967 1.770556 26.000000
17.505184 19.190794 1.776286 30.000000
17.492073 19.358963 1.784200 20.500000
17.480570 19.530363 1.792387 9.000000
-11.650624 22.238312 1.716795 10.000000
-11.508847 22.307524 1.716522 33.000000
-10.982344 22.309246 1.700421 3.000000
-11.433247 22.332916 1.715703 27.000000
-11.936304 22.439480 1.738081 9.000000
-11.865755 22.476866 1.738081 19.000000
-11.694839 22.494328 1.733714 24.000000
-12.395739 22.613157 1.763460 1.000000
-12.265506 22.543324 1.755000 4.000000
-11.449788 22.539503 1.728802 21.000000
-11.355565 22.529037 1.725255 10.000000
-12.212234 22.785255 1.767827 3.000000
-11.391173 22.957418 1.752544 8.000000
-11.211676 22.956821 1.747086 11.000000
-11.338375 23.032480 1.755546 18.000000
-9.430554 23.051359 1.703150 0.000000
-11.711349 23.417643 1.790477 34.000000
-9.409032 23.417500 1.725801 3.000000
-9.783863 23.492672 1.740264 3.000000
-9.329506 23.432117 1.724709 2.000000
-9.276353 23.513279 1.728529 1.000000
-9.944190 23.667847 1.755546 2.000000
-9.225877 24.046764 1.761277 0.000000
17.159462 28.739626 1.705605 25.000000
17.291134 29.167957 1.727792 5.000000
17.278442 29.356403 1.735731 6.000000
17.226442 29.479523 1.739802 7.000000
16.898270 29.553865 1.734713 255.000000
17.006983 29.528326 1.736342 17.000000
17.169828 29.595692 1.743466 10.000000
16.852669 29.690189 1.739599 106.000000
16.839714 29.885679 1.747944 255.000000
16.804247 30.043028 1.754051 220.000000
16.880428 30.403021 1.771964 10.000000
-7.540257 -36.219452 1.885142 2.000000
-7.425629 -36.239048 1.884938 10.000000
-7.310953 -36.258286 1.884735 16.000000
-7.907627 -35.995796 1.877916 4.500000
11.097433 -35.282555 1.884667 53.000000
11.271508 -35.191021 1.882903 44.000000
11.416464 -35.261852 1.888602 22.000000
-6.799944 -34.852776 1.809419 4.000000
-6.679134 -34.815117 1.806365 15.000000
15.258636 -33.606297 1.880664 10.000000
15.329219 -33.481918 1.876389 47.000000
15.412564 -33.386440 1.873743 48.000000
15.530862 -33.366829 1.875371 39.000000
-7.353556 -25.797766 1.834413 4.000000
-7.790041 -25.640104 1.832503 28.000000
-7.648597 -25.607729 1.827591 13.000000
-7.496354 -25.536242 1.819950 33.500000
-7.363782 -25.529139 1.816948 6.000000
-7.842476 -25.381992 1.816675 36.000000
-8.050999 -25.211916 1.809853 28.000000
-7.972954 -25.240889 1.810126 28.000000
7.870696 -10.937113 1.870972 32.000000
7.733835 -10.605734 1.822561 59.000000
8.814605 -10.415916 1.894627 40.000000
8.652047 -10.158934 1.852818 24.000000
6.271708 -9.709444 1.811725 6.000000
6.333133 -9.604821 1.803261 13.000000
6.416095 -9.533773 1.801196 11.000000
12.814991 -8.999896 1.896405 38.500000
6.266589 -8.883455 1.899307 9.000000
12.819804 -8.913315 1.890875 8.000000
6.222915 -8.851414 1.890358 9.000000
5.386061 -8.033459 1.864447 16.000000
4.799953 -7.485312 1.876777 2.000000
5.724129 -7.427583 1.807662 5.500000
4.671957 -7.185944 1.809042 37.000000
4.230057 -6.927227 1.864327 45.000000
9.820447 -6.709163 1.864167 41.333332
9.800474 -6.590677 1.851160 69.666664
4.008248 -6.517863 1.899701 34.000000
9.823420 -6.494577 1.845792 76.000000
3.981694 -6.429327 1.877533 34.000000
9.917276 -6.436275 1.853101 57.599998
10.065900 -6.385510 1.868400 52.000000
3.934727 -6.287069 1.841389 31.500000
10.114282 -6.349597 1.871807 0.000000
3.938360 -6.227463 1.829342 35.000000
4.530609 -6.093801 1.885244 11.000000
4.267363 -5.971432 1.822209 35.000000
4.327631 -5.897812 1.816169 30.000000
4.468369 -5.931879 1.843799 2.000000
4.522038 -5.925290 1.850546 1.000000
4.688513 -5.973026 1.885244 14.333333
3.797883 -5.841329 1.862104 40.000000
3.920820 -5.808540 1.872948 31.750000
4.053680 -5.799993 1.846274 31.333334
4.789889 -5.864626 1.879942 30.500000
4.996811 -5.807308 1.854480 30.666666
11.600910 -5.809327 1.801473 37.333332
3.650947 -5.713090 1.812014 33.000000
3.769689 -5.732000 1.833530 31.666666
3.981206 -5.760327 1.871399 31.000000
4.051099 -5.706622 1.870366 30.666666
4.763531 -5.758147 1.855365 34.000000
4.489285 -5.496583 1.896702 38.500000
4.691781 -5.563859 1.806933 34.250000
4.811619 -5.562288 1.825968 53.000000
4.519028 -5.358912 1.873465 32.000000
5.436191 -5.362661 1.895846 35.000000
4.566287 -5.195865 1.848678 50.000000
5.519429 -5.243260 1.890063 18.666666
5.863529 -5.268429 1.810600 8.000000
4.522663 -5.097759 1.821309 38.500000
4.771301 -5.113097 1.869075 31.250000
5.624610 -5.150406 1.893436 34.500000
4.531553 -4.995742 1.802616 32.200001
4.966792 -5.077120 1.844141 40.400002
5.607810 -5.006916 1.866449 35.000000
18.269070 -1.923381 1.899655 68.000000
18.267536 -1.807256 1.898283 67.000000
18.266676 -1.662404 1.896775 68.000000
18.259306 -1.517240 1.894718 68.666664
18.251976 -1.343554 1.892558 70.750000
18.247101 -1.199183 1.891015 72.000000
18.244347 -1.083917 1.889986 74.500000
18.255234 -0.998254 1.890603 36.000000
18.235867 -0.911026 1.888134 69.500000
18.198389 -0.754423 1.883526 66.599998
18.223663 -0.594998 1.885529 80.333336
18.237091 -0.452087 1.886489 29.500000
9.843906 -0.170111 1.897887 57.666668
18.178341 0.777790 1.881551 77.000000
18.168507 0.903216 1.881140 97.199997
10.787910 0.953298 1.892079 53.000000
7.451498 1.120283 1.870786 56.000000
7.520422 1.062961 1.857270 50.400002
9.462527 1.119964 1.836812 27.000000
10.788189 1.055968 1.893800 51.000000
18.166470 1.063383 1.881826 91.333336
7.419846 1.191753 1.865774 49.400002
9.343737 1.195278 1.815864 58.666668
9.404376 1.143052 1.826212 46.000000
18.163582 1.215966 1.882511 73.666664
7.455959 1.241012 1.876569 50.000000
7.529473 1.321465 1.812505 28.200001
18.162073 1.349687 1.883334 35.000000
18.167473 1.493635 1.885049 20.000000
18.153870 1.952908 1.888134 17.000000
18.089491 3.163638 1.899038 51.500000
6.712389 4.404190 1.844030 26.333334
-8.137239 4.968924 1.837947 8.500000
-8.105090 5.054790 1.841354 0.000000
18.899288 9.600602 1.820290 2.000000
19.063644 9.571264 1.831755 6.000000
19.292385 9.572625 1.849379 4.000000
19.458233 9.578857 1.862384 3.000000
19.620729 9.582390 1.875046 3.000000
6.463774 9.644543 1.819778 11.000000
17.800226 11.109862 1.801810 54.000000
17.767050 11.244897 1.805575 49.666668
17.779963 11.410151 1.814130 45.000000
17.518742 11.555869 1.802153 24.000000
17.796173 11.539360 1.821317 3.500000
17.490976 11.695995 1.806830 13.000000
17.764977 11.638365 1.823713 49.000000
17.457918 11.833235 1.811050 8.000000
17.489784 11.935196 1.818237 14.000000
17.514614 12.032962 1.824739 17.000000
17.740906 12.311895 1.854342 46.000000
17.746351 12.439981 1.861015 46.000000
17.752613 12.555652 1.867175 51.666668
17.753422 12.950764 1.887024 15.000000
17.757620 13.039498 1.891815 14.000000
15.597940 14.936962 1.854513 11.000000
-9.931726 15.211979 1.878671 3.500000
-10.060259 15.251391 1.889369 12.000000
-9.849133 15.241932 1.876614 0.000000
14.505305 15.408813 1.817210 41.000000
14.223883 15.593529 1.812419 7.000000
14.590232 15.596917 1.833979 3.000000
14.415637 15.704371 1.830557 21.000000
14.606282 15.712730 1.842193 16.000000
14.258988 15.830653 1.829530 8.000000
14.399652 15.886173 1.841166 17.000000
14.355370 16.038696 1.848353 6.000000
14.875945 16.103981 1.882575 5.000000
14.301817 16.182329 1.854513 5.000000
14.389665 16.179010 1.859304 7.000000
14.306133 16.290064 1.861700 34.000000
13.373718 16.333675 1.812761 6.000000
14.001807 16.353512 1.848695 31.000000
14.315496 16.456516 1.872993 18.000000
13.271817 16.631271 1.827135 1.000000
-12.693050 16.838133 1.810708 30.000000
14.152096 16.847887 1.889420 30.000000
14.274423 16.885521 1.898660 26.000000
-12.685483 16.938532 1.817210 22.000000
13.658410 17.005863 1.872993 6.000000
14.145064 16.947338 1.895580 31.000000
-12.659525 17.354179 1.844588 25.000000
-12.579221 17.358364 1.840824 26.000000
-9.415154 19.908926 1.891131 51.000000
-9.506817 19.940401 1.896949 18.000000
-9.272585 19.963356 1.890173 42.799999
-12.363625 23.599262 1.821860 2.000000
-11.950434 23.525049 1.804395 1.000000
-11.910590 23.630188 1.809580 6.000000
-12.537942 24.115986 1.858701 1.000000
10.833760 24.185102 1.812218 6.000000
10.961845 24.198925 1.816675 12.000000
11.089031 24.175999 1.818858 20.000000
11.290526 24.212515 1.826909 7.500000
11.424067 24.200588 1.830047 4.000000
-10.868802 24.354523 1.823771 1.000000
-10.323734 24.356646 1.809034 1.000000
-11.346953 24.795317 1.864705 15.000000
-11.182257 24.743046 1.856791 8.500000
-10.707310 24.826300 1.848877 3.000000
-10.671616 24.958891 1.856245 1.000000
-9.444874 25.207783 1.840827 2.500000
-10.432390 25.500174 1.884081 1.000000
-9.234406 25.495874 1.854335 0.000000
-9.055344 25.500738 1.850514 1.000000
-8.987091 25.562948 1.852970 0.000000
16.857548 31.597939 1.824889 36.333332
17.025789 31.593895 1.828757 46.000000
17.338991 31.696579 1.840970 24.000000
17.355606 31.965048 1.853387 4.000000
17.685293 32.089779 1.867025 2.000000
16.922771 32.124069 1.850130 20.000000
15.470068 32.521275 1.835067 1.000000
15.771252 32.493950 1.840461 25.500000
15.618799 32.569771 1.840563 16.000000
16.036020 32.647011 1.853387 2.000000
16.244785 32.681938 1.859697 6.500000
12.329517 34.817482 1.882089 65.000000
12.606613 34.787479 1.885413 59.000000
12.472471 34.872612 1.887177 63.000000
-6.401678 -38.585815 1.993027 6.000000
-6.522868 -38.565514 1.993027 3.000000
-6.841733 -38.254585 1.980203 21.000000
-5.675846 -37.887516 1.952112 6.000000
-4.699782 -37.839787 1.942952 9.000000
-4.581841 -37.862293 1.943359 3.000000
-4.462868 -37.876503 1.943359 15.000000
-5.768863 -37.699692 1.943359 8.000000
-4.929678 -37.750095 1.939899 17.000000
-5.270826 -37.599094 1.934606 16.000000
-5.112558 -37.322590 1.919543 32.000000
-4.751495 -37.297783 1.915879 18.000000
-5.316912 -37.080143 1.908755 26.000000
-4.955020 -37.037540 1.904073 28.000000
-5.529659 -36.911682 1.901834 12.000000
-5.414248 -36.932823 1.902037 18.000000
13.673570 -36.649597 1.993231 36.000000
13.795674 -36.625153 1.994249 22.000000
17.048880 -34.075523 1.941527 17.000000
17.163042 -34.036064 1.942341 24.000000
17.079842 -33.608040 1.920968 3.000000
17.504589 -33.654675 1.932978 9.000000
17.235706 -33.393566 1.914861 10.000000
17.500811 -33.390762 1.920968 3.000000
8.990318 -10.759933 1.946889 14.000000
11.917849 -10.757218 1.944254 34.666668
12.058317 -10.747307 1.956116 2.666667
12.283735 -10.685585 1.971665 29.500000
12.490383 -10.762402 1.996672 22.000000
8.789440 -10.586930 1.910581 3.000000
8.904233 -10.589112 1.921033 53.000000
7.696936 -10.147690 1.996305 55.000000
7.032257 -10.035753 1.920739 3.666667
7.416625 -10.004707 1.952018 11.000000
7.548350 -10.038692 1.968639 26.000000
7.065068 -9.915827 1.908351 1.500000
7.613671 -9.972692 1.966574 27.000000
7.873674 -9.824467 1.973387 34.000000
7.968054 -9.783718 1.977723 29.000000
8.017993 -9.845057 1.990111 25.000000
7.584445 -9.700626 1.930030 33.333332
7.724778 -9.763701 1.951399 33.500000
8.105494 -9.721621 1.983917 25.666666
8.032173 -9.674797 1.970910 30.000000
6.355856 -9.508432 1.998162 32.200001
6.035439 -9.440877 1.957649 9.250000
6.180425 -9.437489 1.970901 2.000000
6.409679 -9.459943 1.996372 42.000000
8.019516 -9.297258 1.924455 18.000000
12.806486 -9.084284 1.901455 12.000000
6.223616 -9.062191 1.920648 17.000000
9.373304 -8.553003 1.988872 0.000000
9.432329 -8.552715 1.995685 2.000000
5.327162 -7.812254 1.995728 29.000000
5.128787 -7.538501 1.924413 26.000000
5.237348 -7.527143 1.935427 28.500000
5.165842 -7.424376 1.908993 33.000000
4.250630 -7.331134 1.946485 35.500000
5.646039 -7.302476 1.948230 15.000000
5.843951 -7.333746 1.979207 29.666666
5.652353 -7.255438 1.941209 23.833332
3.471972 -7.036600 1.948085 12.000000
3.557257 -7.045264 1.959458 20.333334
3.602436 -6.908632 1.934399 17.000000
3.761274 -6.908432 1.952904 19.200001
4.058125 -6.886581 1.984518 42.000000
3.947132 -6.779121 1.947571 18.666666
3.788589 -6.742987 1.920263 37.888889
4.015584 -6.717682 1.943073 32.000000
3.847594 -6.672293 1.912231 34.000000
4.034947 -6.631219 1.927170 36.000000
4.872399 -6.240871 1.965723 0.500000
5.479016 -6.234437 1.906413 3.000000
4.349427 -6.006289 1.981907 35.000000
4.039640 -5.884311 1.907546 31.000000
4.296685 -5.972869 1.966415 35.000000
4.820621 -5.972193 1.905484 27.333334
5.139602 -5.922867 1.946928 19.000000
4.587108 -5.825096 1.981562 24.333334
11.350775 -5.803487 1.998163 0.000000
4.610653 -5.773598 1.974677 31.000000
4.523389 -5.538400 1.911161 32.750000
4.558134 -5.457272 1.900317 30.000000
4.663818 -5.425912 1.912194 36.000000
5.423327 -5.383648 1.993899 32.166668
6.026286 -5.284818 1.989979 23.333334
4.972932 -5.212876 1.925448 36.333332
5.577154 -5.274449 1.905845 30.000000
5.703345 -5.222393 1.919941 31.000000
5.943958 -5.256920 1.970060 42.000000
5.039708 -5.119500 1.919940 23.000000
5.721131 -5.156756 1.912231 32.000000
7.680293 -5.079553 1.943480 12.000000
5.546088 -4.951787 1.987070 33.750000
7.713796 -4.963736 1.936046 12.500000
5.541356 -4.823749 1.963489 30.000000
7.239766 -4.788268 1.993720 10.500000
7.312613 -4.592530 1.983422 1.000000
7.422480 -4.548523 1.999540 32.000000
18.281717 -2.351686 1.906101 31.333334
18.282454 -2.244812 1.904798 60.500000
18.273787 -2.098207 1.902124 65.333336
18.270849 -1.981622 1.900478 67.000000
9.903931 -0.243804 1.909749 27.666666
8.470891 -0.093146 1.945813 55.000000
8.517333 -0.120419 1.956558 3.000000
8.426449 0.000005 1.935515 61.333332
8.459196 0.093018 1.943127 72.000000
8.521232 0.120475 1.957454 26.000000
10.851474 0.895948 1.902290 28.000000
7.622079 1.023773 1.909339 0.000000
9.339310 1.203211 1.987468 55.000000
10.865843 1.149717 1.908945 5.000000
11.065868 1.206046 1.944742 7.000000
7.295990 1.237954 1.977775 48.000000
7.510894 1.355487 1.991272 28.666666
18.084269 3.309319 1.901164 66.000000
18.078602 3.455225 1.903358 65.000000
18.072979 3.601519 1.905690 63.666668
18.066898 3.748069 1.908090 64.000000
18.066036 3.896140 1.911176 62.666668
18.056274 4.042684 1.913439 63.000000
18.049116 4.190229 1.916113 63.000000
6.531365 4.305007 1.942109 16.000000
6.678249 4.267638 1.967651 40.000000
6.736339 4.319578 1.986767 0.000000
18.048573 4.339760 1.919610 62.500000
18.044138 4.488905 1.922833 62.000000
18.035982 4.637580 1.925782 62.000000
18.027805 4.786747 1.928868 62.000000
18.024231 4.937654 1.932571 62.500000
-8.692245 5.085446 1.941296 6.000000
18.000189 5.083323 1.934217 60.666668
17.952654 5.191952 1.932571 52.000000
18.008808 5.269555 1.940388 61.000000
18.012117 5.393655 1.944366 61.000000
18.004738 5.545874 1.948206 61.500000
17.995983 5.698328 1.952046 61.333332
7.129211 5.729985 1.930470 8.000000
17.992970 5.853225 1.956640 60.000000
17.984764 6.007188 1.960824 61.000000
17.981613 6.163512 1.965692 61.000000
17.978210 6.288849 1.969601 60.500000
17.969416 6.444639 1.974127 60.333332
17.963108 6.602032 1.979064 60.000000
17.960392 6.729427 1.983385 60.000000
17.954924 6.856336 1.987499 60.000000
17.950270 6.951639 1.990585 59.000000
17.948761 7.048525 1.994082 59.000000
17.942911 7.176673 1.998403 60.000000
7.171003 10.310040 1.968432 0.000000
7.215124 10.235653 1.962857 4.000000
15.166154 11.210080 1.950263 19.000000
15.207710 11.167089 1.951086 0.000000
14.954983 11.273480 1.936685 17.000000
15.152743 11.348080 1.957669 37.000000
14.677209 11.504265 1.928456 12.000000
14.327701 11.598203 1.906238 1.000000
14.904767 11.607224 1.953555 9.000000
15.010453 11.538744 1.957875 4.500000
14.844037 11.710501 1.955200 2.000000
14.888029 11.974562 1.975773 64.000000
15.087202 12.056895 1.997168 4.000000
14.567255 12.137113 1.960755 25.000000
14.305201 12.265371 1.948617 4.000000
14.590669 12.273433 1.971658 46.000000
14.630995 12.386050 1.982356 21.000000
13.946039 12.618910 1.944914 22.000000
14.192266 12.600527 1.962607 24.000000
14.359085 12.628093 1.977419 2.000000
14.631094 12.624765 1.998402 27.000000
14.059760 12.842826 1.969190 2.000000
14.316466 12.831905 1.988116 6.000000
-18.840078 13.142990 1.972580 17.000000
17.755276 13.210288 1.900371 10.000000
17.734192 13.324961 1.904820 33.000000
17.723412 13.506528 1.913489 40.666668
17.705795 13.655046 1.920049 54.500000
17.702610 13.786070 1.926722 54.000000
17.703169 13.906070 1.933110 51.000000
17.707335 14.105289 1.944005 25.500000
17.710337 14.428762 1.961629 2.000000
17.685198 14.547506 1.966420 31.000000
17.666920 14.719572 1.974633 52.500000
17.661451 14.856525 1.981820 52.000000
-12.211117 14.988322 1.999225 1.000000
17.666401 14.955712 1.987638 42.000000
17.652699 15.039570 1.991403 50.000000
17.656797 15.139053 1.997220 20.000000
15.957185 15.425829 1.905846 5.000000
16.400932 15.509521 1.938358 8.500000
16.754770 15.498802 1.959918 5.000000
16.622158 15.571072 1.955811 2.000000
-9.839809 16.044659 1.946354 16.500000
16.378613 16.084019 1.971211 12.000000
-9.833303 16.204788 1.960138 13.000000
15.919228 16.318705 1.957636 68.000000
-9.843950 16.337837 1.972481 2.000000
-9.782365 16.351608 1.970424 4.000000
15.843716 16.412380 1.958891 51.000000
15.789319 16.459198 1.958549 27.000000
-14.659657 16.775110 1.913033 7.000000
14.350641 16.867910 1.901740 10.000000
-14.766284 17.004637 1.933909 11.000000
14.216413 17.142006 1.912349 19.000000
15.183311 17.179728 1.968816 7.000000
-14.682846 17.233959 1.944175 12.500000
-14.404807 17.234076 1.928775 4.000000
14.301885 17.355745 1.931171 18.000000
14.849382 17.343443 1.960602 2.000000
15.065110 17.373247 1.974634 12.000000
-13.928688 18.357031 1.978740 3.000000
-13.678938 18.385170 1.967789 19.000000
-13.179211 18.490252 1.949822 14.000000
-13.139068 18.618917 1.956838 3.000000
-13.098813 18.686207 1.959576 24.000000
-12.563995 18.662004 1.931856 5.000000
-12.822529 18.790081 1.953416 19.000000
-12.691884 18.724703 1.942464 10.000000
-13.044623 18.859917 1.969158 16.000000
-12.642110 19.165487 1.971554 34.000000
-12.856605 19.358065 1.995509 28.000000
-12.662649 19.328453 1.984216 11.000000
-12.615847 19.456444 1.991231 40.500000
-12.566021 19.581097 1.997905 43.000000
-19.583277 20.774002 1.952305 2.000000
-18.814352 20.858824 1.920922 15.000000
-19.038042 20.973948 1.937023 5.000000
-19.039061 21.241739 1.950668 15.000000
-9.483453 21.250269 1.998247 7.000000
-9.220412 21.378735 1.999274 0.000000
15.156971 35.227940 1.954148 1.000000
14.789731 35.600079 1.964326 32.000000
12.132808 35.680710 1.920357 15.000000
15.081571 35.668343 1.973282 2.000000
15.217061 35.675900 1.976336 9.000000
14.288707 36.311161 1.988345 67.000000
14.414508 36.295795 1.989974 66.000000
14.555214 36.317078 1.993638 20.000000
12.115396 36.377819 1.953741 17.000000
14.199231 36.419147 1.991806 52.000000
14.120732 36.556736 1.996895 5.000000
11.708324 36.687027 1.962290 3.000000
11.848052 36.726105 1.966361 28.000000
12.016626 36.852016 1.975114 12.000000
9.433881 37.064640 1.948855 8.000000
9.703935 37.147640 1.956387 24.000000
8.880113 37.332611 1.955369 22.000000
9.429310 37.539658 1.972264 20.000000
8.059802 38.114605 1.985088 27.000000
7.953864 38.206226 1.988549 47.000000
8.957088 38.188740 1.998727 22.000000
8.217247 38.264858 1.994249 16.000000
7.649954 38.353737 1.992824 22.333334
7.874693 38.430614 1.998930 7.000000
-6.949201 -29.815332 2.093529 18.000000
-7.484980 -22.941002 2.072167 0.000000
-7.289227 -22.581347 2.037603 28.000000
-7.154401 -22.649502 2.039656 19.000000
-7.209762 -22.577559 2.035207 35.000000
13.244994 -10.914450 2.078424 25.000000
12.659871 -10.839326 2.018312 25.000000
12.783482 -10.841174 2.029853 37.500000
12.855724 -10.798709 2.033219 9.000000
13.251628 -10.780896 2.068806 25.666666
13.355775 -10.657969 2.069287 40.666668
13.533856 -10.592839 2.081309 37.000000
10.517544 -10.480906 2.061681 14.000000
13.391334 -10.549298 2.064477 37.000000
13.589011 -10.567331 2.084675 35.000000
13.634189 -10.511114 2.084835 18.333334
8.120000 -10.430596 2.071871 32.000000
10.578523 -10.410012 2.060765 11.000000
8.648872 -10.220078 2.098505 4.000000
6.397807 -9.836719 2.050067 28.000000
6.342032 -9.552758 2.003256 14.000000
6.503761 -9.534157 2.016336 26.000000
5.258331 -9.118717 2.029124 3.000000
5.387906 -9.143200 2.045781 7.000000
9.775558 -9.090370 2.092311 9.000000
5.307586 -9.071939 2.026096 36.000000
6.194207 -8.932291 2.095374 12.000000
4.953098 -8.558167 2.087006 15.000000
5.702380 -7.822941 2.043226 2.000000
5.780588 -7.826293 2.053551 27.000000
5.958008 -7.412915 2.007293 7.000000
3.084798 -7.209305 2.095719 20.799999
3.161902 -7.148271 2.088993 20.062500
3.329193 -7.089292 2.093189 9.750000
3.655478 -6.930350 2.094067 31.200001
3.680329 -6.744828 2.029116 28.000000
3.781346 -6.727190 2.062464 30.250000
3.935136 -6.761383 2.090818 29.272728
9.816974 -6.706787 2.077145 43.333332
4.176237 -6.649756 2.098611 1.000000
9.798274 -6.589192 2.062918 71.333336
9.816352 -6.489916 2.055919 78.000000
11.641210 -6.516721 2.091072 5.000000
9.915947 -6.422164 2.064008 68.500000
10.073380 -6.390234 2.084144 47.500000
11.674380 -6.391536 2.086117 3.000000
11.666625 -6.339734 2.081162 3.000000
4.587981 -6.242399 2.070467 34.250000
4.650245 -6.163439 2.063496 12.000000
4.663443 -6.070932 2.045939 1.000000
11.568594 -5.793110 2.027894 32.333332
11.383048 -5.774950 2.000641 15.000000
11.588255 -5.697114 2.023971 64.666664
11.632164 -5.628217 2.025416 65.000000
11.710259 -5.598006 2.034398 28.000000
11.852271 -5.552009 2.051431 0.000000
5.474266 -5.422915 2.059365 36.000000
5.667780 -5.406793 2.093447 35.000000
5.428122 -5.310045 2.029414 17.000000
5.592632 -5.368749 2.071931 35.333332
5.645209 -5.290001 2.067627 34.166668
7.629202 -4.903566 2.083116 24.666666
7.346464 -4.792704 2.014763 14.000000
7.655192 -4.875018 2.084608 4.000000
7.513669 -4.653229 2.029985 16.000000
7.666142 -4.582642 2.051476 29.000000
7.517686 -4.542054 2.017449 29.500000
7.675479 -4.533840 2.047596 22.000000
8.427458 -0.105939 2.092466 52.000000
9.885995 -0.170880 2.086869 52.000000
8.398251 0.000037 2.085077 68.666664
8.455981 0.101858 2.099534 44.666668
10.817048 0.919593 2.092724 36.500000
7.442054 1.106899 2.010824 52.000000
7.512672 1.050197 2.027349 41.142857
10.770414 1.052316 2.086099 56.000000
7.410284 1.185633 2.005661 57.799999
9.466097 1.135418 2.012249 21.500000
7.434722 1.297591 2.017021 46.500000
7.545395 1.402543 2.051103 40.000000
7.575125 1.432704 2.060398 0.000000
6.661144 4.139758 2.096029 37.000000
6.798207 4.450316 2.017288 2.000000
6.959523 4.703112 2.085398 0.000000
6.899525 4.736584 2.077768 2.500000
-8.144916 4.964819 2.013281 8.000000
-8.122109 5.030035 2.016379 6.000000
7.122294 5.687689 2.093562 15.000000
6.566643 6.343549 2.097144 25.000000
17.905611 7.325356 2.000597 68.666664
17.921566 7.496785 2.008894 60.500000
17.923538 7.630265 2.014449 11.500000
17.916515 7.794100 2.020483 35.666668
17.916004 7.961754 2.027410 50.000000
17.907322 8.093012 2.032141 50.500000
17.904924 8.227798 2.037696 51.500000
17.893135 8.393240 2.043799 49.333332
17.882942 8.560404 2.050245 4.000000
17.887016 8.689363 2.056417 2.000000
17.882744 8.838233 2.062794 1.000000
17.880194 8.977198 2.068966 1.500000
17.866344 9.146667 2.075618 2.666667
17.858673 9.320448 2.083161 23.500000
17.848978 9.458555 2.088921 56.500000
17.848766 9.602556 2.095916 58.000000
6.422465 9.648315 2.024941 4.000000
15.526279 11.935276 2.025147 20.000000
15.274572 12.128196 2.016918 38.000000
14.761613 12.576452 2.005397 24.000000
14.873754 12.915891 2.037079 1.000000
-19.400263 13.130024 2.011594 1.000000
-19.248365 13.204317 2.004407 6.000000
-19.167437 13.237541 2.000300 9.000000
-19.757790 13.968564 2.077814 7.000000
-19.625271 14.014073 2.070799 26.000000
-12.951285 14.726575 2.028027 6.000000
-12.211531 15.085373 2.007043 4.000000
-18.839125 15.130818 2.074905 5.000000
-18.692604 15.305172 2.074563 27.000000
17.663462 15.241312 2.003380 17.000000
-18.641356 15.361281 2.074221 38.000000
17.643984 15.370203 2.009369 48.000000
-18.642084 15.460481 2.079696 8.000000
-18.712751 15.618562 2.093043 10.000000
-18.312778 15.579885 2.064638 3.000000
17.640028 15.579198 2.020948 44.666668
-12.531478 15.782480 2.083984 4.000000
-12.437478 15.765542 2.076578 2.000000
17.630730 15.752683 2.030245 50.500000
17.622938 15.895635 2.037945 50.000000
-18.152643 15.941873 2.074563 19.000000
17.615562 16.040230 2.045816 51.500000
17.598511 16.176992 2.052661 50.000000
-11.012367 16.357285 2.039136 2.000000
17.439451 16.336683 2.051976 38.000000
17.606968 16.355713 2.063612 46.666668
-11.045858 16.631641 2.064646 1.000000
17.605450 16.648716 2.080723 30.000000
-11.237383 16.805229 2.090567 1.000000
17.601805 16.803026 2.089621 19.000000
17.586967 16.947994 2.097321 21.500000
-9.499921 17.074993 2.020621 3.000000
-9.509701 17.219692 2.034199 3.000000
16.959120 17.239660 2.076616 22.000000
-10.253446 17.386068 2.087275 18.000000
-10.154541 17.342661 2.078223 53.000000
-10.041973 17.400352 2.077538 55.666668
-9.937783 17.472349 2.078635 2.000000
-9.540132 17.534235 2.064234 4.000000
-9.444201 17.554443 2.061354 4.000000
-9.878383 17.624687 2.089333 15.000000
15.548959 18.045452 2.045474 24.000000
15.594317 18.446852 2.074221 2.000000
15.809722 18.582932 2.095096 10.000000
15.191038 18.672583 2.067034 12.000000
15.307693 18.695690 2.074905 6.000000
15.559826 18.642378 2.085172 1.000000
-13.770330 19.128201 2.023914 3.000000
-14.755519 19.320372 2.087568 6.000000
-14.457334 19.559372 2.088594 6.000000
-12.534389 19.804470 2.012620 31.000000
-12.684359 19.902790 2.026652 4.000000
-12.743559 20.275652 2.056425 0.000000
-12.711453 20.366299 2.061558 2.000000
-10.502524 21.590702 2.061730 19.500000
-9.821012 21.640268 2.040683 0.000000
-9.810229 21.798212 2.052661 3.000000
-9.577133 21.827660 2.046843 10.000000
-9.562559 21.981895 2.058478 10.000000
-18.758461 24.009750 2.083569 25.000000
-18.628052 24.075809 2.081658 27.000000
17.487467 24.166864 2.039905 12.000000
17.589146 24.147289 2.042907 16.000000
17.344553 24.289255 2.040997 22.000000
17.460371 24.289732 2.045636 19.000000
17.878954 24.303545 2.063238 11.500000
18.065834 24.316799 2.071561 8.000000
17.288939 24.372917 2.043453 11.000000
17.276648 24.518452 2.051094 18.000000
17.277340 24.683765 2.060372 18.000000
17.268051 24.836218 2.068559 17.000000
17.262512 24.995424 2.077292 8.000000
17.258398 25.158131 2.086297 4.000000
9.508339 38.363983 2.013994 16.000000
8.507578 38.438694 2.006055 13.000000
8.795978 38.590912 2.016843 9.000000
9.313937 38.617142 2.024171 6.000000
9.442801 38.618732 2.025800 8.000000
8.677323 38.630047 2.017454 15.000000
6.566172 38.821541 2.006258 24.000000
7.087123 38.920689 2.015826 24.000000
7.206449 38.882519 2.015011 33.000000
7.359659 39.024559 2.023561 25.000000
7.884995 39.105217 2.032721 7.000000
7.648315 39.201038 2.035163 20.000000
8.021441 39.146782 2.036181 21.000000
6.381135 39.224785 2.024986 14.000000
7.532651 39.264103 2.037199 33.000000
6.919134 39.401188 2.038420 24.000000
7.037255 39.347797 2.036792 22.000000
6.172170 39.504868 2.037403 25.000000
6.541600 39.429180 2.036588 31.000000
8.343283 39.455181 2.054909 2.000000
6.048032 39.524063 2.037403 21.000000
6.317007 39.615467 2.044120 20.000000
13.061567 -39.914742 2.139995 35.000000
13.175611 -39.839375 2.138163 60.000000
13.291844 -39.771263 2.136739 59.000000
13.419281 -39.736877 2.137146 32.000000
13.550504 -39.713428 2.138163 20.000000
13.680401 -39.685772 2.138978 2.000000
13.795816 -39.616192 2.137553 25.000000
13.897671 -39.508587 2.134092 41.000000
14.041785 -39.521194 2.137146 11.000000
16.954348 -37.973007 2.119029 5.000000
17.042391 -37.850353 2.115161 57.000000
17.179384 -37.836636 2.117401 23.000000
17.619541 -37.545444 2.113329 2.000000
-5.859824 -31.586016 2.196821 14.000000
-5.565335 -31.659492 2.198185 31.000000
-6.722763 -31.278980 2.187815 3.000000
-5.916832 -31.343929 2.181266 19.000000
-6.357921 -31.000837 2.164073 12.000000
-6.436561 -30.890854 2.157796 11.000000
-7.451444 -30.871279 2.171714 7.000000
-6.870056 -30.785040 2.156978 15.000000
-8.823463 -30.771147 2.189043 7.500000
-7.003456 -30.701799 2.153430 6.000000
-7.561680 -30.486874 2.147972 45.000000
-6.667850 -30.555899 2.138694 5.000000
-6.441023 -30.433214 2.127232 26.000000
-7.618507 -30.308155 2.137056 62.000000
-7.747351 -30.217764 2.133236 53.000000
-7.381445 -30.165487 2.123684 12.000000
-7.192227 -30.003922 2.109903 16.500000
-7.161971 -23.706635 2.126581 8.000000
8.132734 -10.863342 2.126997 6.000000
8.273354 -10.696749 2.119564 45.000000
8.196365 -10.666285 2.108415 39.000000
11.702085 -10.610744 2.193344 20.250000
9.058012 -10.173639 2.135049 10.000000
11.449314 -9.994913 2.110276 25.000000
11.613922 -10.010727 2.128980 32.000000
6.920897 -9.942884 2.116498 8.000000
7.075472 -9.930467 2.130267 4.500000
11.495622 -9.971875 2.113026 23.000000
11.645870 -9.943031 2.126229 11.000000
7.795359 -9.757905 2.182012 44.000000
7.925119 -9.731019 2.192567 0.000000
7.685494 -9.620563 2.151263 24.000000
7.762593 -9.654716 2.164343 27.000000
7.996246 -9.600955 2.182930 24.000000
8.081672 -9.549836 2.185683 50.000000
6.093349 -9.436934 2.165409 5.000000
6.212424 -9.457731 2.181308 8.750000
6.364410 -9.460538 2.197965 22.000000
8.024769 -9.422406 2.162277 40.000000
7.695245 -9.328442 2.112712 1.000000
12.541644 -9.321041 2.169689 1.000000
7.988587 -9.261402 2.136806 22.000000
6.253223 -9.108707 2.129823 56.000000
12.744369 -9.176718 2.180582 15.400000
5.062784 -9.006988 2.180762 3.000000
12.720959 -9.026953 2.165838 31.000000
10.040197 -8.961224 2.109344 12.500000
12.700678 -8.952706 2.157586 28.000000
4.465798 -7.633121 2.195596 20.000000
5.660009 -7.464901 2.151767 3.000000
4.179632 -7.354495 2.100177 33.000000
5.756173 -7.333178 2.141320 14.333333
5.831220 -7.302028 2.146394 2.000000
3.432546 -7.148259 2.119266 21.000000
3.475877 -7.066962 2.104807 21.200001
3.585300 -7.031215 2.109352 17.000000
3.766340 -6.953983 2.113586 33.500000
4.161850 -6.962214 2.167807 3.000000
4.778964 -6.385849 2.131660 18.000000
6.005070 -5.481460 2.172971 26.000000
6.640884 -5.511412 2.142585 3.000000
6.649325 -5.448247 2.134232 15.333333
5.847403 -5.345990 2.117459 41.250000
6.781064 -5.363045 2.146441 0.000000
7.368713 -4.790785 2.182102 32.000000
7.279365 -4.700225 2.151259 32.000000
7.344485 -4.628724 2.155356 29.750000
7.470245 -4.593929 2.177283 34.000000
7.400764 -4.551201 2.157043 37.000000
7.543377 -4.502100 2.181031 24.444445
7.573262 -4.398900 2.174391 6.000000
9.953884 -0.234577 2.101462 0.000000
8.520033 -0.147230 2.115598 0.000000
9.349769 1.204530 2.165326 57.285713
9.462154 1.150074 2.189376 1.000000
10.857467 1.181470 2.105342 38.333332
6.664906 4.303475 2.120299 10.333333
6.734404 4.273782 2.131660 4.500000
6.711119 4.576299 2.170905 13.000000
-8.146370 4.965720 2.191390 9.250000
-8.123514 5.030905 2.194748 6.000000
7.146758 5.855805 2.122217 3.000000
5.880579 6.321615 2.143549 11.000000
6.887457 6.447373 2.166989 3.500000
5.733680 6.692043 2.187885 2.833333
17.840456 9.743124 2.102087 39.000000
17.834564 9.885889 2.108670 46.500000
17.834515 10.032871 2.116076 57.000000
17.828140 10.177274 2.122865 56.000000
17.825817 10.324985 2.130271 56.500000
17.817192 10.470041 2.137060 56.000000
17.812571 10.618460 2.144466 58.000000
17.808491 10.768252 2.152078 56.000000
17.804924 10.919455 2.159896 57.000000
17.796780 11.068935 2.167302 55.500000
17.764742 11.243437 2.174091 50.666668
17.780874 11.410735 2.184788 54.000000
16.981304 11.510179 2.121425 25.000000
17.785040 11.492453 2.189726 21.000000
17.549728 11.576309 2.174091 22.000000
17.815548 11.591667 2.197955 1.000000
13.425601 11.732546 2.159214 1.000000
16.824480 11.793761 2.124717 31.000000
17.738857 11.727769 2.199052 55.666668
16.996561 12.074365 2.155987 4.000000
14.347471 14.584809 2.115665 6.000000
14.204465 14.900527 2.128831 34.000000
14.344855 14.953451 2.142821 11.000000
14.171683 15.022972 2.135689 29.333334
14.529931 15.051440 2.163393 9.000000
14.203601 15.473379 2.172034 9.000000
14.476552 15.475393 2.191372 39.000000
13.992910 15.567975 2.164628 26.333334
14.098083 15.553473 2.170799 7.000000
14.251449 15.623750 2.186846 8.000000
-18.749039 15.749042 2.102625 5.000000
13.854741 15.876393 2.179028 25.000000
-19.702715 15.926497 2.175519 4.000000
-19.717508 16.041130 2.182706 2.000000
-19.267809 16.184805 2.160804 12.000000
-19.277733 16.296721 2.167648 44.000000
-12.624287 16.746912 2.168742 2.000000
-19.283619 16.828108 2.197764 23.000000
-11.929144 16.904377 2.139529 23.000000
-11.837156 16.886381 2.132535 20.000000
-11.676501 16.881887 2.122660 26.000000
-12.217965 17.084763 2.172034 6.000000
-12.092793 17.022512 2.159279 17.000000
17.579781 17.101559 2.106048 47.000000
17.541622 17.226082 2.111181 24.500000
17.559338 17.406769 2.123159 46.000000
-10.653994 17.619526 2.129243 51.000000
17.550301 17.562635 2.132057 9.000000
-10.772166 17.626875 2.136238 19.000000
-10.533749 17.691681 2.129243 47.000000
17.562733 17.741425 2.143692 2.000000
17.534859 17.824923 2.147115 9.000000
-9.553428 18.235256 2.128831 12.000000
17.543852 18.519703 2.190577 2.000000
-9.571524 18.696356 2.172034 18.000000
-11.331383 22.481062 2.161830 27.000000
-11.461522 22.562603 2.173124 28.000000
-11.289226 22.573578 2.167306 6.000000
-11.127806 22.604733 2.163541 8.000000
-11.617702 22.693218 2.189208 15.000000
-10.935419 22.844288 2.174835 5.500000
-11.386540 22.948082 2.199817 15.000000
-10.473222 23.077389 2.176203 1.000000
-10.588795 23.138590 2.185102 2.000000
-19.102818 24.058603 2.100761 2.000000
-18.724997 24.358854 2.101034 7.000000
17.254322 25.494110 2.105127 9.000000
17.243162 25.650858 2.113587 11.000000
17.235617 25.814426 2.122593 11.000000
17.231627 25.984852 2.132144 9.000000
17.233318 26.165503 2.142514 1.000000
17.238417 26.353100 2.153430 3.000000
17.000580 26.996490 2.181675 142.000000
-8.711237 -32.084797 2.273505 44.000000
-8.399374 -32.130726 2.271049 4.000000
-7.541854 -32.129635 2.256858 3.000000
-8.810926 -32.053429 2.273232 3.000000
-7.308764 -32.040215 2.247307 4.000000
-6.573594 -32.052444 2.237482 2.000000
-6.456285 -31.990788 2.231751 9.000000
-8.848464 -31.798758 2.257131 49.000000
-5.809224 -31.871237 2.215378 14.000000
-5.700629 -31.842194 2.212103 2.000000
-6.244515 -31.711500 2.210193 26.500000
-6.094295 -31.736691 2.209920 16.000000
11.346295 -31.326715 2.278417 2.000000
-7.476398 -25.617085 2.291533 11.000000
-7.803542 -25.540169 2.293244 6.000000
-7.864026 -25.171099 2.264498 5.000000
12.328709 -10.728595 2.269261 2.500000
12.545044 -10.744807 2.293467 5.000000
11.827559 -10.589925 2.204347 34.000000
12.036341 -10.641365 2.230753 1.000000
12.126265 -10.653186 2.241205 0.000000
11.887409 -10.576417 2.209298 13.000000
7.910949 -10.294860 2.268292 9.000000
8.058656 -10.284980 2.282748 15.000000
7.981676 -10.275052 2.273111 43.000000
8.059209 -10.219390 2.273799 38.000000
12.844875 -10.188025 2.276413 42.000000
12.813213 -10.065041 2.262385 32.000000
6.642992 -9.807970 2.283522 5.000000
12.773313 -9.872318 2.241572 22.666666
6.739599 -9.751390 2.285036 6.000000
6.860630 -9.729165 2.294879 33.000000
6.545431 -9.598840 2.239608 3.000000
8.155197 -9.606134 2.201516 37.500000
12.838187 -9.437503 2.212415 8.666667
4.731462 -8.660113 2.266683 22.666666
9.646900 -8.583000 2.255900 15.000000
4.840580 -8.517499 2.250266 22.000000
5.000141 -8.531057 2.271309 12.750000
4.832451 -8.441350 2.234148 33.000000
9.887314 -8.414765 2.268292 0.000000
13.810228 -8.076513 2.221401 13.000000
13.752108 -7.955757 2.205997 17.000000
5.736527 -7.183451 2.282340 0.000000
9.770261 -6.595204 2.272354 54.750000
9.804001 -6.440018 2.261186 56.500000
9.928734 -6.388783 2.275950 55.000000
10.059887 -6.384130 2.296772 38.000000
11.489821 -6.011840 2.265538 1.000000
11.578721 -5.965944 2.275635 10.666667
11.622893 -5.850834 2.273386 34.000000
11.595960 -5.700939 2.257507 62.666668
11.623331 -5.623943 2.255900 54.000000
11.719032 -5.602200 2.269324 28.500000
11.816381 -5.557841 2.281371 4.500000
11.778706 -5.405144 2.264161 0.000000
6.848928 -5.113046 2.284253 28.875000
6.844982 -5.022622 2.269020 32.000000
6.917395 -4.968799 2.276249 34.444443
7.448673 -4.909631 2.214872 17.000000
7.574495 -4.958499 2.247642 39.000000
7.470564 -4.790496 2.203306 34.000000
7.269357 -4.486125 2.282962 2.500000
18.269377 -2.330639 2.230386 43.000000
18.274223 -2.243802 2.229665 60.500000
18.264286 -2.097116 2.226379 64.666664
18.261805 -1.951624 2.224134 64.500000
18.260723 -1.806583 2.222211 65.333336
18.252007 -1.689974 2.219806 66.000000
18.253271 -1.632273 2.219325 66.000000
18.253990 -1.531248 2.218364 65.500000
18.246235 -1.343138 2.215638 65.666664
18.243050 -1.198917 2.214036 51.500000
18.243904 -1.055169 2.213074 19.000000
18.243765 -0.911440 2.212112 21.000000
18.181559 -0.765166 2.203777 62.000000
18.217064 -0.594786 2.207303 70.333336
18.219227 -0.451647 2.207063 59.500000
18.206953 -0.308276 2.205219 75.333336
9.934507 -0.274339 2.282758 47.000000
18.205944 -0.193837 2.204899 66.000000
8.415730 -0.119124 2.249397 51.666668
9.884940 -0.177010 2.270861 50.599998
8.357367 -0.015693 2.233595 58.599998
8.477918 0.093223 2.265921 22.000000
18.179609 0.749237 2.203456 33.000000
10.827477 0.920489 2.293518 39.000000
18.162550 0.891479 2.202173 88.000000
10.786795 1.053926 2.287529 60.000000
18.157124 1.077141 2.202734 74.750000
18.151077 1.205593 2.202975 80.000000
18.146292 1.348502 2.203616 75.000000
18.159948 1.464305 2.206341 36.000000
18.134098 1.950763 2.208746 37.500000
18.128670 2.036660 2.209227 24.000000
18.084339 3.172490 2.223493 56.000000
18.076180 3.307838 2.225417 63.666668
18.072433 3.454050 2.228222 63.500000
18.066130 3.600149 2.230867 62.666668
18.066498 3.747973 2.234474 63.000000
18.057816 3.894359 2.237118 62.000000
18.051899 4.041704 2.240244 62.000000
18.043413 4.188897 2.243210 63.666668
18.036377 4.336827 2.246496 62.000000
18.035761 4.486816 2.250744 61.000000
18.025646 4.634919 2.253950 62.000000
18.023190 4.785522 2.258278 62.000000
18.011898 4.934269 2.261644 62.500000
18.013039 5.056462 2.265732 63.500000
17.948467 5.160223 2.261644 48.500000
18.007826 5.269268 2.272224 61.000000
17.998388 5.389531 2.275269 62.000000
7.137459 5.572371 2.248124 10.000000
17.994129 5.542603 2.280159 62.000000
17.991011 5.696757 2.285368 61.000000
17.984150 5.850356 2.290257 60.500000
17.978403 6.005068 2.295467 61.333332
5.959804 6.208315 2.300003 36.000000
6.521069 6.279742 2.247642 27.500000
6.029993 6.585195 2.216800 11.000000
19.080317 9.579625 2.207829 0.500000
19.289188 9.571039 2.226756 1.000000
19.451237 9.575414 2.241980 1.000000
19.627808 9.585846 2.258849 1.000000
6.361331 9.684235 2.233551 6.000000
15.238729 11.189865 2.289536 27.000000
14.982001 11.367837 2.277514 45.000000
13.864172 11.887231 2.211631 11.000000
13.998724 11.888569 2.224134 6.000000
14.135555 11.852647 2.233993 12.500000
14.351606 11.919165 2.259240 8.000000
17.771009 11.883184 2.210710 56.000000
17.766596 11.961174 2.214824 55.000000
14.637066 12.078744 2.298192 45.000000
17.817854 12.077205 2.225933 10.000000
17.709843 12.126171 2.219556 46.000000
17.752586 12.320042 2.234574 54.500000
13.681349 12.418548 2.237599 32.000000
13.800213 12.408379 2.247458 10.500000
17.741856 12.548010 2.247191 55.333332
13.419522 12.810538 2.246736 2.000000
13.539967 12.723763 2.250103 11.500000
17.734676 12.724947 2.257203 55.500000
17.728394 12.889935 2.266666 54.500000
17.731638 13.020420 2.274895 53.000000
17.732422 13.164452 2.283810 44.000000
17.730499 13.322165 2.293411 17.500000
