# This PCD file was generated using the MATLAB® pcwrite function
# from Computer Vision Toolbox®.
# .PCD v.7 - Point Cloud Data file format
VERSION .7
FIELDS x y z intensity
SIZE 4 4 4 4
TYPE F F F F
COUNT 1 1 1 1
WIDTH 1207
HEIGHT 1
VIEWPOINT 0 0 0 1 0 0 0
POINTS 1207
DATA ascii
-10.509592 5.119059 -0.215887 93.000000
-10.169032 5.192565 -0.210865 19.000000
-11.135262 5.294557 -0.227705 12.000000
-9.908904 5.237566 -0.206987 71.500000
-9.597093 5.247724 -0.202002 18.000000
-10.513509 5.326886 -0.217660 2.000000
-10.131289 5.334844 -0.211456 45.000000
-10.061485 5.338531 -0.210348 29.000000
-9.731451 5.381008 -0.205363 54.000000
-10.994123 5.483860 -0.226892 5.000000
-9.880568 5.544773 -0.209240 49.500000
-9.621331 5.579532 -0.205399 37.000000
-11.516595 5.654391 -0.236937 5.000000
-10.899529 5.652190 -0.226744 2.000000
-10.566457 5.691827 -0.221648 11.000000
-10.425496 5.658227 -0.219063 14.000000
-9.784382 5.633088 -0.208502 71.000000
-9.632852 5.647085 -0.206212 40.000000
-11.366148 5.758893 -0.235312 28.000000
-11.201719 5.764318 -0.232653 3.000000
-10.143076 5.755045 -0.215370 40.000000
-10.017305 5.725364 -0.213081 55.000000
-12.535234 5.847990 -0.255451 9.000000
-11.440606 5.841863 -0.237232 4.000000
-10.723479 5.863636 -0.225710 7.000000
-12.453579 5.921386 -0.254663 10.000000
-10.317369 6.135669 -0.221685 27.000000
-10.171334 6.157473 -0.219580 36.333332
-10.034613 6.204763 -0.217882 31.000000
-11.665001 6.283579 -0.244692 0.000000
-10.180156 6.250637 -0.220614 34.000000
-10.010023 6.276964 -0.218202 37.333332
-10.156615 6.480418 -0.222498 28.000000
-9.937554 6.473310 -0.219026 23.500000
-10.336212 6.733030 -0.227815 47.000000
-10.038606 6.743088 -0.223332 26.799999
-10.391512 6.885819 -0.230216 10.000000
-10.350444 7.047369 -0.231250 29.000000
-10.450306 7.163515 -0.233983 18.000000
-10.328591 7.163828 -0.232136 20.000000
-9.919054 7.156497 -0.225883 33.666668
-10.441071 7.376292 -0.236088 5.500000
-9.997014 7.372911 -0.229403 39.666668
-11.168050 7.501791 -0.248459 3.000000
-10.515271 7.503236 -0.238562 2.000000
-10.191104 7.466959 -0.233318 46.000000
-9.845098 7.444148 -0.227941 27.200001
-10.283467 7.584394 -0.235977 56.000000
-10.081835 7.533946 -0.232432 29.000000
-10.018098 7.684381 -0.233170 27.000000
-9.750645 7.640419 -0.228770 26.285715
7.433101 7.705271 -0.197718 25.000000
-11.362017 7.736125 -0.253850 2.000000
-10.082547 7.784248 -0.235238 42.000000
7.403704 7.762244 -0.198102 22.000000
-9.817093 7.904515 -0.232764 36.000000
-11.677425 8.004684 -0.261458 0.000000
-11.379713 8.012645 -0.257026 46.000000
-11.131538 7.995878 -0.253112 0.000000
-9.968414 7.949137 -0.235460 29.000000
-11.594912 8.109798 -0.261310 17.000000
-11.380588 8.066854 -0.257617 34.000000
-11.254271 8.030554 -0.255328 53.000000
-9.862022 8.017505 -0.234721 15.000000
-11.226584 8.171573 -0.256435 1.000000
-11.002832 8.384945 -0.255475 1.000000
7.280943 8.402387 -0.205326 37.000000
6.920082 8.512122 -0.202593 36.000000
7.282920 8.485163 -0.206507 46.000000
-10.307438 8.514924 -0.246908 15.250000
-10.905526 8.640517 -0.256952 4.000000
-10.251513 8.678497 -0.248053 29.833332
6.946624 8.673882 -0.205227 46.666668
-10.243784 8.792400 -0.249308 76.000000
-9.926883 8.739388 -0.244249 14.500000
-9.969287 8.860488 -0.246317 57.000000
-9.893709 8.849102 -0.245135 19.000000
-10.454626 9.059274 -0.255475 29.000000
-10.624335 9.284595 -0.260571 24.666666
-11.506727 9.354596 -0.273866 8.000000
-11.311881 9.314851 -0.270616 5.000000
-11.262344 9.393428 -0.270838 20.000000
-11.418053 9.462626 -0.273866 2.000000
-10.336773 9.481822 -0.259045 0.666667
6.012777 9.456370 -0.206950 45.000000
-10.510768 9.520558 -0.261901 13.000000
-10.790318 9.712239 -0.268105 57.000000
-10.916168 9.763607 -0.270469 6.000000
-10.491400 9.807380 -0.265225 5.000000
-11.604527 10.511276 -0.289155 19.000000
-11.559628 10.536902 -0.288859 42.000000
-11.022080 10.699801 -0.283689 15.000000
-11.696699 10.763217 -0.293549 36.500000
-11.162136 10.767860 -0.286422 28.000000
-10.705730 10.724428 -0.279848 24.000000
-11.712043 10.902669 -0.295506 27.000000
-11.043047 10.855759 -0.285979 26.000000
-11.506067 10.960887 -0.293475 51.000000
-11.202971 10.943981 -0.289228 83.000000
-11.018723 10.934425 -0.286680 62.500000
-10.814251 10.947297 -0.284181 33.333332
-11.571268 11.023019 -0.295137 59.000000
-10.858857 11.084833 -0.286570 36.000000
-10.960676 11.259309 -0.290189 72.000000
-10.749098 11.252218 -0.287382 37.000000
-10.677897 11.248228 -0.286422 37.000000
-10.944986 11.349660 -0.291186 93.500000
-10.708373 11.351536 -0.288194 2.000000
-6.394605 11.484068 -0.242747 1.000000
-6.267602 11.509871 -0.242033 0.333333
-6.844485 11.596474 -0.248680 0.000000
-6.721251 11.552753 -0.246834 0.000000
-6.557341 11.519423 -0.244790 0.000000
-6.136284 11.526073 -0.241147 0.000000
-5.977006 11.530650 -0.239854 0.000000
-5.824929 11.546327 -0.238833 0.333333
-5.672649 11.558779 -0.237786 1.000000
-5.505492 11.583998 -0.236863 1.500000
-10.906711 11.708303 -0.295506 42.000000
-10.696044 11.701353 -0.292774 37.000000
-6.907448 11.619606 -0.249640 0.000000
-5.371646 11.630558 -0.236592 1.000000
-5.226136 11.650249 -0.235811 1.250000
-5.063709 11.679274 -0.235090 2.000000
-4.939181 11.744088 -0.235287 4.666667
-4.864285 11.772468 -0.235238 20.000000
-10.667865 11.818798 -0.294029 16.000000
-4.776111 11.821372 -0.235460 6.250000
-4.668195 11.875212 -0.235644 1.000000
-4.606451 11.937887 -0.236309 0.000000
-4.540901 11.935184 -0.235829 0.000000
-4.539334 12.102489 -0.238709 0.000000
-4.547485 12.300048 -0.242181 0.000000
-4.638130 12.918262 -0.253481 2.000000
-4.657808 13.102342 -0.256805 8.000000
-4.683007 13.305534 -0.260498 13.000000
-4.718824 13.543002 -0.264855 6.000000
-4.753188 13.780825 -0.269213 6.000000
-4.786110 14.018993 -0.273571 6.000000
-4.821423 14.268868 -0.278150 5.000000
-4.864084 14.545654 -0.283246 7.000000
-4.892495 14.784877 -0.287604 9.000000
-4.935621 15.073830 -0.292921 5.000000
-7.464285 -7.498260 -0.195392 36.500000
-7.378279 -7.411835 -0.193139 24.000000
-7.323238 -7.039929 -0.187600 35.000000
-7.204112 -7.057356 -0.186246 26.000000
-7.233850 -6.925022 -0.184941 27.666666
-7.873319 -6.755407 -0.191588 37.000000
-7.761249 -6.701693 -0.189372 44.000000
8.043655 -6.708859 -0.193434 27.000000
-7.754510 -6.611280 -0.188191 45.000000
-7.276583 -6.609584 -0.181543 27.000000
-6.999435 -6.602856 -0.177703 25.000000
8.197819 -6.621895 -0.194616 14.000000
-8.236328 -6.586749 -0.194764 33.000000
-8.107187 -6.546321 -0.192437 46.500000
8.131249 -6.526017 -0.192548 19.000000
8.278704 -6.559145 -0.195059 28.333334
8.344922 -6.526807 -0.195650 55.000000
-7.672293 -6.417307 -0.184719 49.000000
-7.447334 -6.471587 -0.182208 54.000000
-6.960073 -6.453043 -0.175284 26.500000
8.481486 -6.421480 -0.196463 44.000000
-7.615520 -6.329268 -0.182873 57.000000
-7.507524 -6.339835 -0.181469 32.000000
-7.276440 -6.363316 -0.178515 28.000000
-7.163973 -6.324673 -0.176484 25.000000
-7.058896 -6.331429 -0.175118 26.666666
-6.940570 -6.384417 -0.174157 24.000000
8.269768 -6.333082 -0.192364 40.250000
-8.556731 -6.246542 -0.195650 19.000000
8.576319 -6.201379 -0.195453 47.000000
-8.581004 -6.151430 -0.194985 40.000000
-7.553944 -6.158655 -0.179992 60.000000
-7.459985 -6.140802 -0.178441 33.500000
8.177231 -6.130767 -0.188744 35.500000
8.304004 -6.164850 -0.190997 61.000000
-8.609989 -5.999712 -0.193804 27.000000
-8.538266 -6.059834 -0.193361 29.000000
-7.760101 -6.008428 -0.181248 40.000000
8.184931 -6.036656 -0.187821 30.000000
8.281281 -6.067641 -0.189594 49.000000
8.568069 -6.073268 -0.193951 33.000000
-8.516989 -5.895246 -0.191293 29.000000
-7.740488 -5.915912 -0.179918 15.000000
8.424538 -5.971375 -0.190702 38.000000
-7.647556 -5.806914 -0.177333 20.000000
-7.332710 -5.788950 -0.172533 2.000000
8.357948 -5.826246 -0.188154 48.000000
8.595067 -5.852174 -0.192031 38.000000
-8.766130 -5.747324 -0.193582 82.000000
-8.667646 -5.695640 -0.191539 30.333334
-8.558680 -5.727376 -0.190185 72.000000
-8.413533 -5.784622 -0.188560 37.000000
-7.624255 -5.751551 -0.176373 27.000000
-7.360302 -5.773288 -0.172754 11.000000
8.335835 -5.714077 -0.186640 69.000000
8.689080 -5.702780 -0.191943 39.400002
-8.669772 -5.587339 -0.190480 21.000000
-8.361541 -5.633563 -0.186196 18.000000
8.189470 -5.651647 -0.183759 22.000000
8.395958 -5.639723 -0.186787 57.000000
8.317154 -5.548949 -0.184645 49.000000
8.563538 -5.578276 -0.188744 38.500000
8.713558 -5.559806 -0.190886 36.000000
-7.232651 -5.420563 -0.166919 41.000000
-8.829249 -5.324044 -0.190406 16.000000
-8.696955 -5.356683 -0.188634 16.000000
-8.382456 -5.346386 -0.183611 33.000000
-7.401679 -5.332369 -0.168470 2.000000
-7.388127 -5.357943 -0.168544 2.000000
8.531482 -5.312445 -0.185605 44.000000
-8.643518 -5.267804 -0.186935 38.500000
-7.060382 -5.256899 -0.162562 35.000000
8.322092 -5.254912 -0.181765 40.000000
-9.035427 -5.105754 -0.191662 5.000000
-8.809058 -5.088059 -0.187870 16.333334
-7.288114 -5.129865 -0.164593 18.000000
-8.598711 -5.038783 -0.184054 40.000000
-8.532503 -5.072275 -0.183316 13.000000
-8.982469 -4.964780 -0.189538 48.000000
-7.149834 -4.982230 -0.160937 0.000000
-8.912411 -4.798867 -0.186935 17.500000
-8.893232 -4.842709 -0.187009 32.000000
-8.100657 -4.781176 -0.173714 69.000000
-7.171063 -4.766246 -0.159017 8.000000
-8.958364 -4.637610 -0.186295 46.000000
-8.765498 -4.666587 -0.183390 4.000000
-7.989515 -4.614607 -0.170391 4.000000
-7.630554 -4.601230 -0.164556 11.000000
-7.171012 -4.605474 -0.157392 2.000000
-6.744990 -4.621885 -0.151003 6.500000
-9.273417 -4.496930 -0.190332 15.000000
-8.841275 -4.530153 -0.183464 11.000000
-7.648404 -4.579287 -0.164630 10.000000
-6.709295 -4.535728 -0.149563 6.000000
-7.123739 -4.387698 -0.154511 14.000000
-7.817403 -4.342217 -0.165147 13.000000
-6.990969 -4.336273 -0.151926 8.000000
-6.885601 -4.341219 -0.150326 6.000000
-6.787617 -4.299247 -0.148381 8.000000
-9.356729 -4.214901 -0.189520 2.000000
-8.267238 -4.203287 -0.171277 11.000000
-8.504705 -4.157216 -0.174822 80.000000
-8.329697 -4.136737 -0.171757 21.250000
-8.171890 -4.090395 -0.168766 8.000000
-9.806601 -4.040006 -0.195872 36.666668
-9.590468 -3.892337 -0.191145 37.000000
-8.228334 -3.910719 -0.168249 15.250000
-9.650887 -3.881586 -0.192105 29.000000
-8.230986 -3.801507 -0.167436 21.000000
-7.210092 -3.809493 -0.150597 12.000000
-9.512617 -3.756731 -0.188880 34.000000
-8.827830 -3.723546 -0.176939 74.333336
-8.454970 -3.713231 -0.170538 33.000000
-8.331141 -3.766319 -0.168850 37.285713
-8.070357 -3.758126 -0.164408 30.000000
-9.506764 -3.644369 -0.188028 43.599998
-8.692894 -3.655940 -0.174157 13.000000
-8.448260 -3.678669 -0.170169 15.000000
-8.371652 -3.614069 -0.168397 14.000000
-8.287371 -3.546835 -0.166476 67.000000
-8.528872 -3.477089 -0.170095 0.000000
-8.809915 -3.336018 -0.173973 52.000000
-9.060507 -3.231714 -0.177653 33.333336
-8.957081 -3.231771 -0.175856 11.000000
-9.903593 -3.122626 -0.191773 34.500000
-9.593632 -3.074637 -0.186049 58.000000
-9.329956 -3.038660 -0.181211 34.000000
-9.891222 -2.965628 -0.190702 11.000000
-9.629261 -2.920085 -0.185827 51.000000
-8.518293 -2.930760 -0.166365 57.875000
-9.279102 -2.861613 -0.179328 45.000000
-10.202816 -2.747199 -0.195133 9.000000
8.806622 -2.642120 -0.169800 9.500000
-8.324541 -2.467420 -0.160346 8.000000
-8.669538 -2.332012 -0.165799 24.166666
-8.563550 -2.219469 -0.163374 11.000000
-8.046991 -2.275547 -0.154437 19.333334
9.597471 -2.217516 -0.181913 5.000000
9.915589 -2.225483 -0.187674 0.000000
-8.689243 -2.121433 -0.165184 37.500000
-8.572571 -2.093085 -0.162968 44.000000
-8.285131 -2.105704 -0.157872 39.000000
10.035286 -2.136712 -0.189483 2.500000
-8.789281 -1.991324 -0.166432 34.000000
-8.509078 -2.006756 -0.161454 41.000000
-9.266530 -1.895334 -0.174674 43.500000
-8.727059 -1.913977 -0.164999 29.000000
-10.286733 -1.886113 -0.193139 16.000000
-9.420426 -1.856089 -0.177319 38.000000
-8.712809 -1.853538 -0.164507 33.666668
-9.445692 -1.670766 -0.177149 60.500000
-9.156304 -1.619446 -0.171720 25.000000
-8.623184 -1.665246 -0.162192 2.000000
-8.505156 -1.600917 -0.159829 29.000000
-9.416676 -1.543729 -0.176226 66.000000
-9.037045 -1.510661 -0.169209 52.000000
-8.492948 -1.557216 -0.159460 10.000000
-9.097690 -1.462099 -0.170169 56.000000
-9.075476 -1.370917 -0.169504 45.000000
-8.990889 -1.367690 -0.167953 61.333332
-8.862140 -1.310229 -0.165442 57.000000
-8.995914 -1.214775 -0.167643 54.400002
-8.958002 -1.109510 -0.166698 54.500000
-10.108619 -1.042841 -0.187674 14.000000
-8.827381 -1.022954 -0.164113 37.000000
-8.908246 -0.947298 -0.165442 78.000000
-8.833667 -0.967445 -0.164113 28.000000
-8.688398 -0.896326 -0.161306 13.000000
-8.496179 -0.849530 -0.157687 37.000000
8.069941 -0.840460 -0.149840 2.000000
-8.675466 -0.757485 -0.160826 39.000000
-8.569977 -0.768630 -0.158906 37.500000
-8.653935 -0.618861 -0.160228 47.200001
7.854771 -0.662338 -0.145574 1.500000
-8.618778 -0.521107 -0.159460 46.500000
-8.776047 -0.479914 -0.162316 30.666666
-7.134701 -0.307788 -0.131886 38.333332
-8.638075 -0.254939 -0.159595 32.500000
7.507871 -0.250376 -0.138730 13.000000
-8.494694 -0.152793 -0.156904 47.599998
-0.502727 -0.103029 -0.128438 2.727273
-0.471397 -0.105141 -0.133265 15.518518
0.476344 -0.091034 -0.130025 4.692307
7.277343 -0.143544 -0.134422 22.000000
7.448887 -0.162539 -0.137598 4.833333
7.765975 -0.104373 -0.143432 9.000000
-8.870163 -0.075860 -0.163817 108.000000
-8.602530 0.007507 -0.158869 73.000000
-8.552468 -0.032830 -0.157946 48.000000
-0.505234 0.001745 -0.127341 3.906977
-0.473367 -0.012297 -0.130868 22.429825
0.476140 -0.010030 -0.127702 26.138844
7.224546 -0.051806 -0.133425 43.000000
7.322564 -0.052400 -0.135234 25.000000
-9.286022 0.073853 -0.171499 70.000000
0.400459 0.074944 -0.117439 5.000000
6.954797 0.015780 -0.128439 56.000000
7.092002 0.030955 -0.130975 39.666668
-8.896752 0.175484 -0.164334 97.000000
-8.548307 0.195482 -0.157909 129.000000
-0.506468 0.161387 -0.127886 4.166667
-0.482613 0.140154 -0.135354 11.948617
0.472541 0.139448 -0.130227 11.966044
6.929527 0.189878 -0.128021 41.666668
7.063834 0.115972 -0.130470 48.500000
7.211718 0.118430 -0.133203 41.000000
-8.325402 0.229676 -0.153810 41.500000
-0.502856 0.302259 -0.144820 7.852217
-0.488600 0.280632 -0.143020 7.125843
0.479283 0.286109 -0.139575 8.508689
6.916434 0.292722 -0.127848 36.250000
7.032719 0.292318 -0.129990 44.500000
-9.454122 0.394655 -0.174748 54.666668
-9.385004 0.317929 -0.173419 55.500000
-0.504638 0.397807 -0.139931 13.836065
6.774571 0.334887 -0.125263 45.000000
-9.330922 0.462868 -0.172533 49.500000
-9.188878 0.499261 -0.169948 49.000000
-0.434497 0.419206 -0.142824 29.675531
-0.281190 0.416486 -0.135237 4.739130
-0.140162 0.440253 -0.129916 5.062893
-0.002545 0.453584 -0.098449 23.080000
0.189541 0.435287 -0.130807 6.844221
0.326973 0.433991 -0.139061 6.439716
0.456787 0.423214 -0.138460 38.281868
6.684668 0.435793 -0.123712 34.000000
6.805527 0.465282 -0.125977 40.333332
6.914702 0.428924 -0.127947 42.000000
-9.083103 0.579315 -0.168086 45.599998
-0.506688 0.558322 -0.123321 9.428572
-0.434631 0.565370 -0.138362 16.741804
-0.269316 0.569341 -0.139834 8.043478
-0.118554 0.568792 -0.138795 24.799347
0.044019 0.566866 -0.131642 34.557018
0.176061 0.583470 -0.140659 21.183870
0.326123 0.592931 -0.138797 12.184332
0.439411 0.574241 -0.129740 22.703821
6.609231 0.535249 -0.122457 30.000000
6.758368 0.611497 -0.125322 37.799999
6.878027 0.535274 -0.127405 37.000000
-9.114017 0.667691 -0.168766 29.000000
-0.514239 0.696466 -0.119555 11.916667
0.456551 0.685457 -0.119709 5.560000
-9.697203 0.802365 -0.179697 46.000000
-9.202463 0.717786 -0.170465 55.500000
-0.433178 0.741786 -0.126016 15.535176
-0.266927 0.750171 -0.136315 21.142857
-0.115712 0.734908 -0.111153 57.076378
0.054466 0.730604 -0.101314 57.938999
0.168906 0.759623 -0.135057 37.203175
0.306547 0.770279 -0.131744 17.395350
6.898748 0.751100 -0.128159 40.799999
7.089161 0.731343 -0.131615 43.000000
-9.883180 0.880311 -0.183242 47.000000
-9.775573 0.870766 -0.181248 41.500000
-0.447345 0.902593 -0.127677 31.666666
-0.264932 0.875481 -0.129243 35.728813
0.232954 0.878917 -0.128323 13.500000
6.764697 0.887423 -0.126002 38.000000
6.905752 0.888323 -0.128587 37.333332
-10.092441 0.962903 -0.187230 38.000000
-9.878425 0.973808 -0.183316 42.000000
-9.708208 0.987837 -0.180214 24.000000
-8.814620 0.938852 -0.163707 11.500000
-8.733473 0.999684 -0.162340 12.000000
-0.498183 0.942494 -0.112706 4.000000
-0.168003 0.999889 -0.116845 51.484848
-10.206781 1.103406 -0.189594 23.000000
-10.082918 1.057977 -0.187230 3.000000
-9.075375 1.048447 -0.168717 50.333332
-0.507335 1.032710 -0.124592 52.214287
-0.423070 1.043077 -0.130712 23.802469
-0.268783 1.067081 -0.127020 44.700001
0.023988 1.027725 -0.120276 105.629631
0.175657 1.050194 -0.132620 46.689320
0.311696 1.085035 -0.129559 33.769230
6.630847 1.108433 -0.124156 36.000000
6.770433 1.044489 -0.126519 42.500000
6.913643 1.055595 -0.129159 42.000000
-10.298982 1.178882 -0.191440 8.000000
-10.231088 1.138561 -0.190111 20.000000
-9.391743 1.164717 -0.174773 46.333332
-9.077575 1.183803 -0.169061 34.000000
6.591850 1.123214 -0.123491 39.000000
6.926794 1.187925 -0.129793 40.333332
-8.943903 1.217848 -0.166698 31.799999
-0.524913 1.275659 -0.121536 1.200000
6.726706 1.244315 -0.126334 36.000000
7.041493 1.245407 -0.132058 37.000000
-9.191671 1.404881 -0.171720 61.000000
6.514122 1.321762 -0.122752 39.000000
6.701407 1.403659 -0.126445 40.000000
6.742663 1.328676 -0.126918 37.799999
-9.928987 1.421945 -0.185236 105.000000
-9.738487 1.425898 -0.181765 10.000000
-9.571791 1.432223 -0.178737 40.000000
-9.107323 1.460518 -0.170341 30.666666
-9.001222 1.481987 -0.168470 16.000000
6.669072 1.495797 -0.126224 40.500000
6.927390 1.485068 -0.130840 44.000000
6.799903 1.524972 -0.128698 40.000000
6.884525 1.612242 -0.130581 40.000000
6.799069 1.659923 -0.129252 39.250000
-9.527563 1.779584 -0.178995 4.500000
6.632892 1.730127 -0.126593 37.500000
6.783608 1.785365 -0.129547 37.200001
-9.776354 1.873783 -0.183833 91.000000
-9.426022 1.883445 -0.177518 46.500000
-9.541280 1.953312 -0.179863 46.750000
6.518526 1.932113 -0.125559 29.000000
6.753441 1.914268 -0.129636 35.599998
6.868588 1.989011 -0.132058 38.000000
-9.526213 2.059647 -0.179992 47.000000
-9.492984 2.099332 -0.179549 29.000000
-9.123434 2.047691 -0.172680 55.000000
-8.967610 2.080606 -0.170011 23.142857
6.687380 2.050920 -0.129178 40.000000
6.756010 2.085851 -0.130581 37.599998
-8.997284 2.183354 -0.170982 25.500000
6.820445 2.209553 -0.132403 41.333332
-9.200980 2.309419 -0.175191 10.000000
6.481458 2.304120 -0.127036 45.000000
6.857084 2.269091 -0.133388 42.000000
-9.441112 2.338189 -0.179623 7.000000
-9.333454 2.405108 -0.177998 21.000000
-9.155589 2.389971 -0.174748 9.000000
6.688738 2.401503 -0.131246 38.000000
6.817959 2.359562 -0.133240 37.000000
-9.775067 2.486181 -0.186270 46.000000
6.582479 2.504394 -0.130064 45.000000
-9.607998 2.556472 -0.183611 64.000000
-9.246829 2.548845 -0.177136 44.666668
-9.696212 2.628949 -0.185532 63.000000
6.647215 2.690710 -0.132438 43.285713
-9.650367 2.763585 -0.185384 7.000000
-9.347315 2.788334 -0.180140 37.000000
-9.932902 2.895178 -0.191071 44.000000
-9.605370 2.832479 -0.184941 20.000000
6.471040 2.829948 -0.130433 41.000000
6.576919 2.975156 -0.133314 42.000000
6.231482 3.070323 -0.128292 50.000000
6.478683 3.016922 -0.131984 52.000000
-9.741775 3.154445 -0.189106 35.000000
6.348666 3.202771 -0.131320 30.000000
6.506352 3.124889 -0.133299 43.200001
-9.689281 3.276082 -0.188892 35.500000
-9.588198 3.275227 -0.187120 10.000000
6.370025 3.280993 -0.132329 36.666668
6.583778 3.282597 -0.135862 40.000000
6.132554 3.351881 -0.129067 48.000000
6.463977 3.350568 -0.134459 38.000000
-9.561736 3.417948 -0.187526 32.000000
6.303948 3.484274 -0.133018 49.000000
6.447995 3.419804 -0.134791 35.500000
-9.974668 3.600946 -0.195847 26.333334
-9.897027 3.572909 -0.194321 53.000000
-9.422686 3.586798 -0.186196 50.000000
6.628891 3.569207 -0.139038 47.500000
-9.927302 3.683988 -0.195552 27.333332
6.473734 3.631419 -0.137081 44.500000
6.334875 3.732434 -0.135788 37.000000
6.544270 3.732048 -0.139130 40.500000
-9.892599 3.843042 -0.195995 54.333332
-9.789253 3.862014 -0.194345 39.333332
6.326741 3.869535 -0.136963 36.799999
6.559233 3.899235 -0.140921 37.000000
-9.601572 3.933918 -0.191625 87.500000
-9.403738 3.939438 -0.188289 45.000000
-9.381278 3.999519 -0.188338 91.000000
-9.183519 3.983583 -0.184867 45.000000
6.397282 3.995913 -0.139296 36.000000
-9.324689 4.044933 -0.187710 75.000000
6.145631 4.112588 -0.136564 37.000000
6.449377 4.070865 -0.140847 40.000000
6.201820 4.122040 -0.137524 33.000000
6.353337 4.146365 -0.140109 42.666668
6.514870 4.203465 -0.143186 39.000000
-9.685195 4.273702 -0.195502 93.000000
6.218389 4.304211 -0.139666 20.000000
6.378801 4.370939 -0.142805 18.500000
6.504158 4.382156 -0.144836 35.000000
6.203724 4.484197 -0.141364 22.000000
6.351972 4.493331 -0.143691 27.500000
6.569791 4.456450 -0.146608 36.000000
6.466242 4.536126 -0.145870 29.000000
6.293996 4.625122 -0.144245 11.000000
6.427315 4.801259 -0.148159 7.000000
7.361449 7.121294 -0.189151 35.000000
7.393240 7.357259 -0.192622 35.000000
7.459297 7.330275 -0.193139 34.000000
7.378267 7.482130 -0.194062 34.250000
7.409914 7.633098 -0.196463 33.000000
14.911938 -39.588638 -0.047254 2.000000
15.003537 -39.455605 -0.047151 2.000000
15.133151 -39.423210 -0.047169 2.000000
15.242477 -39.338173 -0.047124 2.000000
15.376188 -39.316174 -0.047156 2.000000
15.476123 -39.208145 -0.047084 2.000000
15.600703 -39.163048 -0.047089 2.000000
15.714711 -39.091572 -0.047062 3.000000
15.826920 -39.016064 -0.047031 3.000000
15.941841 -38.947639 -0.047008 3.000000
16.047316 -38.856701 -0.046959 3.000000
16.170849 -38.809788 -0.046964 2.000000
16.294245 -38.762478 -0.046968 3.000000
16.397202 -38.666904 -0.046914 3.000000
16.510735 -38.596813 -0.046892 4.000000
16.628729 -38.537407 -0.046883 2.000000
16.732161 -38.444633 -0.046834 3.000000
16.860895 -38.410191 -0.046856 3.000000
16.965290 -38.320454 -0.046812 3.000000
17.079073 -38.252357 -0.046794 2.000000
17.192585 -38.183929 -0.046776 3.000000
17.302538 -38.107872 -0.046749 3.000000
17.413847 -38.035141 -0.046727 10.000000
17.521519 -37.954823 -0.046696 81.000000
17.633921 -37.885086 -0.046678 82.000000
17.744349 -37.811398 -0.046655 24.000000
17.905819 -37.845856 -0.046767 15.000000
-0.653050 -32.817486 -0.036665 8.000000
-1.925164 -31.657499 -0.035427 3.000000
-0.824257 -31.477192 -0.035172 3.000000
-1.161028 -31.216358 -0.034893 30.000000
-1.014879 -31.251505 -0.034927 29.000000
-0.915638 -31.218555 -0.034886 31.000000
-1.404985 -31.180344 -0.034864 40.000000
-1.692034 -31.041903 -0.034726 17.000000
-2.519125 -30.971664 -0.034710 10.500000
-1.782871 -30.920624 -0.034596 17.000000
-1.489067 -30.888107 -0.034542 45.000000
-1.282565 -30.601116 -0.034212 43.000000
-1.566198 -30.495790 -0.034109 43.000000
-2.619593 -30.431440 -0.034118 21.000000
-1.732444 -30.046076 -0.033618 7.000000
-2.389543 -29.960844 -0.033573 10.000000
-2.199194 -29.947342 -0.033542 37.000000
-3.133761 -29.815750 -0.033488 31.000000
-2.285935 -29.844566 -0.033434 39.000000
-2.050815 -29.851582 -0.033423 34.000000
-1.910728 -29.870934 -0.033434 40.000000
-3.036019 -29.785652 -0.033443 41.000000
-1.804978 -29.681152 -0.033215 18.000000
-2.919241 -29.560184 -0.033180 45.000000
-2.813039 -29.429846 -0.033023 44.000000
-2.627002 -29.434988 -0.033010 11.000000
-3.262106 -29.266745 -0.032894 11.000000
-2.704371 -29.263287 -0.032827 43.000000
-3.053065 -29.047979 -0.032626 4.000000
-3.137849 -28.978594 -0.032559 41.000000
17.728516 -27.615000 -0.036656 14.000000
17.758726 -27.471827 -0.036540 23.000000
16.411003 -27.291040 -0.035572 45.333332
18.193031 -27.289532 -0.036636 34.000000
16.491344 -27.166208 -0.035499 85.000000
16.605820 -27.162043 -0.035561 29.000000
17.939739 -27.186386 -0.036383 39.000000
18.268900 -27.125589 -0.036531 21.000000
18.358517 -27.074682 -0.036540 42.000000
18.445742 -27.020178 -0.036544 37.000000
17.548178 -26.959976 -0.035932 50.000000
18.510147 -26.932426 -0.036504 42.000000
18.889463 -26.936903 -0.036750 25.000000
19.001678 -26.916639 -0.036803 26.000000
17.617443 -26.881296 -0.035901 53.000000
18.652792 -26.867874 -0.036535 39.000000
19.058340 -26.817684 -0.036750 42.000000
19.119219 -26.725153 -0.036705 37.000000
-3.918264 -23.617157 -0.026741 27.000000
-3.981768 -23.541628 -0.026670 33.000000
-3.809365 -23.416153 -0.026500 31.000000
-3.741456 -23.463554 -0.026540 30.000000
-3.593349 -23.482645 -0.026536 13.000000
-4.088097 -23.279762 -0.026402 30.000000
-4.138672 -23.140804 -0.026259 6.000000
-4.949120 -22.698711 -0.025950 28.000000
-4.136111 -22.714481 -0.025790 31.000000
-5.068850 -22.565693 -0.025834 7.000000
-4.150099 -22.197330 -0.025224 35.000000
-4.212090 -21.955603 -0.024972 35.000000
-4.835425 -21.847275 -0.024994 35.000000
-4.258828 -21.828407 -0.024842 30.000000
-3.978463 -21.848719 -0.024807 6.000000
-3.836266 -21.845707 -0.024775 2.000000
-3.891493 -21.758734 -0.024690 17.000000
-4.472694 -21.654877 -0.024699 35.500000
-4.318093 -21.590382 -0.024594 31.000000
-4.705412 -21.580969 -0.024673 10.000000
-4.596183 -21.567661 -0.024632 32.500000
-4.788939 -20.859291 -0.023906 4.000000
-5.030630 -19.257765 -0.022233 28.000000
-5.057343 -19.114256 -0.022086 4.000000
-4.846422 -19.103764 -0.022015 31.500000
-4.457088 -19.137802 -0.021949 31.000000
-4.233807 -19.129057 -0.021884 0.000000
-4.318587 -19.085466 -0.021858 19.500000
-5.062498 -18.893497 -0.021849 32.000000
-4.652757 -18.899677 -0.021741 26.500000
-4.493023 -18.888975 -0.021688 33.000000
-4.535457 -18.804773 -0.021607 25.000000
-5.079576 -18.266788 -0.021179 29.500000
-5.052798 -18.170536 -0.021067 37.000000
-5.747438 -18.009100 -0.021116 24.000000
-5.212748 -18.083673 -0.021022 40.000000
-5.143856 -18.057644 -0.020973 43.000000
-4.900826 -18.062948 -0.020906 21.000000
-5.455266 -17.865667 -0.020866 21.000000
-5.309726 -17.788439 -0.020736 31.000000
-5.241043 -17.865053 -0.020797 35.000000
-5.360959 -17.756351 -0.020718 5.000000
-5.335518 -17.278975 -0.020200 91.000000
-5.655245 -17.160141 -0.020182 34.000000
-5.344474 -17.117033 -0.020030 54.000000
-5.508017 -17.073517 -0.020039 28.000000
-5.171405 -16.936039 -0.019780 9.000000
-5.054593 -16.933702 -0.019740 3.000000
-5.686771 -16.810116 -0.019822 34.000000
-5.494662 -16.850771 -0.019798 40.000000
-5.091582 -16.864130 -0.019677 22.000000
-5.795559 -16.698866 -0.019744 23.000000
-5.558722 -16.690678 -0.019650 27.000000
-5.704080 -16.603502 -0.019610 26.000000
-5.281660 -16.549625 -0.019405 13.000000
16.662382 -15.679885 -0.025557 25.000000
-6.136132 -15.036128 -0.018140 42.000000
-5.394449 -15.007920 -0.017814 31.000000
-6.252830 -14.918606 -0.018069 28.000000
-6.143738 -14.920612 -0.018024 44.000000
-5.515384 -14.902071 -0.017749 32.000000
-5.448546 -14.937303 -0.017760 36.000000
-5.247072 -14.941408 -0.017689 28.333332
-5.946300 -14.836761 -0.017854 45.000000
-6.115388 -14.720235 -0.017805 33.000000
-5.961388 -14.740134 -0.017760 37.000000
-5.824828 -14.734409 -0.017698 35.500000
-5.553107 -14.719304 -0.017573 39.000000
-6.306203 -14.656924 -0.017823 33.000000
-6.279322 -14.594378 -0.017747 31.500000
-6.176602 -14.607836 -0.017716 6.000000
-5.661915 -14.657750 -0.017552 37.333332
-6.403127 -14.504085 -0.017710 41.000000
-6.605609 -14.407897 -0.017705 31.000000
-6.489770 -14.453890 -0.017698 36.000000
-6.706430 -14.213239 -0.017555 50.000000
-6.630470 -14.284121 -0.017591 47.000000
-6.467503 -14.284031 -0.017515 40.000000
-6.509147 -13.908179 -0.017153 70.000000
-6.633021 -13.831787 -0.017135 19.000000
12.479356 -13.657059 -0.020665 1.000000
12.473013 -13.521667 -0.020549 54.000000
12.512690 -13.394785 -0.020475 66.000000
12.596622 -13.315886 -0.020475 57.500000
12.849339 -13.287301 -0.020647 20.000000
12.977497 -13.335733 -0.020785 3.000000
12.688246 -13.286775 -0.020522 56.000000
12.757642 -13.275689 -0.020566 48.000000
13.519505 -13.046514 -0.020986 1.000000
13.717037 -13.071692 -0.021165 1.000000
-6.465360 -12.754955 -0.015973 11.000000
-6.142206 -12.756872 -0.015815 25.500000
-6.030496 -12.780700 -0.015786 2.000000
-6.564631 -12.604992 -0.015875 2.500000
-6.362354 -12.650130 -0.015817 20.000000
-6.252284 -12.608482 -0.015720 24.200001
13.668633 -12.661700 -0.020812 13.000000
14.003246 -12.648506 -0.021078 31.000000
13.545424 -12.429502 -0.020535 13.000000
13.681946 -12.475826 -0.020683 24.000000
13.876421 -12.415673 -0.020799 9.000000
-6.435598 -12.216535 -0.015424 30.000000
-6.258608 -12.219811 -0.015336 25.000000
13.624414 -12.036916 -0.020307 24.000000
-6.354295 -11.903048 -0.015072 23.750000
-6.192195 -10.909101 -0.014012 36.000000
-5.890831 -10.972678 -0.013911 7.500000
-5.902978 -10.790953 -0.013739 43.000000
-5.880500 -10.830536 -0.013766 45.000000
-6.043103 -10.646399 -0.013674 42.000000
-6.103998 -10.483337 -0.013550 36.500000
-7.062497 -10.299083 -0.013949 61.000000
-6.601537 -10.378320 -0.013739 63.000000
-5.767634 -10.368774 -0.013253 29.000000
-7.076635 -10.250511 -0.013913 68.000000
-6.556048 -10.165199 -0.013511 46.000000
-6.493877 -10.138590 -0.013449 37.000000
-6.075834 -10.176147 -0.013239 47.000000
-6.368095 -10.081120 -0.013319 33.000000
-6.285540 -10.055031 -0.013246 28.000000
-5.998838 -10.047349 -0.013071 33.000000
-6.114648 -9.954633 -0.013050 40.333332
-6.033974 -9.963278 -0.013011 51.000000
-6.684193 -9.617294 -0.013082 35.000000
-6.579746 -9.660027 -0.013056 103.000000
-6.261093 -9.607979 -0.012810 37.000000
-6.291315 -9.490761 -0.012719 47.666668
-6.817390 -9.424779 -0.012993 39.000000
-6.717030 -9.472898 -0.012972 40.200001
-6.387712 -9.473655 -0.012763 42.000000
-6.968672 -9.383326 -0.013056 29.000000
-6.857539 -9.355913 -0.012957 41.000000
-6.906461 -9.148736 -0.012804 41.000000
-6.829634 -8.871643 -0.012506 36.500000
-7.035907 -8.707215 -0.012505 50.666668
-7.490628 -8.641321 -0.012774 43.000000
-6.907064 -8.658527 -0.012372 72.000000
-7.459889 -8.551433 -0.012676 41.000000
-7.361633 -8.546614 -0.012600 25.000000
-6.710619 -8.576617 -0.012164 32.500000
-6.640291 -8.486964 -0.012037 33.000000
-9.209892 -8.389223 -0.013916 14.500000
-7.365326 -8.389679 -0.012470 47.000000
-6.954156 -8.388228 -0.012171 26.000000
-6.705907 -8.460750 -0.012059 38.000000
-7.098060 -8.293158 -0.012193 25.000000
-7.018310 -8.304925 -0.012146 32.666668
-6.884066 -8.383812 -0.012117 28.500000
-7.335799 -8.277028 -0.012354 41.500000
-6.913847 -8.286485 -0.012055 21.000000
-7.304139 -8.112193 -0.012193 41.000000
-8.167848 -7.998547 -0.012770 32.000000
-8.811316 -7.950470 -0.013257 12.000000
-7.619067 -7.970072 -0.012316 46.000000
-7.470765 -7.938880 -0.012177 38.333332
-7.310608 -7.916883 -0.012037 35.000000
-7.212209 -7.909458 -0.011956 31.000000
-8.721896 -7.795591 -0.013067 12.000000
-7.917601 -7.802366 -0.012417 46.000000
-7.264458 -7.866870 -0.011961 32.500000
-8.727127 -7.726541 -0.013020 0.000000
-7.513483 -7.785875 -0.012086 58.000000
-14.066464 -7.599368 -0.017859 0.000000
-7.379066 -7.598665 -0.011831 30.000000
-14.302566 -7.496281 -0.018037 14.000000
-7.900739 -7.497538 -0.012166 55.666668
-7.572102 -7.508931 -0.011912 53.000000
-7.454912 -7.545209 -0.011848 35.000000
-8.061731 -7.413141 -0.012233 32.000000
-7.366713 -7.397635 -0.011662 36.000000
-10.260823 -7.291986 -0.014061 10.000000
-7.866002 -7.371180 -0.012041 55.000000
-10.208521 -7.206659 -0.013958 3.000000
-7.356206 -7.203730 -0.011501 1.000000
-7.461265 -7.170111 -0.011559 63.000000
-7.342692 -7.123018 -0.011427 31.500000
-14.622351 -7.068727 -0.018142 3.666667
-8.804125 -6.903430 -0.012497 0.500000
-8.738436 -6.896361 -0.012435 7.000000
-7.477651 -6.919534 -0.011380 82.000000
-7.784718 -6.805412 -0.011550 31.000000
-7.590740 -6.849141 -0.011420 10.000000
-7.349167 -6.857996 -0.011228 32.666668
-8.366976 -6.688836 -0.011965 7.000000
-7.915072 -6.702976 -0.011586 38.000000
-7.601126 -6.687162 -0.011309 29.000000
-7.510435 -6.776851 -0.011300 5.000000
-9.923268 -6.683254 -0.013364 4.000000
-9.189104 -6.617643 -0.012649 76.000000
-8.190086 -6.632127 -0.011772 17.000000
-7.514212 -6.673737 -0.011226 18.500000
-15.371995 -6.490247 -0.018638 2.000000
-9.808475 -6.516734 -0.013154 2.000000
-9.791277 -6.549743 -0.013158 1.000000
-7.731035 -6.505521 -0.011286 62.000000
-7.639472 -6.552445 -0.011242 40.166664
-8.835382 -6.476137 -0.012236 35.333332
-9.412245 -6.382153 -0.012703 56.000000
-8.810883 -6.289340 -0.012092 29.000000
-8.545590 -6.318792 -0.011872 77.000000
-7.577922 -6.295784 -0.011005 48.000000
-8.904737 -6.244430 -0.012149 48.000000
-8.946800 -6.162861 -0.012135 39.333332
-8.760199 -6.102112 -0.011925 7.000000
-8.262579 -6.149768 -0.011505 77.000000
-15.474792 -6.024040 -0.018549 5.000000
-8.840444 -6.035067 -0.011956 80.000000
-8.038542 -6.061878 -0.011246 12.000000
-7.797200 -6.015515 -0.011000 6.000000
-7.977516 -5.976633 -0.011134 60.000000
-7.717408 -5.896139 -0.010848 9.000000
-9.699427 -5.846432 -0.012651 4.666667
-8.713993 -5.829182 -0.011711 20.500000
-7.080880 -5.864196 -0.010270 79.500000
-15.538662 -5.714028 -0.018493 7.000000
-10.008534 -5.736583 -0.012886 5.000000
-8.994701 -5.754530 -0.011927 54.000000
-8.844248 -5.736953 -0.011776 27.500000
-8.651329 -5.728294 -0.011590 32.500000
-6.934450 -5.724453 -0.010044 2.000000
-15.554152 -5.636666 -0.018480 35.000000
-9.213700 -5.672741 -0.012086 27.000000
-6.919670 -5.603461 -0.009946 15.666667
-15.473893 -5.552650 -0.018364 19.000000
-9.005458 -5.583620 -0.011836 18.000000
-7.015436 -5.554212 -0.009995 33.500000
-15.419648 -5.478561 -0.018279 3.000000
-9.130652 -5.399905 -0.011849 46.666668
-8.774117 -5.478421 -0.011554 14.000000
-7.036712 -5.481878 -0.009964 60.000000
-10.266347 -5.339770 -0.012926 20.000000
-10.034523 -5.299557 -0.012676 43.000000
-8.783717 -5.294498 -0.011456 11.000000
-8.486057 -5.372956 -0.011219 56.000000
-6.943190 -5.374052 -0.009807 15.000000
-9.328945 -5.211617 -0.011936 42.000000
-9.083126 -5.256851 -0.011723 45.000000
-8.575562 -5.205827 -0.011206 60.000000
-7.467009 -5.236227 -0.010187 0.000000
-6.974631 -5.282527 -0.009773 29.333334
-6.881461 -5.257472 -0.009673 15.000000
-10.344522 -5.155232 -0.012910 21.750000
-7.294195 -5.092370 -0.009937 13.666667
-6.690514 -5.144952 -0.009428 19.000000
-9.257455 -5.038947 -0.011773 63.000000
-9.150058 -5.024027 -0.011660 36.000000
-8.954067 -5.082446 -0.011501 40.000000
-9.292459 -4.982571 -0.011778 59.000000
-10.171051 -4.812179 -0.012569 11.000000
-10.058405 -4.797611 -0.012448 4.000000
-9.517452 -4.836833 -0.011925 71.000000
-9.355357 -4.828659 -0.011760 60.000000
-9.337110 -4.720589 -0.011687 13.000000
-8.061605 -4.620604 -0.010379 34.666668
-7.900403 -4.627728 -0.010227 4.000000
-7.717017 -4.552928 -0.010008 0.000000
-7.592399 -4.527781 -0.009874 13.500000
-10.335239 -4.478845 -0.012582 20.000000
-9.081908 -4.437397 -0.011291 66.000000
-10.201769 -4.364055 -0.012394 8.000000
-6.600452 -4.355504 -0.008833 9.000000
-10.012478 -4.190366 -0.012124 24.500000
-8.691322 -4.229474 -0.010797 18.250000
-7.043724 -4.275918 -0.009204 2.000000
-9.993306 -4.127110 -0.012077 5.000000
-7.915947 -4.133085 -0.009975 9.000000
-8.619961 -4.056273 -0.010641 30.000000
-8.565577 -3.986916 -0.010554 32.000000
-9.027441 -3.895306 -0.010982 16.000000
-8.554969 -3.892575 -0.010499 42.750000
-8.824441 -3.840639 -0.010750 5.000000
-8.631889 -3.818286 -0.010543 36.099998
-8.814873 -3.705248 -0.010681 20.500000
-8.278619 -3.758833 -0.010156 55.000000
-8.716099 -3.549013 -0.010512 32.666668
-7.661158 -3.522077 -0.009419 2.000000
-9.510746 -3.446597 -0.011300 5.000000
-8.766617 -3.466690 -0.010530 35.799999
-10.464748 -3.297481 -0.012256 3.500000
-8.749786 -3.327980 -0.010457 29.404762
-10.687952 -3.239098 -0.012475 14.000000
-9.111149 -3.269444 -0.010813 16.000000
-8.836847 -3.186737 -0.010493 22.500000
-10.308212 -3.035927 -0.012003 21.500000
-9.396730 -3.058595 -0.011038 16.000000
-8.768428 -3.068951 -0.010377 35.000000
-10.214480 -2.921238 -0.011867 14.000000
-10.082297 -2.917734 -0.011724 18.000000
-9.440945 -2.926072 -0.011041 47.000000
-8.666454 -2.972291 -0.010234 32.500000
-8.637033 -2.886589 -0.010172 28.000000
-10.255242 -2.759396 -0.011863 1.000000
-9.215211 -2.761191 -0.010746 82.000000
-9.127959 -2.703823 -0.010634 2.000000
-10.620888 -2.538075 -0.012198 6.500000
-10.422523 -2.490688 -0.011970 9.000000
-8.175385 -2.526807 -0.009558 21.750000
-8.642839 -2.452204 -0.010035 31.000000
-8.188227 -2.481530 -0.009557 4.000000
-8.537468 -2.383702 -0.009901 37.000000
-10.598396 -2.217981 -0.012095 21.000000
-10.356620 -2.201370 -0.011827 4.000000
-8.934430 -2.194504 -0.010276 29.000000
-8.675388 -2.232288 -0.010006 36.000000
-8.489430 -2.255690 -0.009812 41.000000
-8.368187 -2.259585 -0.009682 33.714287
-10.601394 -2.183869 -0.012091 4.000000
-10.493302 -2.092960 -0.011952 58.000000
-10.325945 -2.093329 -0.011769 21.000000
-8.946618 -2.152794 -0.010279 19.500000
-8.697141 -2.153727 -0.010008 36.599998
-10.121616 -1.886895 -0.011501 39.000000
-8.634747 -1.949091 -0.009888 48.000000
-8.540878 -1.946720 -0.009785 40.000000
-10.076344 -1.845720 -0.011443 56.000000
-9.813034 -1.861290 -0.011157 62.000000
-9.294798 -1.823569 -0.010580 15.000000
-8.811148 -1.872869 -0.010062 22.000000
-8.694550 -1.834003 -0.009926 28.000000
-8.590632 -1.844923 -0.009815 29.666666
-9.404967 -1.692223 -0.010674 59.000000
-9.186582 -1.772382 -0.010451 50.000000
-8.974908 -1.527660 -0.010169 55.000000
-8.787878 -1.552702 -0.009968 61.000000
-8.743019 -1.452789 -0.009900 47.000000
-8.948233 -1.350065 -0.010108 46.000000
-8.916651 -1.221472 -0.010053 52.666668
-8.871391 -1.168004 -0.009995 51.500000
-8.836081 -1.050498 -0.009940 47.599998
-9.368348 -0.905369 -0.010513 51.000000
-9.114703 -0.909770 -0.010232 55.000000
-8.866145 -0.941232 -0.009959 37.666668
-8.953619 -0.751743 -0.010037 40.666668
-8.859725 -0.772039 -0.009934 41.666668
-8.899341 -0.662895 -0.009968 43.000000
-8.809612 -0.628390 -0.009865 48.000000
-8.746563 -0.534117 -0.009788 37.000000
-8.654269 -0.521772 -0.009684 45.500000
-9.003638 -0.471862 -0.010071 6.000000
-10.207286 -0.310078 -0.011407 3.000000
-7.139659 -0.301530 -0.007982 18.615385
-10.280182 -0.279967 -0.011487 1.000000
-9.024172 -0.224502 -0.010083 40.750000
-8.464090 -0.257123 -0.009459 12.000000
-11.335595 -0.094967 -0.012662 4.000000
-9.695352 -0.111685 -0.010831 7.000000
-8.395093 -0.123088 -0.009378 99.000000
-8.234942 -0.129397 -0.009200 52.333332
-11.283988 0.011816 -0.012604 11.000000
-10.007972 -0.020959 -0.011179 111.000000
-9.734840 -0.043405 -0.010874 31.500000
-9.643909 0.040399 -0.010772 57.000000
-8.627763 0.063246 -0.009638 132.000000
-8.423922 0.035288 -0.009410 0.000000
-8.444275 0.148313 -0.009434 49.333336
-0.076664 0.190070 0.002842 1.000000
7.502727 0.126223 -0.008382 25.333334
7.753630 0.144121 -0.008662 5.500000
7.993676 0.192570 -0.008932 0.000000
-8.783364 0.285235 -0.009816 114.000000
-8.456359 0.248026 -0.009450 42.000000
-8.377124 0.219362 -0.009361 49.000000
7.563747 0.253558 -0.008454 13.000000
7.641753 0.272301 -0.008541 21.000000
-9.398034 0.334754 -0.010504 62.000000
-9.021218 0.349714 -0.010084 56.000000
-8.933542 0.388450 -0.009988 39.000000
-0.167518 0.359408 -0.077329 1.000000
7.139340 0.351670 -0.007984 38.000000
7.364293 0.356847 -0.008236 35.500000
-9.331696 0.479253 -0.010437 74.000000
-9.109415 0.439150 -0.010187 55.000000
-0.070167 0.438013 -0.006792 61.056522
6.983875 0.443107 -0.007817 31.500000
7.066042 0.504021 -0.007913 35.000000
7.209549 0.423206 -0.008067 43.500000
7.464236 0.485307 -0.008355 37.000000
-9.821850 0.597290 -0.010991 54.000000
-9.739817 0.561593 -0.010898 62.000000
-9.418014 0.513359 -0.010536 74.000000
-9.273043 0.593160 -0.010379 38.000000
-0.085829 0.598550 -0.015678 79.872002
7.064815 0.593268 -0.007920 44.000000
7.271711 0.610635 -0.008151 39.666668
7.469512 0.579994 -0.008369 35.000000
-9.211191 0.676427 -0.010317 18.000000
-9.124476 0.626853 -0.010216 45.000000
-0.114830 0.695913 -0.000788 30.000000
6.979595 0.630280 -0.007828 35.000000
-10.651313 0.782182 -0.011930 1.000000
-9.848721 0.785489 -0.011036 54.000000
-9.775361 0.748742 -0.010951 84.000000
0.073204 0.714127 -0.013103 38.745224
0.105068 0.793720 -0.011871 1.400000
7.063848 0.745629 -0.007934 36.799999
7.295743 0.728212 -0.008190 40.000000
-10.077410 0.835595 -0.011295 53.000000
-9.827649 0.845983 -0.011018 37.000000
-9.718324 0.891924 -0.010901 33.599998
-0.102986 0.885433 -0.091681 92.089287
0.069939 0.878562 -0.065669 66.777779
0.109691 0.861041 -0.000970 2.000000
6.943050 0.858441 -0.007815 36.500000
7.098661 0.881468 -0.007990 34.666668
7.194585 0.878286 -0.008096 39.000000
-9.307768 0.948732 -0.010451 1.000000
-0.178066 0.972180 -0.001104 7.300000
-10.688613 1.089480 -0.012001 49.000000
-10.406672 1.093784 -0.011688 4.000000
-9.921996 1.074371 -0.011148 62.000000
-9.763532 1.088254 -0.010974 27.000000
-9.366643 1.073817 -0.010531 73.000000
-9.264404 1.032937 -0.010413 6.000000
6.980091 1.030756 -0.007882 36.333332
7.078683 1.030329 -0.007990 35.333332
7.194952 1.039620 -0.008121 36.000000
-11.782291 1.126204 -0.013221 4.000000
-9.432608 1.186482 -0.010619 39.000000
6.947797 1.160169 -0.007868 34.000000
7.099131 1.208351 -0.008044 34.666668
7.345943 1.179260 -0.008311 45.000000
-9.527114 1.274574 -0.010737 25.000000
6.962100 1.286617 -0.007908 33.000000
7.168958 1.243449 -0.008127 48.000000
-11.862534 1.322211 -0.013333 2.000000
-9.792546 1.341411 -0.011041 55.000000
7.030527 1.322190 -0.007991 33.500000
7.164071 1.370523 -0.008147 34.500000
-10.303247 1.444362 -0.011621 34.000000
-10.013575 1.435843 -0.011300 28.000000
-9.890284 1.449887 -0.011166 38.000000
-9.742326 1.499739 -0.011011 23.142857
-8.986961 1.471600 -0.010172 33.666668
6.812416 1.425670 -0.007774 33.000000
6.921369 1.471182 -0.007904 39.000000
7.044173 1.469436 -0.008038 40.599998
-8.827129 1.521508 -0.010005 13.333333
7.177994 1.608399 -0.008217 37.500000
-9.120667 1.690415 -0.010361 5.000000
6.800420 1.693014 -0.007828 25.000000
6.972740 1.712669 -0.008020 40.000000
7.131352 1.656902 -0.008178 35.333332
-9.098837 1.730751 -0.010346 28.000000
6.914314 1.794111 -0.007979 26.857143
7.068413 1.791037 -0.008145 33.333332
7.360737 1.759006 -0.008454 21.000000
-10.364210 1.876029 -0.011765 16.666668
-9.400818 1.864824 -0.010705 63.000000
-9.316333 1.817661 -0.010603 60.000000
-9.265386 1.908597 -0.010567 66.333336
-9.179192 1.910946 -0.010473 50.000000
6.871407 1.895282 -0.007962 8.000000
7.161646 1.878823 -0.008270 25.000000
6.846986 1.923318 -0.007944 20.000000
7.147480 1.947287 -0.008275 13.000000
-12.707451 2.026306 -0.014374 9.000000
-9.532616 2.094170 -0.010902 54.750000
6.694405 2.086363 -0.007832 10.000000
6.848404 2.075483 -0.007993 38.000000
7.080708 2.080227 -0.008244 27.142857
7.207054 2.061145 -0.008373 34.000000
-9.586576 2.200934 -0.010987 41.500000
6.906865 2.116915 -0.008069 2.000000
-9.856507 2.311822 -0.011309 58.000000
-10.098428 2.435606 -0.011604 5.000000
-9.114374 2.503673 -0.010558 5.000000
-10.845399 2.579741 -0.012452 33.000000
-10.154654 2.533726 -0.011691 21.500000
-9.742476 2.534087 -0.011245 32.666668
-9.454579 2.517385 -0.010929 19.500000
-9.303007 2.586946 -0.010786 66.000000
6.832460 2.524693 -0.008136 23.000000
-9.693540 2.630041 -0.011219 27.000000
-11.201988 2.739035 -0.012881 21.000000
-10.694144 2.757730 -0.012336 20.000000
-10.378851 2.746089 -0.011992 22.000000
-9.195100 2.744675 -0.010719 28.000000
-10.286507 2.872115 -0.011930 30.666666
-9.725436 2.869730 -0.011326 14.000000
-9.573190 2.890316 -0.011170 12.000000
6.581779 2.889199 -0.008029 39.000000
-10.240616 2.917116 -0.011894 33.000000
-9.663529 2.950747 -0.011286 14.000000
-11.966464 3.045762 -0.013793 3.000000
-11.138468 3.210739 -0.012948 38.000000
-10.167860 3.174721 -0.011898 11.333333
-9.724811 3.145719 -0.011417 24.750000
6.657569 3.137351 -0.008221 36.500000
-11.144629 3.301181 -0.012983 16.333332
-9.665298 3.275321 -0.011399 36.666668
-9.570383 3.271146 -0.011297 6.500000
-3.158389 3.255195 -0.044515 0.500000
-11.079010 3.382962 -0.012939 8.000000
6.696370 3.482939 -0.008431 25.000000
-10.936001 3.578659 -0.012853 29.000000
-10.097586 3.611481 -0.011979 0.000000
6.780794 3.567474 -0.008559 51.000000
-12.441606 3.628754 -0.014476 3.000000
-10.063617 3.635035 -0.011952 11.000000
-9.914619 3.669606 -0.011809 41.750000
6.649730 3.646600 -0.008471 39.000000
6.463001 3.813079 -0.008382 13.000000
6.846875 3.810921 -0.008753 31.000000
-9.641345 3.899274 -0.011617 9.000000
6.663179 3.874950 -0.008610 19.000000
-12.399835 3.957292 -0.014539 16.000000
-11.118267 3.976536 -0.013190 4.000000
-10.064774 3.960560 -0.012082 29.000000
-9.864904 4.007605 -0.011894 84.500000
-9.699415 3.958258 -0.011702 52.000000
6.779189 3.913937 -0.008744 18.666666
6.952442 3.941494 -0.008927 28.500000
-11.905039 4.089940 -0.014061 27.000000
-10.598517 4.055659 -0.012676 21.000000
-10.524785 4.046492 -0.012595 12.000000
-10.323663 4.099939 -0.012408 53.000000
-9.559977 4.042219 -0.011594 52.111111
6.682968 4.076139 -0.008744 33.000000
6.800188 4.098899 -0.008869 33.000000
6.858502 4.094981 -0.008923 15.666667
-11.749076 4.160566 -0.013922 4.000000
-10.679006 4.124971 -0.012788 2.000000
-9.601612 4.184891 -0.011700 95.500000
6.376765 4.207897 -0.008534 5.000000
6.637441 4.202504 -0.008775 8.000000
6.748645 4.178470 -0.008866 11.000000
-12.485887 4.245677 -0.014731 7.000000
6.641235 4.293015 -0.008833 8.333333
-12.335849 4.324790 -0.014602 2.000000
-10.675936 4.317696 -0.012863 36.000000
-10.319432 4.363347 -0.012515 57.000000
-9.880901 4.399261 -0.012082 75.000000
-9.730946 4.332730 -0.011898 79.500000
-9.491302 4.405716 -0.011688 4.000000
6.523436 4.334160 -0.008748 21.000000
6.829948 4.354508 -0.009048 13.000000
-12.238111 4.420475 -0.014535 4.000000
-11.463522 4.469440 -0.013744 0.000000
-11.352649 4.467348 -0.013628 7.000000
-9.723894 4.588162 -0.012010 26.000000
-9.541714 4.554338 -0.011810 28.750000
6.815660 4.559242 -0.009159 4.000000
-12.075962 4.621059 -0.014443 10.000000
-10.253892 4.642745 -0.012573 30.000000
-9.762560 4.757299 -0.012131 32.000000
-9.259037 4.766595 -0.011633 11.000000
-10.056328 4.939611 -0.012515 28.000000
-9.829344 4.982396 -0.012309 22.000000
-10.173673 5.090119 -0.012707 34.000000
-9.861858 5.077013 -0.012390 20.000000
-9.244175 5.107435 -0.011797 41.333332
-9.157376 5.046807 -0.011679 47.000000
-10.334706 5.116709 -0.012881 41.000000
-11.538267 5.268022 -0.014168 5.000000
-11.409022 5.252393 -0.014030 15.000000
-11.243711 5.219157 -0.013846 30.000000
-10.137012 5.259015 -0.012756 45.000000
-11.451878 5.359575 -0.014123 20.000000
-10.070635 5.325363 -0.012725 76.000000
-11.590535 5.468926 -0.014316 11.000000
-10.200631 5.455784 -0.012922 41.000000
-11.400664 5.577735 -0.014177 2.000000
-10.807472 5.520947 -0.013556 9.000000
-10.655704 5.570669 -0.013431 41.000000
-10.235678 5.549242 -0.013006 33.599998
-9.883037 5.527967 -0.012649 39.000000
-9.961309 5.633557 -0.012783 45.000000
-11.326107 5.718746 -0.014173 2.500000
-10.013268 5.794975 -0.012923 44.333332
-9.937572 5.723592 -0.012810 43.000000
-9.779772 5.756127 -0.012676 39.000000
-11.312864 5.824009 -0.014213 5.000000
-9.902714 5.870456 -0.012859 35.000000
-9.858497 5.970488 -0.012874 41.200001
-9.783503 6.051854 -0.012850 44.000000
-9.698132 6.126140 -0.012813 32.888889
-9.620637 6.204829 -0.012788 32.000000
-9.631287 6.254632 -0.012828 29.000000
-9.708677 6.348340 -0.012957 5.000000
-9.238276 6.507236 -0.012622 32.000000
-9.903832 6.597155 -0.013292 35.142857
-9.198211 6.522342 -0.012595 52.000000
-9.188498 6.580748 -0.012624 46.000000
-9.909249 6.704021 -0.013364 47.000000
-9.662312 6.692963 -0.013129 37.000000
-9.977399 6.795921 -0.013485 41.000000
-10.535589 6.889043 -0.014061 11.000000
-9.992288 6.852113 -0.013534 45.000000
-9.467986 6.894057 -0.013082 38.000000
-11.017877 6.959829 -0.014557 0.000000
-9.517258 6.975789 -0.013181 39.000000
-9.472766 6.989028 -0.013149 49.000000
-9.949820 7.197175 -0.013717 43.000000
-9.946524 7.411163 -0.013855 39.500000
-10.579052 7.451648 -0.014454 5.000000
-9.914673 7.460399 -0.013860 51.000000
-10.136713 7.677466 -0.014204 14.000000
