# This PCD file was generated using the MATLAB® pcwrite function
# from Computer Vision Toolbox®.
# .PCD v.7 - Point Cloud Data file format
VERSION .7
FIELDS x y z intensity
SIZE 4 4 4 4
TYPE F F F F
COUNT 1 1 1 1
WIDTH 1231
HEIGHT 1
VIEWPOINT 0 0 0 1 0 0 0
POINTS 1231
DATA ascii
-10.163481 2.385694 1.264270 6.000000
-9.015503 2.464640 1.297742 11.500000
-11.785936 2.610724 1.248333 7.000000
-9.536871 2.742761 1.201754 32.500000
-8.703180 2.932326 1.275187 27.000000
-8.295735 2.970301 1.223476 0.000000
-8.813946 3.000510 1.292791 62.000000
-8.238760 3.031870 1.218965 27.200001
-7.713860 3.038570 1.299487 14.333333
-9.651054 3.148929 1.229405 17.500000
-9.582244 3.148542 1.221471 25.666666
-8.222096 3.090481 1.219625 14.000000
-9.471095 3.205781 1.210891 35.000000
-9.456853 3.283988 1.212334 43.333332
-9.550486 3.400827 1.227722 50.000000
-9.400559 3.447507 1.212574 45.750000
-9.395981 3.589911 1.218104 39.666668
-9.483840 4.094213 1.250965 36.333332
-9.465075 4.251786 1.256576 48.000000
-9.815732 4.372299 1.301299 11.000000
-9.019353 4.362068 1.213295 5.000000
-9.229927 4.428186 1.239745 57.000000
-10.936911 4.995768 1.243396 23.000000
-10.788448 5.051381 1.231875 0.000000
-11.093053 5.364980 1.274254 84.000000
-11.041693 5.297406 1.266437 36.000000
-10.503030 5.493186 1.225703 23.000000
-11.249912 5.627404 1.300793 66.750000
-10.184628 5.601369 1.201977 12.000000
-9.987654 6.051121 1.207600 2.000000
-9.974284 6.107465 1.209451 4.500000
-12.203191 7.237087 1.218318 2.000000
-12.362537 7.331562 1.234231 7.000000
-12.215537 7.348539 1.224136 3.000000
-11.967389 7.353802 1.206169 8.000000
-11.874872 7.661632 1.213527 4.000000
-12.706647 7.753124 1.278207 4.000000
-11.669086 8.167746 1.223109 5.000000
-11.426182 8.159243 1.205656 3.000000
-11.555819 8.306758 1.222082 9.000000
-11.511760 8.403783 1.223908 32.333332
-11.541306 8.546365 1.233205 14.000000
-15.522985 10.865272 1.295715 3.000000
-15.154864 11.333159 1.294078 37.000000
-13.407196 11.699967 1.216848 33.000000
-13.216336 11.717526 1.207842 33.500000
-13.176591 11.831005 1.210980 37.500000
-13.893126 12.047338 1.257509 13.000000
-13.317346 12.071196 1.229128 84.000000
-13.151404 12.034083 1.219031 65.000000
-13.006586 12.014745 1.210844 28.000000
-12.919084 12.009360 1.206205 33.000000
-13.778175 12.100162 1.253962 10.000000
-13.809786 12.756696 1.285618 5.000000
-13.636558 13.247081 1.300081 11.000000
-10.089878 14.686362 1.218485 1.000000
-10.084183 14.777320 1.223397 9.000000
-8.375758 16.880245 1.288620 0.000000
-17.483036 17.192528 1.249433 0.000000
-16.108393 17.407663 1.208518 38.000000
-16.232084 17.652266 1.221953 30.000000
-16.049179 17.619255 1.214421 42.500000
-15.925838 17.650232 1.211368 26.000000
-15.687227 17.662739 1.203735 21.500000
-15.960985 17.801302 1.218289 40.000000
-15.629955 17.822510 1.207908 33.500000
-15.435230 17.825287 1.201496 21.000000
-15.265469 18.025923 1.203633 35.000000
-15.459364 18.139011 1.214421 8.000000
-15.338964 18.345205 1.218493 9.000000
-16.500250 18.519482 1.263886 3.000000
-16.213842 18.665043 1.259815 16.000000
-15.385801 18.757669 1.236202 12.000000
18.088223 30.954285 1.203735 8.000000
18.491871 30.971220 1.211117 23.000000
18.236074 30.983438 1.207090 23.000000
18.374092 30.994772 1.209775 44.000000
18.708569 31.111681 1.218902 23.000000
18.889055 31.189537 1.224271 3.000000
18.167427 31.315258 1.215546 2.000000
18.106867 31.437996 1.218097 1.000000
18.053654 31.574549 1.221184 1.000000
19.704357 31.631754 1.251250 1.000000
19.814255 31.586626 1.251922 7.000000
18.031334 31.766703 1.226419 1.000000
17.964808 31.882399 1.228701 1.000000
17.802462 32.302383 1.238365 1.000000
6.817550 36.150028 1.235143 25.000000
6.733818 36.332428 1.240647 29.000000
6.653303 36.538258 1.246955 28.000000
6.568747 36.728199 1.252727 29.000000
6.484445 36.925838 1.258767 3.000000
6.402361 37.143013 1.265478 26.000000
6.316976 37.348206 1.271787 26.000000
6.229056 37.545341 1.277827 26.000000
6.138676 37.734394 1.283599 6.000000
3.367676 -27.230915 1.398132 9.500000
3.928989 -27.198025 1.400269 1.000000
4.865641 -27.042107 1.400065 3.000000
2.891529 -26.835617 1.375333 10.000000
3.449889 -26.856195 1.379710 8.000000
5.119659 -26.837902 1.392195 29.333334
4.987869 -26.755735 1.386834 30.000000
5.261343 -26.817301 1.392534 25.000000
5.769246 -26.728989 1.393348 11.000000
2.998143 -26.645065 1.366275 9.000000
6.337815 -26.706635 1.398641 20.000000
6.458878 -26.657097 1.397623 17.000000
5.310404 -26.624346 1.383374 25.000000
6.535923 -26.609518 1.396198 5.000000
5.373385 -26.505735 1.378081 25.000000
5.544731 -26.494911 1.379303 2.000000
5.624612 -26.461733 1.378488 11.000000
2.686726 -26.087990 1.336352 2.000000
3.937527 -25.552864 1.317421 19.000000
4.025235 -25.587723 1.319864 13.000000
6.433266 -25.498856 1.340016 7.000000
1.518641 -20.435793 1.401326 1.000000
18.819384 -19.624689 1.385477 17.666666
0.464655 -19.429056 1.329008 19.000000
0.893059 -19.442045 1.330919 19.000000
0.616289 -19.394867 1.326962 25.000000
18.199236 -19.339563 1.353179 22.666666
18.380001 -19.368484 1.360575 2.000000
0.522885 -19.323780 1.321913 28.000000
0.703092 -19.266150 1.318365 17.000000
1.983936 -19.296978 1.326552 14.000000
2.042868 -19.274776 1.325461 18.000000
0.846704 -16.210165 1.393879 1.000000
0.959726 -16.219791 1.395248 22.400000
0.686904 -16.054176 1.379848 19.000000
0.773595 -16.104744 1.384525 33.333332
-0.825336 -16.015730 1.377110 17.000000
0.615574 -15.950697 1.370722 33.000000
-1.979909 -15.918311 1.377452 3.000000
0.379611 -15.873030 1.363421 13.000000
0.463990 -15.911969 1.366957 20.666666
-1.908314 -15.746414 1.362052 8.000000
-2.106561 -15.725141 1.362394 0.000000
-0.509532 -15.606220 1.340834 42.000000
-0.360578 -15.530644 1.333990 4.000000
0.054458 -15.612431 1.340663 10.500000
-1.137813 -15.457141 1.330910 2.000000
-0.743045 -15.357451 1.320301 5.000000
-0.236064 -15.367607 1.319788 11.500000
-1.172336 -15.270702 1.315168 5.000000
-0.832776 -15.229118 1.309692 37.000000
-0.593774 -15.248285 1.310376 16.000000
-0.162799 -15.290857 1.313114 37.000000
-0.018717 -15.319611 1.315510 18.000000
-0.066237 -15.179990 1.303532 31.000000
0.507277 -15.211533 1.306954 26.000000
-1.227731 -13.490929 1.400877 24.000000
-0.834444 -13.450263 1.393574 21.000000
-1.324003 -13.382952 1.390694 10.000000
-1.107699 -13.330725 1.383288 27.000000
-1.036766 -13.368309 1.386580 20.750000
-2.052802 -13.260476 1.387608 15.000000
-2.035328 -12.749716 1.335148 46.000000
-2.561276 -12.691083 1.338851 17.000000
-1.883796 -12.559789 1.313342 1.000000
-2.079540 -12.520800 1.312519 76.000000
-3.537421 -12.336393 1.327125 11.500000
-2.652829 -12.342811 1.305524 3.000000
-2.235449 -12.411696 1.304153 33.000000
-2.937799 -12.255585 1.303261 19.000000
-3.730139 -12.140125 1.313342 0.500000
-3.846846 -12.112000 1.314165 4.500000
-1.998584 -11.369333 1.397959 6.000000
-2.779933 -11.208022 1.398440 1.000000
-2.820896 -11.074890 1.384013 2.000000
-2.608021 -11.110629 1.382089 0.000000
-2.184690 -11.003251 1.358525 33.000000
-5.004995 -10.307375 1.387619 17.000000
-5.018685 -10.172462 1.373673 1.500000
-5.244585 -10.104874 1.378723 1.000000
-5.125538 -9.951847 1.355640 4.000000
-2.632144 -9.728171 1.399332 22.333334
-2.566696 -9.749056 1.399791 6.500000
-3.681009 -9.344783 1.394564 11.000000
-2.893919 -9.257153 1.346704 15.000000
-2.871844 -9.288911 1.350004 44.000000
-2.952798 -9.170131 1.337666 28.285715
-3.521409 -9.064730 1.350279 43.000000
-3.448224 -9.044075 1.343953 33.500000
-4.521277 -8.981746 1.396215 2.000000
-2.954552 -8.954706 1.309295 12.000000
-3.353948 -8.923032 1.323598 33.000000
-4.449088 -8.769633 1.365408 7.000000
-4.277357 -8.700404 1.346153 16.000000
-4.192083 -8.459721 1.310946 9.000000
-4.101374 -8.510653 1.311771 29.500000
-2.832642 -8.407314 1.390538 7.000000
-2.924959 -8.305839 1.380215 24.000000
-2.830507 -8.229339 1.364028 26.200001
-3.670268 -8.098575 1.393635 48.000000
-3.634385 -8.019340 1.380008 18.500000
-4.219697 -7.853276 1.397352 50.500000
-4.238658 -7.771112 1.387441 52.000000
-4.462176 -7.685109 1.392892 48.599998
-4.310749 -7.700487 1.383229 60.799999
-4.883224 -7.479240 1.400035 13.666667
-4.791783 -7.424003 1.384964 14.000000
-5.111255 -7.299630 1.396732 32.000000
-5.059756 -7.242263 1.384757 26.000000
-4.811779 -7.155289 1.351516 16.000000
-5.074163 -7.103217 1.368240 42.000000
-4.848865 -7.113425 1.349348 22.500000
-4.725323 -6.932261 1.314972 28.000000
-5.562546 -6.834958 1.381247 3.000000
-5.692938 -6.731915 1.381867 2.000000
-4.856509 -6.753573 1.303823 23.000000
-5.819573 -6.596216 1.378770 27.333334
-5.043085 -6.610395 1.303204 22.500000
-5.941669 -6.470576 1.376911 9.000000
-5.838801 -6.521176 1.371956 31.000000
-6.281426 -6.343122 1.399210 34.000000
-5.283638 -6.409564 1.301965 29.000000
18.047907 -6.394644 1.309360 38.000000
-6.107044 -6.244864 1.369066 31.666666
-5.742846 -6.293629 1.335412 34.000000
-5.658779 -6.260530 1.322715 25.500000
18.058979 -6.302942 1.307995 56.500000
18.137566 -6.234643 1.311543 18.000000
-6.214769 -6.197509 1.375673 28.666666
-5.970495 -6.202100 1.349348 7.500000
-5.266785 -5.957205 1.389200 49.000000
-4.859982 -5.971685 1.345142 57.000000
-4.645235 -5.971365 1.321736 59.000000
15.133147 -6.013079 1.398328 54.000000
-6.569921 -5.849474 1.378770 7.000000
15.206713 -5.849422 1.399098 50.750000
-5.117847 -5.752224 1.345142 0.000000
-6.630999 -5.683455 1.368859 5.000000
-6.600688 -5.621598 1.358949 16.000000
-5.660584 -5.539384 1.383692 93.000000
-5.005331 -5.572680 1.308656 22.500000
-6.446371 -5.455325 1.323644 41.000000
-5.780059 -5.515887 1.395854 47.000000
-5.635775 -5.446207 1.369236 44.000000
-5.564093 -5.513824 1.368547 37.000000
-5.939317 -5.389083 1.401132 40.333332
-5.830375 -5.416860 1.390404 54.000000
-5.582571 -5.227733 1.336192 57.000000
-5.611070 -5.027459 1.316229 1.000000
-7.277114 -4.864252 1.371956 12.000000
19.670773 -4.826488 1.385061 50.200001
-6.996986 -4.651420 1.316954 44.400002
-5.927200 -4.644177 1.315540 73.000000
-6.325643 -4.574966 1.363901 38.250000
-6.990799 -4.515633 1.304442 17.000000
-6.637850 -4.459405 1.397116 35.625000
-6.377766 -4.454084 1.359082 56.750000
-6.694693 -4.394175 1.399067 50.333332
-7.179554 -4.232455 1.306301 1.000000
-6.796391 -4.240263 1.399526 29.000000
-6.759681 -4.246919 1.394707 33.000000
-7.270469 -4.194223 1.315591 47.000000
-6.483880 -4.159380 1.345830 25.000000
-6.440990 -4.160490 1.339634 31.000000
-6.636892 -4.025780 1.356156 38.000000
-6.458480 -4.100283 1.336537 38.500000
-5.867355 -4.028041 1.371930 32.666668
-8.737178 -3.996502 1.334051 1.000000
-6.698268 -3.934475 1.357189 46.000000
-5.871300 -3.955198 1.364662 22.400000
-7.972460 -3.891872 1.390538 0.000000
-6.435877 -3.914876 1.316091 39.000000
-6.580206 -3.741114 1.322424 48.000000
-8.683497 -3.614591 1.305994 3.000000
-7.943796 -3.454061 1.357710 1.000000
-7.173926 -3.502056 1.394707 8.000000
-7.149423 -3.338467 1.378529 17.000000
-7.075028 -3.398901 1.371301 35.000000
-5.858661 -3.402983 1.306059 67.000000
-10.369131 -3.283309 1.317168 5.000000
-9.106767 -3.232031 1.341752 35.000000
-7.305636 -3.304600 1.400902 36.666668
-8.944218 -3.127019 1.315622 32.000000
-8.340302 -3.138215 1.396732 14.000000
-7.815666 -3.167260 1.321785 1.000000
-7.325952 -3.171733 1.394707 19.000000
12.741562 -3.202823 1.358601 7.000000
-9.190684 -3.035968 1.343953 0.000000
-7.821723 -3.055854 1.316211 117.000000
-6.936701 -3.107295 1.327932 31.000000
-6.101171 -3.096638 1.318931 53.000000
-5.832114 -3.116495 1.395664 28.142857
-5.004856 -3.121313 1.354816 108.000000
-4.881361 -3.104231 1.393022 2.400000
-8.377488 -2.963380 1.392809 33.000000
-7.346487 -2.990543 1.385758 52.000000
-7.121048 -2.937994 1.345830 39.000000
-6.638557 -2.934877 1.399187 40.000000
-8.331982 -2.831290 1.379300 29.142857
-7.465104 -2.916527 1.400214 7.000000
-6.915346 -2.878581 1.308656 37.000000
-6.618967 -2.901390 1.393130 1.000000
12.692431 -2.832440 1.344818 7.500000
-8.343450 -2.726908 1.375827 30.000000
-8.049511 -2.743415 1.332934 53.000000
12.978296 -2.810733 1.373207 22.500000
-8.439441 -2.670666 1.387441 20.000000
12.996698 -2.708034 1.372864 7.333333
19.962637 -2.674224 1.377311 7.000000
-8.270536 -2.588657 1.358330 44.000000
-5.190709 -2.563057 1.356369 8.500000
19.891874 -2.569415 1.371580 1.000000
-8.393717 -2.454494 1.370718 37.000000
-8.092266 -2.435460 1.324573 39.000000
-8.069252 -2.483926 1.323334 30.000000
-7.036856 -2.497398 1.304526 31.000000
-6.776050 -2.524029 1.393887 45.000000
-8.606613 -2.399770 1.400448 50.000000
-8.500147 -2.398892 1.384344 34.000000
-8.169970 -2.416951 1.335412 32.000000
-6.867004 -2.339058 1.398430 0.000000
19.820351 -2.402037 1.365304 3.000000
-8.340173 -2.274778 1.354985 50.799999
-6.503085 -2.237922 1.325745 0.000000
-6.402857 -2.259836 1.308899 10.250000
-8.474823 -2.213140 1.372885 33.500000
-8.358980 -2.091996 1.350587 47.500000
19.657198 -2.069524 1.351659 7.000000
-8.289665 -1.950429 1.334793 67.000000
-8.222748 -1.951178 1.324635 47.400002
-8.103360 -1.826171 1.301965 62.000000
-8.173075 -1.640702 1.306610 41.000000
-7.662463 -1.701535 1.371301 22.000000
-6.427303 -1.661090 1.401140 7.200000
-8.421763 -1.594355 1.343464 59.000000
-8.197801 -1.551820 1.307746 30.000000
19.691063 -1.573929 1.350840 7.000000
-8.344810 -1.498676 1.328908 12.500000
-8.298377 -1.409524 1.319308 6.000000
-6.789965 -1.417261 1.337102 53.000000
-6.749929 -1.392189 1.328584 28.500000
-6.974225 -1.251090 1.365873 86.000000
-8.612039 -1.130740 1.361427 21.000000
-8.399073 -1.143070 1.328599 17.500000
-6.901961 -1.219410 1.351109 14.333333
-8.644703 -1.093626 1.365762 39.000000
-6.918055 -1.062317 1.349216 0.000000
-6.950477 -1.022631 1.354264 28.333334
-9.700565 -0.903311 1.352755 6.000000
-8.309018 -0.852741 1.309191 31.666666
-7.209858 -0.891685 1.400449 38.166668
-8.525077 -0.766841 1.341606 37.000000
-8.363358 -0.769975 1.316417 27.333334
-7.435523 -0.746000 1.344197 25.571428
-7.895363 -0.672696 1.384381 25.000000
-7.476120 -0.672486 1.311410 28.000000
-7.135153 -0.685780 1.381773 26.000000
-7.609695 -0.588207 1.333439 49.000000
-7.112648 -0.611578 1.376170 33.400002
-7.019243 -0.600299 1.358049 37.666668
-7.853806 -0.334663 1.373366 67.000000
-7.761029 -0.379577 1.357533 49.000000
-8.348501 -0.303209 1.309398 12.000000
-7.671518 -0.254490 1.341011 50.000000
-7.488616 -0.154509 1.308656 35.000000
-7.809616 -0.038167 1.364417 53.000000
-7.580925 -0.060865 1.324490 38.000000
-7.856980 -0.013712 1.372678 66.000000
-7.041597 0.273088 1.358428 49.666668
-6.980321 0.208391 1.346188 0.000000
-7.576184 0.367886 1.325178 54.000000
-7.101743 0.323731 1.370416 54.000000
-8.450746 0.410353 1.326121 22.000000
-7.863474 0.456158 1.376120 29.000000
-7.720588 0.399216 1.350649 76.000000
-7.497467 0.470335 1.312443 23.000000
-9.992250 0.485206 1.389063 0.000000
-8.917553 0.489202 1.399829 1.000000
-8.608890 0.553694 1.352136 45.000000
-7.232409 0.512082 1.397673 8.000000
-8.565791 0.659103 1.346561 68.000000
-7.576601 0.606937 1.327932 8.000000
-8.325193 0.693231 1.309398 75.000000
-7.739302 0.693436 1.357533 39.000000
-8.377858 0.883496 1.320423 31.400000
-8.445662 1.092396 1.334793 5.000000
-7.909294 1.111580 1.395395 32.000000
-10.001945 1.213910 1.398965 3.000000
-8.742057 1.312750 1.385583 5.000000
-8.471748 1.353921 1.344703 36.000000
-11.013622 1.405016 1.344579 2.000000
-9.655177 1.387892 1.354405 10.000000
-8.232634 1.395401 1.308778 81.000000
-7.835664 1.442367 1.391953 5.500000
-11.032127 1.477881 1.347946 3.000000
-10.647300 1.562761 1.303223 7.000000
-9.821381 1.522182 1.379986 40.500000
-8.633194 1.491213 1.373195 27.000000
-8.355869 1.538137 1.331696 34.500000
-9.744010 1.651586 1.372284 54.500000
-8.433969 1.593617 1.345322 101.000000
-8.373995 1.623116 1.336961 68.000000
-8.181499 1.639309 1.307849 35.000000
-11.143620 1.707203 1.365258 3.000000
-9.815099 1.695364 1.383012 39.000000
-9.687258 1.736030 1.366508 51.000000
-8.326306 1.786453 1.334793 20.166666
-8.208715 1.792675 1.316954 18.000000
-7.005585 1.822188 1.395401 9.750000
-9.654905 1.887216 1.365958 42.000000
-9.549651 1.929016 1.352755 1.000000
-8.364542 1.951095 1.346251 26.750000
-6.998683 1.879219 1.396916 9.000000
-9.493670 2.042201 1.348354 25.000000
-9.216255 2.012838 1.309845 45.000000
-8.290814 2.030282 1.337890 48.000000
-8.277946 1.999587 1.334793 41.000000
-9.772405 2.230999 1.391814 2.000000
-8.492714 2.523623 1.388680 47.500000
-8.386698 2.492242 1.371337 36.000000
-9.589808 2.735375 1.384662 30.333334
-8.115309 2.677579 1.339438 28.500000
-9.652336 2.818884 1.396215 3.000000
-8.235049 2.774601 1.362046 20.000000
-9.543159 2.884810 1.384295 35.666668
-12.277452 3.024722 1.307581 6.000000
-9.621096 3.024308 1.400341 31.500000
-8.350485 2.990045 1.390228 55.000000
-7.765997 3.002881 1.305062 1.000000
-7.753265 3.131762 1.310636 16.500000
-9.306518 3.200858 1.366508 26.000000
-9.306198 3.275676 1.369887 43.285713
-8.979480 3.439707 1.335151 48.000000
-7.724297 3.403620 1.323024 26.666666
-7.659478 3.436535 1.315839 24.400000
-9.249538 3.509877 1.373660 91.000000
-9.151514 3.555133 1.363207 61.500000
-9.020390 3.553224 1.346153 42.000000
-9.340536 3.713275 1.395665 52.000000
-9.217464 3.745195 1.381471 22.799999
-9.162777 3.709448 1.372559 26.000000
-9.192164 3.856480 1.384112 36.000000
-9.084301 4.065445 1.381912 11.500000
-8.797987 3.987242 1.341202 2.000000
-10.124252 4.320448 1.333038 12.000000
-10.010698 4.402714 1.324382 10.500000
-8.882481 4.436389 1.378611 15.000000
-8.918045 4.489211 1.386312 21.000000
-12.014080 5.126891 1.350783 6.000000
-10.113224 5.088634 1.371029 12.000000
-11.615792 5.261827 1.318691 59.000000
-12.398377 5.290914 1.393986 23.000000
-12.227690 5.354857 1.380408 9.000000
-11.759296 5.282368 1.333091 27.000000
-11.314222 5.537869 1.302644 59.500000
-11.243553 5.723962 1.304701 56.000000
-11.283688 5.811480 1.312519 56.000000
-9.712606 5.947230 1.379204 4.000000
-11.611456 6.026526 1.352841 28.000000
-11.325730 6.014395 1.326097 12.000000
-11.693040 6.162430 1.366830 38.000000
-11.362912 6.079978 1.332680 1.000000
-11.251900 6.088926 1.323011 8.000000
-11.287963 6.316384 1.337617 43.000000
-11.202207 6.314696 1.329800 29.000000
-11.334549 6.436301 1.347903 71.000000
-11.155402 6.381007 1.328977 33.000000
-11.125682 6.503930 1.332680 14.000000
-11.201197 6.595374 1.344200 2.000000
-11.259130 6.677213 1.353664 70.000000
-11.264915 7.019975 1.372590 33.000000
-11.046476 7.004844 1.352635 27.000000
-11.283245 7.080711 1.377528 18.000000
-11.336615 7.264013 1.392340 25.000000
-11.120586 7.224554 1.371356 9.000000
-11.380605 7.342732 1.400569 8.000000
-11.241013 7.353109 1.389048 71.000000
-11.045471 7.374769 1.373413 10.000000
-10.765418 7.764256 1.372590 6.000000
-10.601439 7.773296 1.359424 1.000000
-10.511776 7.860950 1.357367 22.000000
-10.689011 7.889258 1.373825 10.000000
-13.940813 8.003353 1.380361 8.500000
-13.588824 8.350100 1.369581 18.000000
-13.505742 8.713864 1.380190 44.000000
-13.404423 8.919355 1.382586 3.500000
-13.305546 9.066227 1.382586 6.000000
-13.277000 9.107980 1.382586 5.000000
-13.119189 9.368192 1.384297 30.000000
-13.252572 9.400718 1.395248 8.000000
-12.536598 9.375159 1.344257 30.000000
-13.199717 9.488454 1.395932 20.000000
-12.951182 9.558903 1.382244 0.000000
-12.561768 9.579897 1.356577 0.000000
-12.416590 9.577552 1.346567 28.000000
-12.292891 9.621546 1.340492 6.000000
-12.166614 9.646600 1.333305 2.000000
-12.795098 9.694421 1.378479 103.000000
-12.416004 9.780960 1.357261 56.000000
-14.810953 12.441082 1.322732 18.000000
-14.656534 12.489120 1.316796 43.000000
-14.632285 12.607985 1.320821 18.000000
-13.891752 13.159762 1.308541 19.000000
-13.692462 13.218039 1.301446 18.000000
-14.652064 13.749459 1.374036 48.500000
-13.984725 13.843875 1.345655 5.000000
-14.668184 13.895282 1.381677 6.000000
-14.511471 13.920867 1.375128 10.000000
-14.227293 13.995770 1.364758 35.000000
-14.588258 14.082796 1.386590 5.000000
-14.187859 14.267399 1.375947 8.000000
-13.618587 14.176549 1.344290 19.000000
-14.137329 14.351134 1.377584 22.000000
-14.022379 14.324187 1.370762 8.000000
-13.706254 14.357816 1.357390 7.000000
-14.458553 14.403141 1.395595 16.000000
4.641335 15.363150 1.378137 10.000000
4.613577 15.446392 1.384297 35.000000
4.533769 15.625658 1.397130 33.500000
3.796239 15.771404 1.392989 32.799999
3.951961 15.791752 1.397872 31.333334
4.075922 15.794531 1.400724 38.000000
-10.627659 15.893394 1.307449 3.000000
-10.503447 15.923266 1.304448 8.000000
2.586726 15.883483 1.381901 23.750000
-10.518981 16.056328 1.312634 3.000000
1.569812 16.126127 1.391312 15.000000
1.713133 16.149569 1.394564 20.500000
2.519587 16.108137 1.400039 0.000000
-8.654037 17.579584 1.339924 0.000000
-8.985803 18.399164 1.400234 0.000000
-17.732248 19.652235 1.348769 12.000000
-16.515131 21.062536 1.363832 17.000000
-16.431700 21.092253 1.362407 34.000000
-16.375139 21.156406 1.363222 25.000000
-17.221672 21.198784 1.391720 15.500000
-13.172900 22.899111 1.346123 5.500000
5.874081 38.387287 1.303867 2.000000
5.784253 38.611141 1.310847 18.000000
5.690178 38.815033 1.317155 14.000000
5.599985 39.054321 1.324672 13.000000
5.507235 39.285507 1.331920 14.000000
5.411459 39.504616 1.338766 14.000000
5.318602 39.755207 1.346685 12.000000
5.220600 39.977852 1.353665 12.000000
5.848022 -28.847012 1.499808 3.000000
5.262411 -28.228420 1.463168 5.000000
6.559044 -28.230452 1.476807 9.000000
6.792763 -28.228508 1.479453 11.000000
6.935186 -28.235031 1.481488 30.000000
5.157866 -28.158363 1.458690 18.000000
5.526679 -28.169729 1.462761 1.000000
6.636706 -28.163048 1.474364 4.000000
5.049570 -28.064344 1.452990 18.000000
6.141360 -28.025782 1.461947 13.000000
6.440891 -28.122417 1.470089 40.000000
6.994904 -28.096809 1.475382 16.000000
4.944702 -27.985655 1.448105 7.000000
5.804129 -27.734417 1.443830 12.000000
6.272471 -27.787905 1.451565 17.000000
6.126161 -27.542307 1.437724 37.000000
3.603066 -27.368031 1.406579 1.000000
6.239907 -26.856869 1.404951 14.000000
19.378078 -22.096436 1.497569 22.000000
2.230857 -21.698681 1.491655 6.000000
19.557390 -21.674995 1.487595 4.000000
2.123506 -21.312452 1.464638 41.000000
3.133255 -21.244032 1.468459 0.000000
2.914369 -21.138206 1.459180 35.000000
3.016820 -21.143957 1.460545 10.500000
3.197007 -21.214354 1.467094 17.000000
1.978352 -20.966997 1.440168 25.333334
19.145689 -20.996683 1.447901 13.333333
19.263264 -20.948647 1.450140 14.000000
1.384313 -20.843269 1.428479 21.500000
1.740835 -20.774504 1.425614 18.000000
1.843505 -20.819702 1.429298 15.500000
1.277696 -20.712164 1.419064 17.000000
1.455565 -20.456385 1.402418 17.000000
1.588692 -20.506516 1.406511 24.000000
1.651825 -20.485514 1.405419 24.000000
-1.666361 -16.843483 1.453426 2.000000
-1.695381 -16.604248 1.433235 3.000000
1.059617 -16.341417 1.406199 5.000000
-0.654456 -14.467975 1.497670 10.000000
-0.265574 -14.352974 1.484504 16.000000
-0.062725 -14.375204 1.486561 26.000000
0.057786 -14.381841 1.487247 30.333334
0.118082 -14.394753 1.488618 29.000000
-2.094514 -14.270194 1.491499 28.000000
-1.956146 -14.261708 1.488618 22.000000
-0.692023 -14.302908 1.480801 21.000000
-0.555177 -14.257109 1.475452 16.000000
-0.443661 -14.274929 1.476892 7.000000
-0.197434 -14.318278 1.480801 13.000000
-0.122293 -14.303186 1.479155 29.666666
-0.017480 -14.307691 1.479567 2.000000
-2.052600 -14.087269 1.472161 22.333334
-1.834516 -14.029114 1.463109 10.000000
-0.992664 -14.089754 1.460640 10.000000
-0.740832 -14.087955 1.458857 22.666666
-1.961675 -13.975741 1.459406 17.000000
-0.938780 -13.949890 1.445828 1.000000
-1.571721 -13.688588 1.424844 12.000000
-1.613988 -13.555441 1.411678 25.000000
-0.785210 -13.576792 1.406329 3.000000
-1.399060 -13.493305 1.402832 16.000000
-1.833574 -12.224943 1.497023 32.000000
-2.083719 -12.076013 1.484039 91.000000
-2.829063 -11.968186 1.489328 7.500000
-2.717530 -12.000235 1.490050 13.000000
-2.207343 -12.003424 1.478027 62.500000
-2.027209 -11.972872 1.470574 6.000000
-3.052119 -11.675490 1.461437 1.000000
-2.509952 -11.678044 1.446529 54.000000
-2.155335 -11.720387 1.443163 49.000000
-0.967091 -11.638563 1.414309 16.000000
-3.184910 -11.586440 1.455185 18.000000
-3.083672 -11.536699 1.446168 31.250000
-2.242990 -11.614966 1.432583 18.666666
-1.000918 -11.603818 1.410462 11.000000
-3.215985 -11.487143 1.444605 2.000000
-1.824763 -11.430695 1.401806 2.000000
-2.339147 -11.405540 1.409981 33.000000
-2.693491 -11.314847 1.408538 17.000000
-3.409687 -9.981742 1.464613 29.166666
-3.024514 -9.892738 1.436374 1.000000
-2.747949 -9.888769 1.425096 27.000000
-4.611334 -9.764218 1.499363 10.000000
-2.780954 -9.788282 1.412902 16.333334
-4.489001 -9.661890 1.479283 0.000000
-4.299755 -9.408830 1.436374 0.000000
-5.665530 -9.087904 1.486985 1.000000
-5.561049 -9.110461 1.482034 3.000000
-5.373350 -9.056953 1.462230 0.000000
-3.269386 -8.953382 1.493977 101.000000
19.119404 -9.025456 1.445808 28.000000
-3.385585 -8.838189 1.483447 17.000000
-3.288221 -8.874861 1.483447 80.500000
19.053804 -8.848563 1.436621 45.333332
-3.640162 -8.753540 1.485925 52.000000
-3.490539 -8.780259 1.480970 29.000000
-3.437375 -8.753098 1.473950 24.666666
19.133301 -8.739719 1.438440 37.000000
-2.864305 -8.711907 1.437405 11.000000
19.233364 -8.712502 1.443898 18.000000
-4.304315 -8.534196 1.498158 14.250000
-2.858714 -8.573624 1.416553 20.000000
-4.463853 -8.466454 1.500171 23.000000
-3.931256 -8.461429 1.462388 33.000000
-3.712214 -8.509092 1.455110 40.250000
-4.230633 -8.404366 1.474776 29.000000
-4.023026 -8.348040 1.452477 74.000000
-3.841809 -8.337355 1.438851 38.000000
-4.032874 -8.268619 1.441948 55.000000
-3.889368 -8.280349 1.433896 25.666666
-4.020903 -8.157111 1.425431 19.000000
-3.651484 -8.193666 1.406023 33.000000
-4.782790 -8.061545 1.469201 36.000000
-2.790403 -8.112891 1.498885 24.333334
-2.726313 -8.091728 1.491772 4.000000
-4.217890 -7.939382 1.409120 46.000000
-4.933910 -7.750656 1.440090 24.000000
-4.749475 -7.726202 1.421508 25.000000
-5.136073 -7.689580 1.449380 4.000000
-4.890533 -7.700140 1.429766 23.000000
-4.790990 -7.684974 1.419443 18.333334
-3.646372 -7.720934 1.491772 27.000000
-4.007878 -7.544074 1.492460 30.000000
-5.177423 -7.344905 1.408500 20.000000
-7.328459 -7.216759 1.428122 3.000000
-5.524356 -7.147681 1.415933 21.000000
-5.520434 -7.050600 1.403545 3.000000
-5.094038 -6.899243 1.498312 23.000000
-4.950840 -6.869619 1.479380 28.000000
-4.641309 -6.855186 1.446337 0.000000
-4.647288 -6.817780 1.441518 21.000000
-6.301555 -6.691725 1.440709 18.000000
-6.241346 -6.641607 1.428527 30.666666
-6.090246 -6.570056 1.404165 13.500000
-5.526346 -6.534920 1.495214 32.000000
-5.194958 -6.591819 1.466301 35.500000
-5.607836 -6.444232 1.492460 28.000000
-5.409462 -6.437615 1.469054 52.000000
-5.156931 -6.379577 1.433189 29.799999
-6.538740 -6.318799 1.425224 15.000000
-5.818629 -6.310060 1.499574 46.666668
-5.643299 -6.312716 1.479380 20.000000
-5.818093 -6.217350 1.487641 49.000000
15.165326 -6.136428 1.404830 52.000000
-5.792088 -6.035715 1.461482 28.000000
-5.255826 -6.097532 1.406410 33.000000
-6.115812 -5.947366 1.490395 70.000000
-5.929855 -5.950590 1.467678 28.000000
-5.663048 -5.983394 1.439315 28.600000
-5.915040 -5.898543 1.459417 30.000000
-5.060765 -5.906576 1.499381 26.666666
-5.873372 -5.783849 1.440141 44.000000
-4.588445 -5.820416 1.428715 65.000000
15.366693 -5.745308 1.408766 45.000000
-6.403949 -5.629968 1.489707 8.000000
15.496433 -5.710791 1.418177 0.000000
-6.306648 -5.615038 1.475250 22.000000
-6.398142 -5.431756 1.466301 36.000000
-6.380360 -5.521079 1.474103 28.500000
-5.536716 -5.416277 1.493072 26.000000
-6.619575 -5.153200 1.465612 67.000000
-6.854733 -5.064837 1.489018 10.000000
-5.441005 -5.061372 1.432501 64.500000
-8.053275 -5.024433 1.487783 1.000000
-5.363368 -4.989186 1.412058 36.000000
-6.572028 -4.824103 1.424308 56.000000
-6.073846 -4.665682 1.476415 74.000000
-6.315376 -4.528055 1.497993 53.000000
-5.857188 -4.528581 1.427201 24.000000
-6.353516 -4.450438 1.495343 53.666668
-6.067307 -4.451991 1.450672 16.000000
-7.325051 -4.349298 1.488330 5.000000
-6.130082 -4.351593 1.449158 43.000000
-5.854938 -4.377563 1.409246 17.714285
-6.973808 -4.320574 1.433257 80.000000
-7.468783 -4.031621 1.482823 6.000000
-6.548965 -4.098579 1.489286 28.000000
-7.417386 -3.943907 1.467678 18.000000
-8.722912 -3.890990 1.497074 1.000000
-8.488203 -3.882618 1.463007 1.000000
-8.402724 -3.907547 1.452477 0.000000
-7.305926 -3.825943 1.440830 30.000000
-7.450542 -3.768263 1.458728 7.500000
-7.356369 -3.822960 1.448402 36.000000
-6.376894 -3.757699 1.426823 40.500000
-6.606096 -3.645257 1.454458 44.000000
-6.251272 -3.720824 1.402367 30.799999
13.199430 -3.650585 1.416204 1.500000
-6.819541 -3.597055 1.486258 43.000000
-6.709832 -3.606528 1.468465 58.000000
-6.609048 -3.566050 1.447644 33.000000
-8.464076 -3.461020 1.433276 6.000000
-7.391579 -3.522435 1.430504 14.000000
-6.884760 -3.426554 1.482472 33.000000
-6.732972 -3.488517 1.461777 27.333334
-6.663777 -3.488183 1.449915 38.000000
-6.153363 -3.446059 1.488536 36.333332
-8.840895 -3.231807 1.475395 3.000000
-7.426945 -3.284969 1.418801 41.000000
-5.971555 -3.270807 1.437045 20.333334
-7.384302 -3.155766 1.402968 1.000000
-7.108349 -3.036368 1.490043 64.000000
13.305473 -3.123220 1.413324 21.000000
-7.521384 -3.020526 1.416047 31.000000
-6.965947 -2.949699 1.458244 67.000000
-6.433228 -2.965760 1.495144 25.000000
-7.210404 -2.763483 1.488529 57.000000
13.825342 -2.722446 1.457143 9.000000
-7.868201 -2.544433 1.444731 25.000000
-6.893791 -2.567902 1.418115 8.500000
-8.750803 -2.514225 1.427082 20.000000
-7.957050 -2.490537 1.456663 37.000000
-7.825215 -2.476294 1.433946 29.000000
-7.007036 -2.354079 1.424930 28.000000
-8.749196 -2.233397 1.415314 50.000000
-8.137629 -2.269003 1.475938 3.000000
-10.502336 -2.194052 1.489736 7.000000
-6.725757 -2.173658 1.491840 54.000000
-6.531379 -2.144852 1.450950 27.500000
-8.239391 -2.089444 1.485060 11.000000
-10.179789 -1.927173 1.438574 1.000000
-8.244688 -1.976278 1.481216 50.000000
-7.287698 -1.932303 1.453398 12.600000
-6.566987 -1.986442 1.448059 29.000000
-6.477116 -1.992631 1.430299 10.500000
-10.151715 -1.839388 1.432523 3.000000
-8.225979 -1.853804 1.473185 7.000000
-6.647831 -1.920056 1.460450 25.000000
-7.414365 -1.751346 1.468591 71.666664
-7.307912 -1.807199 1.451177 7.833333
-6.495889 -1.766113 1.420800 0.000000
-6.435105 -1.820435 1.411507 18.250000
-7.877131 -1.697323 1.407786 51.333332
-7.296660 -1.691276 1.443858 2.000000
-7.222844 -1.626413 1.427201 2.000000
-8.841982 -1.559079 1.407262 0.000000
-7.475361 -1.535832 1.471115 39.000000
-7.272409 -1.565709 1.434015 53.000000
-8.466929 -1.274457 1.495902 5.000000
-7.500360 -0.744671 1.452944 59.000000
-7.268111 -0.785065 1.409219 35.500000
-7.254267 -0.536538 1.402216 0.000000
-8.509190 -0.483149 1.489018 24.500000
-8.184777 -0.426083 1.431881 56.000000
-7.594505 -0.513748 1.467329 35.000000
-9.333474 -0.397714 1.464246 12.000000
-8.567461 -0.338114 1.497967 48.000000
-8.049524 -0.368343 1.407786 47.000000
-7.712895 -0.327269 1.488151 37.500000
-8.371594 -0.304048 1.463547 53.000000
-7.613168 -0.268380 1.468519 39.428570
-7.587098 -0.194754 1.463039 28.000000
-7.662686 -0.060184 1.477172 42.000000
-7.438962 -0.035057 1.434015 52.000000
-7.753020 0.060893 1.494586 20.000000
-7.315313 0.000102 1.410166 64.000000
-9.186481 0.157142 1.440090 9.000000
-7.689951 0.084558 1.482472 38.000000
-8.529211 0.306792 1.491083 49.000000
-10.388317 0.406343 1.443525 0.000000
-10.234280 0.561435 1.423171 2.000000
-7.298443 0.551375 1.410923 2.500000
-8.566604 0.632097 1.500721 5.000000
-8.375709 0.697438 1.468366 29.000000
-8.190839 0.759626 1.437158 37.333332
-8.068134 0.774180 1.416047 27.500000
-7.527719 0.747384 1.458244 36.000000
-7.240106 0.741807 1.402973 9.000000
-6.976224 0.759094 1.481101 28.000000
-12.352259 0.850774 1.499427 8.500000
-9.130075 0.789145 1.436373 21.000000
-6.955673 0.867609 1.479449 70.000000
-6.877970 0.857878 1.462928 9.500000
-9.196405 0.901703 1.448348 19.666666
-7.493869 0.910838 1.455215 51.000000
-7.345533 0.933813 1.427390 15.250000
-10.212792 1.077038 1.425921 20.500000
-8.890848 1.192611 1.406023 65.000000
-8.475035 1.218201 1.495902 43.500000
-8.463338 1.298095 1.495902 19.000000
-8.359170 1.362888 1.479725 73.000000
-10.278391 1.378789 1.439950 10.500000
-8.097878 1.547672 1.440371 21.000000
-8.051801 1.633788 1.435421 29.571428
-11.861328 1.740951 1.451819 1.000000
-11.749768 1.762306 1.438835 23.000000
-8.372588 1.773539 1.495214 29.000000
-8.035235 1.794604 1.438420 24.833334
-7.972907 1.793848 1.427750 32.000000
-9.155024 2.272424 1.478492 45.000000
-8.952389 2.252007 1.446903 6.000000
-8.691026 2.478983 1.416553 81.000000
-9.770966 2.720749 1.408317 44.000000
-8.637976 2.700327 1.418535 25.400000
-8.615228 2.782640 1.419030 25.000000
-9.977799 2.947982 1.444626 0.000000
-9.656075 2.985362 1.403366 38.000000
-8.434281 3.019908 1.404165 62.000000
-9.841828 3.156098 1.435090 36.000000
-9.706532 3.185822 1.418495 1.000000
-8.381952 3.195649 1.406023 3.500000
-7.795143 3.184314 1.471120 16.000000
-7.783551 3.308750 1.477659 1.500000
-11.540237 3.446877 1.458551 11.000000
-7.765030 3.416716 1.482134 17.500000
-9.633348 3.500574 1.423171 33.500000
-9.906721 3.652820 1.466080 47.000000
-9.768607 3.671776 1.449027 19.000000
-8.626138 3.942071 1.486544 0.000000
-9.650544 4.013183 1.451227 62.000000
-9.435497 4.063669 1.426471 19.500000
-9.666949 4.127293 1.459479 7.000000
-9.515125 4.168926 1.442425 19.000000
-9.454869 4.177983 1.435274 17.000000
-9.090886 4.398622 1.402266 62.000000
-9.604847 4.573048 1.477083 0.000000
-9.586670 4.626136 1.478000 27.666666
-12.584417 5.092104 1.403860 3.000000
-12.481676 5.419420 1.407152 8.000000
-10.402262 5.544965 1.427534 9.000000
-10.184770 5.563314 1.405412 1.750000
-12.577924 5.985897 1.440479 7.000000
-12.057859 6.306376 1.407152 14.000000
-12.269764 6.565079 1.439039 2.500000
-12.124183 6.487313 1.421964 31.000000
-12.153252 6.650951 1.432662 3.000000
-12.506232 6.793157 1.471749 1.000000
-12.352256 7.117212 1.474218 0.000000
-12.120058 7.136409 1.454468 38.000000
-11.811943 7.088881 1.424570 28.333334
-11.662666 7.091037 1.411472 10.000000
-11.630485 7.180376 1.413461 20.000000
-11.473128 7.608304 1.423610 1.000000
-11.759475 7.745117 1.456114 13.000000
-11.933612 8.022079 1.486973 0.000000
-11.680305 8.012651 1.464755 28.000000
-12.000615 8.121970 1.498493 14.000000
-11.821595 8.127761 1.483544 19.666666
-13.386472 9.369825 1.403119 16.000000
-13.551304 10.067760 1.449662 16.000000
-13.331758 10.035264 1.432893 15.000000
-12.812644 10.191647 1.405857 19.500000
-13.155935 10.297045 1.434604 8.000000
-13.579150 10.525440 1.475328 11.500000
-12.855404 10.525777 1.426733 93.000000
-12.713501 10.510042 1.416466 25.000000
-13.226704 10.714570 1.461697 52.833336
-13.301277 11.316270 1.499626 23.000000
-13.259602 11.352820 1.498942 12.000000
-13.142355 11.324179 1.489702 23.000000
-12.923216 11.603450 1.491413 18.500000
-12.851553 11.685732 1.491584 35.500000
-16.634073 12.809961 1.435711 9.000000
-15.762959 13.156525 1.404055 12.000000
-15.617847 13.457199 1.409786 8.000000
-15.632780 13.555868 1.414971 17.000000
-15.451346 13.569560 1.406238 7.000000
-15.626194 13.636405 1.418246 7.000000
-15.011858 13.954767 1.401599 6.000000
-9.750684 13.956569 1.461982 0.500000
-9.650593 14.141939 1.470195 0.000000
-9.518495 14.106334 1.461297 1.000000
-9.397915 14.150241 1.458673 2.000000
-9.249794 14.167497 1.452913 2.500000
-9.114207 14.202209 1.449091 3.000000
-8.955226 14.248100 1.445099 3.000000
-8.796856 14.293411 1.441220 3.000000
-8.639805 14.339280 1.437570 1.666667
-8.515418 14.387297 1.435630 2.000000
-8.364929 14.441835 1.433149 1.250000
-14.873313 14.539621 1.422339 5.000000
-8.206385 14.481094 1.429299 1.000000
-8.051126 14.524620 1.426048 1.000000
-7.912955 14.598181 1.425877 1.000000
-7.845044 14.637072 1.426048 1.000000
-7.763466 14.705984 1.427987 1.666667
-7.669684 14.752181 1.427759 2.000000
-15.273860 14.837621 1.456178 5.000000
-14.306552 14.799346 1.407603 6.000000
-7.616446 14.820053 1.430839 0.000000
-14.119741 14.884311 1.402963 8.000000
-13.833998 15.144852 1.402690 19.000000
-7.734272 15.225316 1.466431 1.000000
-14.761642 15.463374 1.461909 43.000000
-15.112639 15.535240 1.482103 18.000000
-13.970323 15.586587 1.431345 1.000000
4.850728 15.583651 1.401522 11.666667
5.006674 15.622272 1.408709 5.333333
4.371480 15.757635 1.404231 19.750000
4.629356 15.678675 1.403804 25.000000
4.847187 15.687805 1.409964 12.000000
-15.233112 15.807387 1.501206 20.000000
-14.611778 15.795864 1.471460 35.000000
-14.262449 15.812286 1.456178 16.000000
4.240202 15.863605 1.410049 9.250000
4.501050 15.790598 1.409964 21.000000
-15.086508 15.903426 1.499023 47.000000
-15.014576 15.927509 1.496840 71.000000
4.043988 15.876774 1.406884 21.000000
-14.966562 16.027243 1.499569 73.500000
-14.019075 15.991290 1.454268 2.000000
3.743804 16.062761 1.416295 18.000000
-13.927437 16.089643 1.455223 7.000000
-13.829412 16.129353 1.452904 0.000000
4.222284 16.151802 1.433577 49.000000
1.865711 16.249048 1.404488 23.000000
2.853112 16.230492 1.415097 3.000000
3.666768 16.231049 1.428900 22.666666
1.817749 16.282555 1.406884 21.000000
2.453795 16.360125 1.420573 28.000000
3.604580 16.353817 1.438026 31.333334
1.971584 16.412457 1.419489 12.833333
2.411067 16.426899 1.425706 0.000000
3.305024 16.376341 1.434604 31.000000
2.162490 16.536789 1.432123 23.750000
2.260475 16.480478 1.428444 3.000000
2.529924 16.513849 1.434604 6.000000
3.072831 16.563381 1.446582 33.000000
3.329800 16.499325 1.445384 42.000000
3.441185 16.515215 1.448635 21.000000
1.514477 16.641712 1.434946 10.500000
3.546001 16.625465 1.459757 16.000000
3.057228 16.772911 1.464035 13.000000
3.152943 16.702461 1.459586 43.000000
3.281505 16.803574 1.470195 36.000000
3.253500 16.942957 1.481488 32.000000
-11.274142 17.937735 1.448810 6.000000
-9.338592 19.274870 1.464638 0.000000
7.555769 19.459835 1.427524 11.500000
7.644490 19.416605 1.426978 5.000000
5.561521 20.149727 1.429434 60.000000
5.678847 20.162609 1.432436 41.000000
5.465581 20.256573 1.434756 1.500000
5.758571 20.202236 1.436530 38.000000
4.069298 20.495127 1.428889 26.000000
-17.819437 21.176256 1.410243 4.000000
-17.865564 21.366985 1.419200 30.000000
-17.839201 21.472166 1.422457 26.000000
-17.702993 21.444920 1.416961 27.000000
-17.168922 21.615255 1.406579 5.000000
-17.279264 22.037071 1.426935 2.000000
-17.792727 22.113878 1.446273 7.000000
-17.029408 22.145107 1.423475 12.000000
-18.501978 22.556770 1.486577 8.000000
2.153922 28.121040 1.437113 3.000000
2.240668 28.094225 1.436095 6.000000
2.334860 28.158709 1.439759 4.000000
5.357179 -30.886173 1.597312 2.000000
5.231965 -30.737448 1.588763 14.000000
6.216794 -28.802486 1.501437 4.000000
1.253089 -23.287815 1.594810 21.500000
19.851889 -22.140837 1.515279 1.000000
2.733103 -22.036608 1.518490 28.333334
2.851071 -22.041777 1.519854 25.333334
1.262899 -18.572603 1.598529 3.000000
2.469023 -17.908070 1.552329 6.000000
2.641759 -17.911602 1.554724 0.000000
2.389346 -17.741953 1.537271 8.000000
1.870855 -17.651810 1.524266 7.000000
2.093930 -17.638779 1.525293 4.000000
1.781437 -17.598949 1.518962 16.500000
1.951167 -17.617027 1.522042 6.500000
2.146441 -17.608377 1.523240 0.000000
0.466418 -15.442571 1.597652 25.000000
0.197765 -15.309059 1.583251 25.500000
0.270015 -15.315933 1.584074 32.000000
-0.850203 -15.111373 1.565148 13.000000
-1.103229 -14.987313 1.554039 1.000000
-0.963204 -15.016897 1.556096 4.000000
-0.629077 -14.946991 1.547044 8.000000
-1.941972 -14.496509 1.512483 19.000000
18.598141 -14.091190 1.595629 6.000000
18.246490 -14.006085 1.572978 0.000000
18.242081 -13.641856 1.557696 6.000000
18.047800 -13.408367 1.537502 4.000000
18.625334 -13.300040 1.565064 16.000000
-1.177075 -13.162922 1.600415 12.000000
-1.050120 -13.137805 1.596087 28.000000
18.621458 -13.209136 1.561244 33.000000
18.486702 -13.026446 1.546507 0.000000
18.481768 -12.936267 1.542687 31.000000
-2.030088 -12.716892 1.559539 66.000000
-1.608661 -12.715657 1.552165 23.666666
18.964212 -12.661906 1.559333 5.000000
-2.071992 -12.597448 1.546074 87.000000
-1.726337 -12.586633 1.538540 8.000000
-3.737808 -12.514291 1.581660 4.000000
-3.231736 -12.523237 1.566271 6.000000
-3.232897 -12.367030 1.547997 16.000000
-1.922180 -12.416282 1.521548 66.000000
-1.798568 -12.343838 1.510648 20.666666
-2.692430 -12.245886 1.518422 13.000000
-2.160148 -12.288423 1.510969 29.000000
-2.108631 -11.256317 1.590133 44.500000
-1.954860 -11.247179 1.585091 27.000000
-1.688577 -11.244835 1.578856 16.000000
-2.192482 -11.217060 1.586970 16.250000
-2.032420 -11.139476 1.572254 21.000000
-2.704632 -11.044573 1.578856 49.000000
-2.646666 -10.956734 1.565103 17.000000
-2.331748 -11.007798 1.562352 7.000000
-3.145226 -9.685781 1.596177 32.000000
-2.524099 -9.587195 1.553903 4.750000
-2.753373 -9.319121 1.523088 8.000000
-3.469963 -9.144357 1.532999 72.000000
-3.427707 -9.033489 1.514417 47.333332
-4.680086 -9.013391 1.591841 10.000000
-3.789047 -8.952488 1.523708 62.000000
-3.767017 -8.978923 1.526185 55.000000
-3.807843 -8.918734 1.519991 62.000000
-5.259221 -8.738986 1.598654 56.000000
-3.062415 -8.638408 1.601228 25.000000
-2.798519 -8.542323 1.570479 27.666666
-2.636164 -8.553657 1.563759 28.571428
-5.048323 -8.388489 1.534547 21.500000
-3.342139 -8.330633 1.568185 35.000000
-5.027836 -8.236920 1.512559 16.000000
-3.810903 -8.270284 1.590902 28.000000
-3.765249 -8.239209 1.582641 21.000000
-3.404476 -8.260429 1.560956 30.500000
-4.139513 -8.159427 1.598474 58.000000
-3.328853 -8.148971 1.537895 26.000000
-5.365300 -8.087668 1.521230 18.000000
-5.253790 -8.028633 1.503887 39.000000
-3.355160 -8.104055 1.532388 35.500000
-4.103528 -8.005266 1.571627 32.666668
-3.993386 -7.933062 1.551663 20.000000
-3.556508 -7.935765 1.519308 67.666664
-3.924427 -7.857440 1.534453 10.000000
-3.841281 -7.920898 1.537993 25.857143
-3.770548 -7.919342 1.532388 27.000000
-3.450667 -7.887084 1.504048 15.000000
-4.208592 -7.773992 1.544435 48.000000
-4.059475 -7.778148 1.532847 26.333334
-4.786109 -7.641657 1.575298 23.666666
-4.311891 -7.646305 1.533666 53.428570
-4.227248 -7.721227 1.537895 63.000000
-5.205175 -7.534071 1.599851 12.000000
-5.101295 -7.585807 1.597098 16.000000
-4.402142 -7.581888 1.531699 39.000000
-4.038344 -7.601461 1.503819 35.500000
-4.867656 -7.472681 1.558088 26.333334
-4.775129 -7.458121 1.547188 19.333334
-4.560811 -7.436707 1.524127 22.333334
-4.425457 -7.468420 1.516669 26.833334
-6.838963 -7.400940 1.579453 13.000000
-5.154297 -7.351457 1.568598 20.200001
-4.587765 -7.410854 1.522750 11.000000
-4.469313 -7.400138 1.510359 30.000000
-3.847020 -7.349293 1.599071 31.000000
-5.392085 -7.044923 1.549942 29.000000
-5.091197 -6.986895 1.510359 15.000000
-5.706730 -6.856755 1.558547 32.500000
-5.170258 -6.866183 1.501639 29.000000
-5.336283 -6.771475 1.506228 35.000000
-5.269818 -6.818348 1.505540 31.000000
-6.155406 -6.619371 1.579199 33.000000
-5.814545 -6.535281 1.528257 34.000000
-5.119911 -6.536710 1.600585 15.000000
-4.918874 -6.616031 1.589228 18.000000
-7.570141 -6.488398 1.562729 13.000000
-5.157598 -6.466844 1.594528 28.200001
-5.003674 -6.492714 1.580142 12.000000
-7.530319 -6.413336 1.550342 1.000000
-6.232006 -6.352777 1.554761 45.000000
-6.177803 -6.397302 1.553728 29.000000
-7.501451 -6.267733 1.532173 22.333334
-6.126472 -6.304390 1.535830 26.000000
-5.446050 -6.236330 1.596042 52.000000
-5.342679 -6.309243 1.543480 27.333334
-6.110757 -6.170776 1.517243 61.000000
-5.353998 -5.939960 1.541529 0.000000
-5.212771 -6.007188 1.533200 42.000000
-5.750515 -5.841561 1.580142 33.000000
-5.427654 -5.876837 1.542124 26.714287
-5.835963 -5.745005 1.578628 15.000000
-6.956226 -5.629021 1.563366 3.000000
-6.144182 -5.538076 1.594528 20.000000
-5.775970 -5.527548 1.541150 48.000000
-7.290457 -5.475858 1.592967 27.500000
-7.113395 -5.448490 1.565431 30.000000
-6.865826 -5.502532 1.537206 4.500000
-5.924844 -5.391154 1.544179 41.000000
-5.829184 -5.422401 1.534714 56.000000
-5.656966 -5.413421 1.509350 55.000000
-6.415206 -5.050747 1.573934 29.400000
-6.553698 -5.001622 1.589228 63.000000
-6.456671 -5.024573 1.577114 17.000000
-5.383214 -4.944830 1.542779 67.333336
-7.631712 -4.695062 1.565431 2.000000
-6.398656 -4.664271 1.526386 67.000000
-6.917399 -4.528342 1.593771 25.000000
-6.321025 -4.577340 1.504429 39.000000
-7.036112 -4.296546 1.589228 74.000000
-6.952319 -4.275424 1.573328 48.000000
-6.671627 -4.322739 1.532443 27.500000
-6.616744 -4.221057 1.512947 22.500000
-6.655022 -4.121465 1.508972 40.000000
-5.953088 -4.086856 1.524055 18.000000
-7.289346 -3.953131 1.548252 27.666666
-7.062102 -3.964679 1.561214 21.000000
-9.045770 -3.832252 1.539812 3.000000
-8.896907 -3.868486 1.520611 44.000000
-5.997018 -3.898970 1.509737 8.333333
-5.734159 -3.831445 1.584051 15.000000
12.558917 -3.837250 1.590316 7.000000
-6.860784 -3.743973 1.506700 46.500000
-6.342502 -3.737509 1.553793 33.000000
-6.251411 -3.750249 1.538649 24.333334
-6.162764 -3.763242 1.524055 18.000000
-5.799993 -3.770712 1.589040 26.142857
-5.712550 -3.765303 1.571515 21.000000
12.570910 -3.797776 1.590316 1.000000
-9.232977 -3.699334 1.559013 7.500000
-6.359460 -3.653877 1.548011 32.500000
-6.272929 -3.626170 1.529287 29.000000
-8.377089 -3.580045 1.591590 7.000000
-7.140034 -3.539685 1.536229 9.000000
-6.990087 -3.575469 1.513515 10.000000
-5.933495 -3.623219 1.596886 23.333334
-7.458244 -3.466749 1.585443 44.000000
-7.169901 -3.428990 1.532064 52.000000
-5.975870 -3.460870 1.586200 30.799999
-7.237444 -3.419580 1.543043 42.000000
-5.831376 -3.411678 1.551815 21.000000
-7.259587 -3.291906 1.536607 29.500000
-7.176371 -3.299325 1.522600 37.333332
-6.655124 -3.273311 1.565358 27.750000
-6.441144 -3.294839 1.527029 30.400000
-6.107868 -3.258460 1.590096 36.500000
-5.959654 -3.276315 1.562113 24.250000
-7.625008 -3.172324 1.592004 33.666668
-7.405378 -3.190790 1.554400 39.000000
-7.319672 -3.181165 1.538500 29.000000
-7.153741 -3.216518 1.512000 22.000000
-6.651249 -3.142735 1.552657 37.250000
-6.097802 -3.153797 1.539899 28.714285
-6.884797 -3.104262 1.593994 37.000000
-6.620483 -3.026901 1.536446 62.000000
-6.025974 -3.106241 1.557188 32.000000
-4.798210 -3.087493 1.524901 6.000000
-8.523373 -2.949789 1.575757 47.500000
-8.332621 -3.016367 1.548221 41.000000
-8.078851 -2.953241 1.502786 36.000000
-7.607086 -2.984365 1.575221 37.500000
-7.405554 -2.986046 1.539257 29.500000
-7.329132 -2.955225 1.523357 58.500000
-6.702336 -2.988278 1.548837 21.000000
-8.643093 -2.885197 1.591935 48.500000
-8.473066 -2.828474 1.560612 37.000000
-7.531367 -2.913667 1.556671 30.000000
-6.786084 -2.923952 1.559576 50.000000
-7.730387 -2.755771 1.582035 20.000000
-7.023451 -2.700226 1.542159 41.333332
-6.910990 -2.723707 1.567836 46.000000
-8.484407 -2.585433 1.549598 17.799999
-8.413366 -2.575438 1.537206 36.000000
-6.880985 -2.538738 1.548011 19.000000
-5.091821 -2.604496 1.528516 8.000000
-6.690149 -2.468127 1.505057 27.000000
-8.486612 -2.337602 1.537895 37.000000
-6.525228 -2.384020 1.595692 2.000000
-8.485571 -2.262820 1.534315 28.600000
-8.413610 -2.260716 1.522062 31.000000
-7.136867 -2.269423 1.580640 34.000000
-7.018621 -2.195466 1.552141 30.000000
-6.439912 -2.137252 1.558531 4.000000
14.734139 -2.138955 1.539638 8.500000
-8.802657 -2.071128 1.579888 28.000000
-8.655584 -2.007849 1.552351 44.000000
-8.515885 -1.947268 1.526192 37.000000
-6.568578 -1.992552 1.544524 33.000000
-9.898138 -1.766679 1.575943 23.000000
-8.729839 -1.738057 1.555105 64.000000
-8.515638 -1.769711 1.519537 32.666668
-9.956583 -1.723381 1.583789 36.000000
-9.846377 -1.640653 1.564588 0.000000
-8.603767 -1.642943 1.530322 40.000000
-8.563805 -1.654660 1.523851 26.200001
-8.581639 -1.568834 1.524127 30.000000
-7.405785 -1.618784 1.507440 21.000000
-7.381228 -1.613437 1.594682 1.500000
-6.615716 -1.584614 1.562560 42.666668
-6.546399 -1.539060 1.544652 30.000000
-8.801847 -1.452365 1.558547 11.000000
-7.298696 -1.475978 1.571691 2.000000
-8.869164 -1.406350 1.568873 25.500000
-7.417236 -1.386724 1.592617 44.000000
-7.328015 -1.368205 1.573412 24.750000
