# This PCD file was generated using the MATLAB® pcwrite function
# from Computer Vision Toolbox®.
# .PCD v.7 - Point Cloud Data file format
VERSION .7
FIELDS x y z intensity
SIZE 4 4 4 4
TYPE F F F F
COUNT 1 1 1 1
WIDTH 1231
HEIGHT 1
VIEWPOINT 0 0 0 1 0 0 0
POINTS 1231
DATA ascii
-4.711394 -10.856186 0.192108 54.000000
-4.708533 -10.711214 0.189933 23.000000
-6.273507 -10.582612 0.199704 2.000000
-6.035040 -10.554854 0.197367 14.000000
-6.328787 -10.231194 0.195290 2.000000
-4.613695 -10.063320 0.179708 27.000000
-5.478014 -10.014095 0.185291 58.000000
-4.526658 -9.997510 0.178150 30.000000
-6.591911 -9.876686 0.192758 4.000000
-4.646233 -9.887218 0.177338 33.000000
-5.542186 -9.799901 0.182759 34.000000
-5.426438 -9.846217 0.182500 31.000000
-5.246913 -9.773127 0.180065 38.000000
-4.355745 -9.766475 0.173592 25.000000
-6.782279 -9.693298 0.192043 0.000000
-5.421247 -9.727905 0.180779 35.500000
-5.119012 -9.680399 0.177760 31.500000
-4.674975 -9.709738 0.174936 37.000000
-7.210323 -9.645256 0.195484 8.000000
-5.515248 -9.575832 0.179383 81.000000
-5.232787 -9.637597 0.178020 37.000000
-4.774334 -9.567451 0.173573 29.000000
-4.947262 -9.499528 0.173865 32.500000
-4.664393 -9.470892 0.171376 39.333332
-7.188322 -9.398635 0.192076 7.000000
-7.077070 -9.405242 0.191070 26.000000
-6.498541 -9.444743 0.186103 30.000000
-5.732996 -9.433025 0.179189 46.000000
-5.512751 -9.433944 0.177371 47.000000
-5.437980 -9.418734 0.176548 34.000000
-4.825216 -9.445453 0.172177 36.000000
-7.075191 -9.341515 0.190226 30.000000
-5.578207 -9.329246 0.176449 33.200001
-5.483530 -9.316622 0.175488 20.000000
-5.633040 -9.170715 0.174709 32.000000
-5.809989 -9.102363 0.175293 56.000000
-5.697939 -9.108752 0.174410 42.200001
-5.872613 -9.043033 0.175033 55.000000
-7.007514 -8.898569 0.183863 11.000000
-5.808725 -8.853078 0.171885 62.500000
-5.727119 -8.879938 0.171528 71.000000
-5.568323 -8.876669 0.170099 27.000000
-5.966475 -8.759655 0.172047 95.000000
-5.811854 -8.684446 0.169632 63.599998
-6.701034 -8.564599 0.176527 22.000000
-5.719355 -8.569331 0.167243 35.000000
-5.908379 -7.852082 0.159517 2.000000
-5.821420 -7.787319 0.157829 11.000000
-5.622852 -7.571177 0.153089 14.000000
-5.383990 -7.618294 0.151434 27.000000
-5.260463 -7.589012 0.149895 14.400000
-5.157495 -7.597610 0.149064 1.500000
-5.679471 -7.498718 0.152700 1.000000
-5.389416 -7.475551 0.149600 29.250000
-5.615708 -7.366336 0.150363 11.000000
-5.433103 -7.388141 0.148869 24.000000
-5.730162 -7.183222 0.149162 25.000000
-5.701058 -7.055313 0.147246 35.000000
-5.444324 -7.040048 0.144468 27.200001
-5.936726 -6.677301 0.145039 15.000000
-5.685945 -6.707004 0.142734 58.500000
-5.541915 -6.727719 0.141494 31.200001
-5.917672 -6.613909 0.144065 6.000000
-5.572084 -6.572716 0.139877 28.500000
-5.559807 -6.413880 0.137789 30.000000
-6.990599 -6.228396 0.151986 2.000000
-5.364295 -6.110348 0.131989 54.000000
-5.335800 -6.039514 0.130821 59.000000
-6.175385 -5.897203 0.138611 30.000000
-5.120891 -5.759695 0.125107 8.000000
-5.287152 -5.671813 0.125870 33.250000
-5.120602 -5.643391 0.123701 42.333332
-5.721000 -5.429026 0.128029 72.000000
-5.543578 -5.428672 0.125951 36.000000
-5.592540 -5.273829 0.124783 30.000000
-5.474617 -5.327551 0.124004 39.000000
-5.171062 -5.258438 0.119719 34.000000
-5.021529 -5.302699 0.118550 76.000000
-6.119846 -5.226967 0.130648 46.666668
-6.029345 -5.204499 0.129295 40.000000
-5.390406 -5.201796 0.121602 24.000000
-5.250939 -5.239903 0.120420 39.799999
-4.922280 -5.165292 0.115823 46.000000
-6.607025 -5.113860 0.135625 5.000000
-5.450896 -5.075955 0.120909 64.666664
-4.974539 -5.138605 0.116099 34.000000
-6.026473 -5.006830 0.127185 50.000000
-5.967759 -4.989820 0.126276 34.000000
-5.897115 -4.915168 0.124620 39.500000
-5.540197 -4.874041 0.119784 41.000000
-5.434643 -4.889764 0.146885 47.222221
-5.884644 -4.826825 0.123549 42.000000
-5.722089 -4.753706 0.185102 42.500000
-5.569048 -4.776941 0.182511 38.000000
-5.438018 -4.814536 0.117901 35.000000
-6.132473 -4.654799 0.124978 44.000000
-5.984435 -4.469009 0.121244 38.250000
-5.838146 -4.460373 0.119264 108.000000
-6.280992 -4.448886 0.124945 47.000000
-5.927628 -4.354275 0.119394 45.000000
-5.534333 -4.433798 0.156481 44.666668
-6.143734 -4.250953 0.121277 46.000000
-5.982321 -4.314530 0.190828 46.222221
-5.535280 -4.337207 0.174987 36.833332
-6.289393 -4.178662 0.122575 44.000000
-6.188802 -4.196351 0.121381 44.000000
-6.067906 -4.240891 0.120173 46.000000
-6.202816 -4.056051 0.162922 53.333332
-6.414667 -3.991241 0.122640 42.000000
-6.286432 -4.021912 0.121147 42.333332
-6.341092 -3.876864 0.120649 40.333332
-6.514936 -3.816080 0.122565 42.666664
-6.301736 -3.784925 0.119329 41.000000
-6.456235 -3.727508 0.121017 55.000000
-6.546350 -3.616762 0.121407 45.000000
-6.436852 -3.556315 0.119378 36.500000
-6.292950 -3.580716 0.117533 36.000000
-6.546466 -3.404972 0.119784 67.000000
-6.417240 -3.415081 0.118005 38.799999
-6.328057 -3.253640 0.177522 45.500000
-6.950149 -3.208477 0.124263 43.000000
-6.510548 -3.155737 0.117446 41.000000
-6.583330 -3.114707 0.118226 37.000000
-6.301733 -3.091190 0.113941 38.000000
-6.169382 -3.135389 0.132228 33.166668
-6.528075 -2.945518 0.136988 33.333336
-7.047228 -2.756104 0.122835 56.000000
-6.936883 -2.763327 0.121212 56.000000
-6.725028 -2.826940 0.118420 55.000000
-6.634267 -2.805290 0.116927 49.333332
-6.442979 -2.809486 0.181836 32.777779
-7.096874 -2.749847 0.123549 44.000000
-6.927401 -2.670111 0.138911 49.428570
-6.718031 -2.676185 0.179994 53.500000
-6.455639 -2.680322 0.186169 29.600000
-7.193130 -2.517599 0.123712 36.000000
-7.073602 -2.525728 0.121926 42.000000
-6.801199 -2.537472 0.189690 35.285713
-8.344465 -2.414820 0.141014 6.000000
-7.153609 -2.396961 0.122473 58.083336
-6.889666 -2.387041 0.181245 57.500000
-6.621478 -2.446733 0.114590 33.000000
-7.225033 -2.289141 0.123030 54.000000
-7.110745 -2.240612 0.185501 58.000000
-6.737489 -2.051231 0.138821 28.700001
-6.604222 -1.888918 0.111506 20.500000
-6.551964 -1.763056 0.110143 31.083332
-9.188468 -1.712935 0.151726 2.000000
-9.165919 -1.589821 0.151012 1.000000
-8.910554 -1.632178 0.147051 16.000000
-6.686969 -1.631349 0.111733 41.500000
-6.621036 -1.630821 0.110694 35.200001
-6.923708 -1.489733 0.114966 47.799999
-6.760983 -1.526133 0.112512 29.000000
-6.603669 -1.523359 0.110013 29.500000
-8.253922 -1.418277 0.135950 6.500000
-8.112926 -1.446693 0.133775 41.000000
-7.060503 -1.439048 0.116970 68.333336
-9.068659 -1.310044 0.148740 0.000000
-8.241198 -1.336135 0.135528 1.500000
-6.546352 -1.273710 0.108260 29.000000
-9.736252 -1.188424 0.159225 2.500000
-8.168233 -1.193060 0.134002 8.500000
-6.767062 -1.162658 0.187937 25.714285
-6.544415 -1.230621 0.108097 23.500000
-9.705465 -1.092072 0.158543 6.000000
-8.599650 -1.077241 0.140689 1.000000
-6.876060 -1.092761 0.113021 32.666664
-6.832175 -1.023520 0.112144 28.666666
-8.229508 -0.865024 0.134327 7.000000
-8.175324 -0.919899 0.133547 9.000000
-7.031699 -0.862188 0.115001 25.666666
-6.758320 -0.892495 0.161691 19.571428
-6.676949 -0.893282 0.109353 27.333334
-9.431688 -0.836850 0.153706 32.500000
-8.015068 -0.800060 0.130756 9.500000
-6.950691 -0.804224 0.194561 68.000000
-9.971059 -0.742726 0.162308 5.000000
-8.860160 -0.687975 0.144260 37.000000
-8.240050 -0.665873 0.134197 22.000000
-8.081430 -0.721071 0.131708 19.666666
-7.018122 -0.722546 0.155596 21.333334
-8.989628 -0.556130 0.146207 23.000000
-8.852141 -0.575544 0.144000 29.000000
-8.670729 -0.591113 0.141079 50.000000
-8.564450 -0.619959 0.139391 45.666668
-6.648147 -0.642485 0.108422 32.000000
-9.355423 -0.460829 0.152051 75.000000
-9.093958 -0.519585 0.147863 24.500000
-9.637674 -0.368517 0.156563 26.500000
-8.794728 -0.377833 0.142896 81.000000
-8.781512 -0.404910 0.142702 60.000000
-9.783709 -0.312540 0.158900 11.500000
-8.103148 -0.246345 0.131600 10.000000
-7.808705 -0.188113 0.126795 58.000000
-7.705294 -0.161404 0.125107 57.000000
-6.468411 -0.247358 0.105079 4.000000
-9.694487 -0.066002 0.157374 7.000000
-9.599902 -0.125590 0.155849 13.500000
-6.458524 -0.099575 0.132675 7.500000
-6.307011 -0.126482 0.149002 27.428572
-9.794656 0.010334 0.158997 1.500000
-8.340862 0.021872 0.135398 16.500000
-6.589233 0.000022 0.182949 25.000000
-6.457709 0.006910 0.161229 1.500000
-6.239093 -0.032669 0.101281 1.000000
-9.522357 0.084724 0.154583 49.500000
-9.217710 0.139976 0.149648 39.500000
-5.930416 0.052786 0.199124 13.500000
-9.732573 0.203859 0.158024 49.666668
-7.691679 0.225598 0.124913 11.000000
-7.538714 0.185543 0.122413 4.000000
-9.776462 0.286660 0.158770 11.500000
-9.547659 0.310137 0.155070 11.000000
-7.778874 0.252615 0.126341 26.000000
-8.640172 0.386046 0.140397 28.625000
-6.857487 0.362986 0.111473 4.000000
-8.612558 0.496596 0.140040 3.000000
-8.369790 0.535382 0.136144 7.000000
-7.470205 0.501407 0.121537 1.000000
-9.711821 0.605949 0.157959 10.500000
-8.595718 0.631229 0.139910 51.000000
-8.439895 0.566494 0.137313 33.000000
-8.326364 0.585157 0.135495 17.000000
-7.142665 0.637465 0.116408 8.000000
-7.084568 0.565033 0.115369 0.000000
-6.920015 0.628462 0.172888 26.500000
-9.547192 0.670954 0.155362 4.000000
-8.477785 0.702958 0.138092 13.000000
-7.815345 0.747026 0.127445 0.000000
-9.525914 0.778486 0.155151 11.750000
-7.990926 0.839879 0.130431 20.000000
-7.668466 0.769482 0.125107 6.500000
-6.409914 0.816649 0.160739 10.500000
-6.256604 0.797050 0.102384 31.000000
-8.418751 0.938363 0.137508 94.000000
-8.012104 0.867565 0.130821 11.000000
-10.199678 0.958732 0.166301 22.000000
-10.169186 1.004263 0.165879 11.000000
-9.273205 0.959966 0.151336 5.000000
-8.836946 1.013091 0.144390 60.000000
-7.420898 0.992797 0.121537 75.000000
-6.326631 0.957860 0.159595 6.000000
-6.265781 1.019296 0.103050 10.250000
-9.287519 1.049819 0.151726 13.500000
-8.570671 1.050835 0.140170 8.000000
-8.281562 1.134432 0.135690 38.000000
-6.210830 1.080582 0.102336 11.000000
-8.998404 1.175076 0.147311 10.000000
-8.452423 1.211990 0.138611 14.000000
-8.301721 1.163777 0.136079 29.000000
-8.901574 1.319258 0.146078 14.500000
-9.948919 1.426572 0.163153 3.000000
-8.980483 1.403150 0.147549 30.000000
-7.637392 1.390704 0.126016 9.000000
-7.492250 1.412869 0.123766 17.000000
-7.476683 1.501348 0.123793 33.000000
-7.280474 1.527608 0.120758 33.500000
-6.650850 1.450119 0.110500 25.000000
-6.520638 1.464707 0.108487 10.000000
-9.685150 1.638120 0.159452 15.000000
-9.630395 1.649500 0.158608 16.666666
-8.064609 1.626110 0.133547 100.000000
-7.316218 1.571133 0.121472 56.000000
-9.497300 1.713949 0.156660 0.500000
-8.979053 1.722593 0.148415 7.000000
-8.878952 1.660025 0.146629 3.000000
-8.780498 1.727443 0.145266 11.500000
-7.596156 1.731381 0.126471 1.000000
-7.444951 1.746197 0.124134 0.000000
-7.981761 1.766593 0.132703 10.000000
-7.341908 1.831879 0.122835 3.000000
-9.517556 2.137893 0.158348 8.000000
-9.150436 2.146215 0.152570 39.000000
-10.068539 2.211867 0.167340 6.000000
-9.245506 2.160875 0.154128 53.250000
-9.183427 2.214920 0.153349 1.000000
-8.735287 2.223326 0.146321 41.250000
-7.950665 2.194668 0.133892 26.166666
-9.250238 2.261806 0.154583 82.000000
-7.855087 2.264282 0.132703 3.000000
-10.100991 2.436224 0.168671 80.000000
-9.569176 2.371678 0.160036 27.000000
-8.122621 2.424627 0.137605 9.750000
-8.247294 2.461762 0.139715 36.000000
-11.315878 2.616639 0.188538 1.000000
-10.015665 2.627545 0.168087 27.000000
-9.948798 2.598885 0.166918 22.000000
-8.414800 2.598380 0.142961 66.000000
-8.303517 2.592617 0.141208 76.000000
-8.136245 2.577880 0.138547 23.000000
-7.712485 2.649601 0.132379 41.000000
-10.012603 2.716632 0.168411 21.666666
-8.382705 2.743080 0.143178 38.000000
-8.046415 2.736087 0.137962 72.000000
-7.778718 2.727118 0.133807 46.000000
-7.651227 2.655457 0.131470 25.000000
-8.262658 2.751698 0.141371 36.500000
-10.196961 2.904680 0.172112 3.000000
-10.068654 2.902358 0.170099 26.000000
-9.920527 2.910378 0.167827 8.500000
-8.243461 2.948338 0.142117 23.000000
-8.143350 2.883711 0.140235 36.000000
-9.912692 2.992713 0.168087 9.333333
-8.166517 3.007932 0.141273 94.000000
-7.945901 2.973955 0.137724 53.666668
-7.843269 2.987244 0.136242 42.000000
-9.750158 3.111672 0.166139 6.000000
-8.425305 3.053242 0.145472 46.000000
-8.063612 3.143885 0.140494 60.000000
-7.951869 3.100304 0.138547 35.000000
-7.803610 3.198949 0.136907 34.000000
-8.985476 3.341668 0.155621 39.000000
-8.202148 3.272346 0.143351 44.500000
-7.867758 3.297610 0.138482 38.000000
-9.576573 3.425137 0.165100 3.000000
-8.203715 3.529682 0.144974 39.000000
-8.137400 3.455850 0.143513 37.500000
-9.746487 3.555137 0.168411 5.000000
-8.317327 3.609576 0.147181 50.000000
-8.164136 3.727496 0.145688 83.000000
-8.070147 3.653991 0.143805 93.000000
-8.517643 3.760277 0.151142 53.333332
-8.404795 3.821235 0.149876 60.500000
-8.373252 3.934850 0.150184 62.750000
-8.490687 4.104559 0.153089 69.000000
-8.251449 4.088726 0.149490 38.888889
-8.813678 4.226593 0.158673 54.000000
-8.246305 4.212788 0.150319 39.666668
-8.298378 4.354978 0.152132 38.250000
-8.257650 4.483424 0.152531 40.400002
-8.117977 4.557331 0.151125 39.500000
-8.211258 4.695024 0.153544 39.000000
-9.721158 4.774977 0.175813 0.000000
-8.340734 4.838842 0.156530 104.000000
-8.276619 4.801816 0.155329 64.500000
-6.564900 4.795972 0.131978 12.833333
-6.557236 4.901870 0.132898 0.000000
-8.416628 5.025284 0.159127 99.000000
-8.245564 4.976085 0.156336 68.500000
-8.130602 4.976575 0.154745 42.500000
-8.033937 4.969612 0.153349 34.000000
-8.150368 5.130522 0.156336 50.000000
-7.984352 5.078762 0.153609 25.000000
-7.820080 5.148566 0.151986 37.000000
-8.761692 5.156911 0.165035 83.000000
-8.858979 5.251718 0.167178 70.000000
-8.235719 5.311603 0.159084 97.666664
-8.080577 5.283753 0.156725 37.000000
-7.811211 5.265230 0.152918 41.363636
-7.787018 5.393993 0.153771 30.500000
-9.225381 6.032321 0.178929 2.000000
-8.746253 6.119642 0.173281 41.000000
-9.126179 6.174242 0.178864 0.000000
-8.857701 6.280835 0.176267 51.000000
-8.258117 6.316103 0.168768 11.500000
-8.597249 6.447953 0.174449 14.000000
-8.392818 6.651916 0.173843 54.666668
-8.687447 6.797150 0.179059 98.000000
-8.580780 6.924904 0.178994 28.000000
-9.241196 7.022117 0.188408 21.000000
-9.110865 7.021325 0.186720 58.333332
-9.049781 7.034924 0.186070 76.000000
-8.410570 7.198555 0.179708 13.000000
-8.554357 7.605600 0.185811 1.000000
-9.178761 7.697486 0.194459 57.200001
-8.851736 7.673022 0.190161 19.000000
-9.152157 7.783588 0.195030 48.000000
-8.938601 7.847226 0.193082 11.000000
-8.632475 7.871485 0.189641 22.000000
-9.189247 8.016294 0.197951 7.000000
-9.033797 7.981188 0.195679 2.000000
-8.920935 8.083337 0.195419 64.000000
-3.009621 -17.460180 0.287611 13.000000
-2.932742 -17.339415 0.285468 18.000000
-2.867780 -17.285414 0.284429 23.000000
-3.118156 -17.124126 0.282547 19.000000
-2.758138 -17.066940 0.280642 24.333334
-2.565107 -17.122648 0.281053 6.000000
-4.055593 -17.049988 0.284494 3.000000
-2.981450 -16.977934 0.279820 21.000000
-2.584404 -16.889158 0.277353 17.000000
-4.055682 -16.815546 0.280794 12.000000
-3.933511 -16.770607 0.279625 8.000000
-3.143353 -16.812399 0.277645 31.000000
-2.998859 -16.767698 0.276509 26.000000
-2.623251 -16.790070 0.275860 29.000000
-3.320598 -16.739580 0.277028 32.000000
-4.122773 -16.634451 0.278197 5.000000
-3.300817 -16.639444 0.275373 32.500000
-3.194258 -16.650131 0.275210 33.000000
-3.568215 -16.365313 0.271899 4.000000
-3.356667 -16.381432 0.271445 25.000000
-3.403224 -16.347311 0.271055 36.000000
-3.349476 -15.839597 0.262810 43.000000
-3.660439 -15.606360 0.260213 13.000000
-3.342960 -15.567003 0.258460 25.000000
-3.502876 -15.480528 0.257649 27.500000
-3.432927 -15.510547 0.257876 27.000000
-3.370549 -15.458733 0.256837 19.000000
-3.816812 -15.399968 0.257551 16.000000
-3.590159 -15.379023 0.256361 17.000000
-3.736114 -15.279794 0.255344 15.000000
-3.670275 -15.217583 0.254110 13.000000
-4.116703 -13.951390 0.236126 34.000000
-5.347922 -13.845073 0.240931 11.000000
-3.519863 -13.783752 0.230933 24.500000
-5.609957 -13.624276 0.239178 0.000000
-4.080111 -13.590879 0.230348 33.500000
-3.888012 -13.568045 0.229115 34.000000
-3.817534 -13.563134 0.228725 29.000000
-3.579048 -13.613516 0.228498 33.500000
-4.339148 -13.523008 0.230543 44.500000
-4.204151 -13.465030 0.228985 30.333334
-4.131209 -13.529460 0.229634 32.000000
-3.940711 -13.511195 0.228465 23.000000
-3.742929 -13.542403 0.228076 39.500000
-3.650479 -13.538622 0.227621 29.000000
-5.034004 -13.280033 0.230543 11.000000
-4.386403 -13.309995 0.227492 26.000000
-4.889630 -13.022453 0.225804 26.000000
-4.314458 -12.954638 0.221648 30.000000
-4.241655 -13.008109 0.222103 52.000000
-4.302833 -12.785607 0.218987 28.000000
-4.936661 -12.661879 0.220610 1.000000
-4.269588 -12.556192 0.215286 38.000000
-4.598982 -12.486216 0.216000 18.000000
-4.607297 -12.154352 0.211001 7.000000
-4.409023 -12.206413 0.210676 54.000000
-4.219681 -12.220260 0.209865 37.500000
-4.428162 -12.139899 0.209768 55.000000
-4.745975 -11.950387 0.208729 26.000000
-4.571132 -11.945580 0.207625 16.000000
-4.200646 -11.803123 0.203373 33.000000
-4.845637 -11.663841 0.205028 38.000000
-4.677856 -11.671837 0.204119 94.000000
-4.344030 -11.680744 0.202301 4.000000
-4.100600 -11.696385 0.201198 31.000000
-4.937004 -11.574707 0.204271 33.666668
-4.821963 -11.504705 0.202496 27.000000
-4.717602 -11.457113 0.201133 30.000000
-4.528273 -11.507471 0.200743 37.000000
-4.641527 -11.442104 0.200440 25.666666
15.873076 -8.813054 0.294720 52.250000
13.305549 -8.001101 0.252033 56.000000
13.281210 -7.901511 0.250864 66.000000
13.328257 -7.760321 0.250361 63.500000
13.452131 -7.663593 0.251318 56.500000
13.580873 -7.633698 0.252898 30.000000
-5.292804 -7.173720 0.299323 31.000000
-5.294704 -7.082730 0.296907 27.000000
-5.158220 -7.084068 0.294222 26.000000
-5.495754 -6.978845 0.298249 31.000000
-5.393084 -6.982871 0.296236 33.000000
-5.405781 -6.886728 0.293954 28.500000
-5.352519 -6.709787 0.288182 34.000000
-5.251029 -6.456740 0.279431 39.200001
-5.346761 -6.408338 0.280218 34.000000
-6.217320 -6.282771 0.296773 22.000000
-5.787699 -6.267678 0.286437 33.000000
-5.420764 -6.313283 0.279390 42.500000
-6.071546 -6.213061 0.291672 50.000000
-5.810897 -6.175004 0.284692 35.000000
-5.724572 -6.199316 0.283317 32.500000
-5.232744 -5.960502 0.266303 76.000000
-5.384777 -5.942749 0.269256 57.000000
-5.214308 -5.864766 0.263485 68.000000
-6.067695 -5.830922 0.282545 13.000000
-5.521386 -5.793976 0.268720 35.000000
-5.467422 -5.773558 0.266975 34.000000
-5.943017 -5.747128 0.277578 30.000000
-5.696374 -5.684454 0.270196 30.000000
-5.543368 -5.732039 0.267735 38.000000
-5.110343 -5.723510 0.257624 27.333334
17.174192 -5.719752 0.293843 36.000000
-5.831558 -5.568865 0.270733 19.000000
-5.461091 -5.630713 0.290638 35.200001
17.145441 -5.605676 0.292821 58.250000
-5.672808 -5.520419 0.265767 46.000000
-5.543032 -5.473854 0.261561 29.000000
17.198990 -5.488898 0.293064 52.000000
-5.700873 -5.392993 0.263485 42.000000
-5.564036 -5.448707 0.261471 35.000000
17.258102 -5.448082 0.293778 35.000000
-6.069305 -5.272249 0.269928 25.000000
-6.703963 -5.172104 0.284290 1.500000
-6.763508 -5.133781 0.285095 33.000000
-5.837685 -5.038954 0.258921 29.000000
-6.466794 -4.876621 0.271941 39.000000
-5.650692 -4.908644 0.251315 52.000000
-5.290587 -4.942268 0.243082 36.500000
-6.405298 -4.798751 0.268720 39.000000
-5.859606 -4.760506 0.253485 72.500000
-5.268257 -4.787091 0.211445 49.111111
-5.709242 -4.670723 0.221921 54.000000
-5.594085 -4.677381 0.244827 38.000000
-6.165308 -4.558760 0.257445 67.000000
-6.051080 -4.474475 0.252680 60.500000
-6.329944 -4.263175 0.256237 35.000000
-6.454337 -4.172329 0.258049 43.666668
-5.562429 -4.249725 0.235029 29.000000
-6.701443 -4.068136 0.263216 25.000000
-6.615754 -4.058879 0.260599 49.000000
-6.140395 -3.820492 0.242814 52.500000
-5.995178 -3.613671 0.235029 108.000000
-5.901538 -3.531910 0.230922 36.000000
-6.914247 -3.351414 0.257981 50.000000
-5.979291 -3.439688 0.231606 43.250000
-5.850165 -3.439133 0.227848 43.500000
-6.031361 -3.258436 0.230170 38.000000
-5.831866 -3.257898 0.224291 40.500000
-6.192519 -3.220876 0.234358 48.000000
-6.037830 -3.188774 0.229257 46.000000
-5.776046 -3.226800 0.222143 39.000000
-6.719636 -3.050991 0.247780 44.000000
-6.714607 -3.023302 0.247243 56.000000
-6.593649 -2.667677 0.221144 36.285713
-6.680037 -2.588334 0.240532 26.000000
-7.973130 -2.471146 0.280263 11.000000
-8.090414 -2.368714 0.283048 13.250000
-6.713221 -2.393153 0.218708 33.166668
-7.628430 -2.285737 0.267377 36.000000
-6.685558 -2.281160 0.237177 36.000000
-6.950588 -2.178180 0.244559 52.000000
-6.618820 -2.200504 0.234190 41.500000
-6.639072 -2.112631 0.233928 35.599998
-7.150343 -1.996410 0.249257 74.000000
-7.068472 -2.021512 0.246841 85.000000
-6.732516 -1.976962 0.205298 16.000000
-7.036301 -1.877324 0.244514 35.000000
-6.945923 -1.882211 0.241625 32.857143
-6.985459 -1.809164 0.242277 40.000000
-6.923910 -1.723802 0.239570 47.000000
-8.672402 -1.644940 0.296370 2.000000
-8.426006 -1.570795 0.287780 15.000000
-7.300692 -1.551812 0.250599 48.000000
-7.191732 -1.564062 0.247109 46.500000
-7.029160 -1.633036 0.242296 46.285713
-8.195700 -1.474641 0.279592 0.000000
-8.163501 -1.495338 0.278652 10.000000
-7.318587 -1.473567 0.250659 49.750000
-8.545671 -1.371830 0.290598 19.000000
-8.441757 -1.436910 0.287511 0.000000
-8.692450 -1.339447 0.295296 11.000000
-14.543952 -1.175310 0.236862 8.666667
-8.569563 -1.155605 0.290330 4.000000
-7.436544 -1.193803 0.252881 62.000000
-8.369445 -1.128625 0.283551 18.000000
-8.195997 -1.052839 0.277444 35.000000
-14.564271 -0.992895 0.236970 1.000000
-8.101881 -0.989159 0.274044 30.666666
-7.206165 -1.018285 0.244358 47.500000
-7.083452 -1.015770 0.240264 30.500000
-14.306711 -0.885107 0.232685 4.000000
-14.237777 -0.761115 0.231452 7.000000
-8.693187 -0.812565 0.293149 4.000000
-8.631992 -0.779495 0.291001 1.000000
-7.480175 -0.770236 0.252478 6.500000
-6.908486 -0.777352 0.233418 34.000000
-8.750529 -0.707124 0.294759 10.000000
-8.417614 -0.706848 0.283619 14.000000
-7.636101 -0.737962 0.257579 6.000000
-7.261479 -0.747839 0.245096 5.000000
-6.815516 -0.745217 0.230197 27.000000
-6.201636 -0.658384 0.209392 17.000000
-8.465346 -0.550396 0.284827 68.000000
-8.113555 -0.595880 0.273149 36.333332
-7.999077 -0.570601 0.269256 52.000000
-7.050308 -0.625524 0.237646 26.000000
-6.193695 -0.618222 0.208989 15.666667
-8.700336 -0.529151 0.292656 33.333332
-14.796564 -0.402964 0.240281 8.000000
-14.767241 -0.448601 0.239827 6.000000
-8.390353 -0.386874 0.282008 15.000000
-8.281269 -0.434003 0.278428 16.666666
-5.690965 -0.378914 0.290629 21.000000
-5.595853 -0.434541 0.285998 8.000000
-8.717938 -0.326610 0.292914 72.500000
-5.832742 -0.324017 0.297668 11.666667
-8.335190 -0.227021 0.279961 32.750000
-6.846155 -0.164925 0.229928 12.000000
-8.030202 -0.142971 0.269659 51.000000
-7.673009 -0.100448 0.257646 44.000000
-8.674957 0.049997 0.291269 41.000000
-8.158647 0.111076 0.273954 8.000000
-7.862465 0.131749 0.264022 33.000000
-6.594978 0.131234 0.221472 27.000000
-6.151670 0.103082 0.206573 0.000000
-8.553875 0.237346 0.287310 57.500000
-5.663876 0.154252 0.288712 19.666666
-8.710670 0.343240 0.292692 28.400000
-8.598619 0.279236 0.288853 21.000000
-7.769984 0.386812 0.261203 20.500000
-8.825247 0.474017 0.296739 25.500000
-7.983177 0.510652 0.268585 2.000000
-7.375968 0.495211 0.216356 14.000000
-8.597261 0.613258 0.289390 61.333332
-6.570169 0.586371 0.221472 13.000000
-8.890743 0.709085 0.299457 12.000000
-6.989540 0.734630 0.235968 0.000000
-5.916090 0.819854 0.200533 12.000000
-8.688711 0.954457 0.293484 31.000000
-8.337593 0.982393 0.281874 5.000000
-7.313040 1.048614 0.248049 8.000000
-8.293606 1.076491 0.280800 29.250000
-8.412654 1.152389 0.285095 36.000000
-8.286262 1.161610 0.280934 10.000000
-8.042629 1.204791 0.273048 16.125000
-8.016481 1.329995 0.272836 26.000000
-8.046903 1.413103 0.274312 34.333332
-8.032386 1.495227 0.274323 38.750000
-7.839681 1.529559 0.268183 46.000000
-8.123146 1.651252 0.278317 30.000000
-8.413427 1.834296 0.289122 27.333334
-8.475903 1.903911 0.291672 63.000000
-8.290582 1.889660 0.285498 33.000000
-8.156070 1.885977 0.281068 35.000000
-8.237970 2.041745 0.284961 35.000000
-8.166217 1.956056 0.281941 34.500000
-8.127389 2.116702 0.281987 29.923077
-8.303031 2.492599 0.291068 31.500000
-8.488110 2.591834 0.297981 36.000000
-8.399709 2.593720 0.295162 43.000000
-7.478769 2.575136 0.265573 33.000000
-8.378700 2.673984 0.295296 17.000000
-8.240900 2.658560 0.290733 58.000000
-8.145088 2.655934 0.287645 67.000000
-7.600949 2.691637 0.270733 63.000000
-8.115684 2.902638 0.289390 40.000000
-7.986205 2.884662 0.285095 23.000000
-8.073584 2.964029 0.288764 40.000000
-7.973232 3.026249 0.286341 44.285713
-8.197845 3.107522 0.294357 72.000000
-7.842595 3.100404 0.283149 30.000000
-7.647426 3.140875 0.277578 39.714287
-8.008295 3.778610 0.297310 38.000000
-6.567980 4.798234 0.273104 31.166666
-10.309371 7.213336 0.204249 0.000000
-9.734719 7.950781 0.204033 18.333334
-9.876324 8.161688 0.207982 17.000000
-9.157372 8.258409 0.200175 34.000000
-9.067670 8.373265 0.200354 16.000000
-10.239627 8.653158 0.217623 2.000000
-9.339134 8.733294 0.207560 36.000000
-9.425119 8.758364 0.208859 87.000000
-8.761428 8.946879 0.203275 19.000000
-10.102539 9.039238 0.220058 4.500000
-8.873712 9.004768 0.205223 12.000000
-10.003741 9.121868 0.219766 6.000000
-9.570328 9.091496 0.214280 80.000000
-9.061078 9.061075 0.208015 24.666666
-10.704638 9.162034 0.228725 2.000000
-9.783498 9.206612 0.218078 72.000000
-9.364811 9.209200 0.213208 66.000000
-10.845502 9.341786 0.232361 23.000000
-9.600841 9.264950 0.216584 71.000000
-8.936457 9.299423 0.209362 9.000000
-10.207831 9.366874 0.224895 17.000000
-10.131343 9.355482 0.223856 20.000000
-9.625390 9.406155 0.218467 55.000000
-9.529142 9.429875 0.217623 70.000000
-10.875597 9.517560 0.234601 16.000000
-9.855058 9.450665 0.221648 62.000000
-9.738103 9.456669 0.220350 61.000000
-9.249298 9.504622 0.215286 20.000000
-8.989804 9.493144 0.212235 64.333336
-9.549677 9.630020 0.220155 3.000000
-11.753841 9.713284 0.247520 15.500000
-9.090387 9.700613 0.215805 17.000000
-9.045923 9.744796 0.215838 13.000000
-11.332881 9.823773 0.243463 3.000000
-8.823315 9.871832 0.214929 7.500000
-9.194392 10.062088 0.221259 38.000000
-8.667438 10.169807 0.216909 13.000000
-9.917276 10.352353 0.232718 14.500000
-9.602249 10.442372 0.230283 31.000000
-8.945454 10.363413 0.222233 66.000000
-10.367167 10.520282 0.239762 4.000000
-9.484653 10.511620 0.229829 42.000000
-9.186106 10.474741 0.226161 44.500000
-8.988365 10.479501 0.224116 83.000000
-9.592914 10.564674 0.231647 43.000000
-9.442304 10.642511 0.230954 49.666668
-10.574768 10.663734 0.243787 20.000000
-10.103143 10.713699 0.239048 5.000000
-10.856945 10.811563 0.248722 7.000000
-10.024724 10.765261 0.238788 19.000000
-10.565845 10.857511 0.245930 11.000000
-9.739939 10.862963 0.236841 17.000000
-10.215347 10.970201 0.243333 4.000000
-9.562863 11.008573 0.236711 44.000000
-10.726305 11.091902 0.250474 2.000000
-9.336254 11.137671 0.235919 29.799999
-9.404976 11.248230 0.238009 53.000000
-9.209632 11.210079 0.235510 30.250000
-9.191898 11.351054 0.237100 52.000000
-9.243947 11.488936 0.239373 73.000000
-8.816310 11.615065 0.236711 1.000000
-8.732156 11.630133 0.236083 39.666668
-9.344172 11.726325 0.243398 37.500000
-8.691004 11.702457 0.236624 31.666666
-9.174068 11.814337 0.242814 39.500000
-9.420193 11.936595 0.246839 60.000000
-9.320947 11.887450 0.245216 37.000000
-10.493799 12.312741 0.262615 4.000000
-9.425486 12.256937 0.250994 34.000000
-10.240543 12.405112 0.261122 1.000000
-9.508083 12.485802 0.254759 29.000000
-9.468483 12.555982 0.255279 23.000000
-9.644214 13.085924 0.263881 19.500000
-9.591022 13.259231 0.265645 22.666666
-9.732495 13.425169 0.269172 3.000000
-9.557195 13.359197 0.266640 24.000000
-10.015615 14.093331 0.280664 148.000000
-9.962059 14.111659 0.280404 83.000000
-10.425320 14.286205 0.287091 5.000000
-10.220790 14.575129 0.288974 48.000000
-10.052855 14.705937 0.289169 26.000000
-10.187707 15.333723 0.298842 40.000000
-10.104314 15.417503 0.299232 26.000000
-6.516977 16.819183 0.292805 0.000000
-6.297211 16.798061 0.291214 84.500000
-5.200169 16.778307 0.285144 1.000000
-5.148608 16.798384 0.285208 1.000000
-4.113415 17.212997 0.287286 0.000000
-1.494969 -24.583342 0.399798 36.000000
-1.418190 -24.595901 0.399928 42.000000
-0.720407 -24.562201 0.398889 9.000000
-2.689578 -24.479416 0.399766 8.500000
-1.725187 -24.548210 0.399474 24.000000
-0.603595 -24.523310 0.398208 3.000000
-0.488092 -24.527912 0.398240 3.000000
-2.949691 -24.374937 0.398565 4.000000
-3.022803 -24.337769 0.398110 1.000000
-1.931583 -20.548670 0.335037 19.000000
-1.679570 -20.255810 0.329941 16.000000
-1.762534 -20.227325 0.329594 34.333332
-2.241351 -20.108807 0.328447 33.000000
-2.581128 -19.765556 0.323578 8.000000
-2.637378 -19.713743 0.322864 25.000000
-2.826881 -19.283327 0.316372 3.000000
-3.143510 -18.585546 0.305984 4.000000
-2.951206 -18.507711 0.304231 5.000000
-2.635998 -18.487499 0.303144 14.750000
-3.179465 -18.445518 0.303842 8.000000
-3.327370 -18.273081 0.301504 1.000000
-2.803401 -18.320309 0.300855 2.000000
-2.744646 -18.321114 0.300725 12.000000
-2.511493 -18.334347 0.300401 9.000000
16.365137 -11.527235 0.324942 31.000000
16.359436 -11.370161 0.323405 59.666668
16.486851 -11.267586 0.324163 38.500000
16.973391 -10.946989 0.327863 1.000000
17.499674 -10.749040 0.333382 5.000000
-4.442985 -10.326419 0.377442 29.000000
-4.334423 -10.251031 0.373684 13.000000
-4.775321 -10.203491 0.378248 21.000000
-4.385346 -10.192308 0.372543 27.000000
-5.538305 -10.011793 0.384153 23.500000
-4.945322 -9.988536 0.374221 32.000000
-4.796944 -10.003030 0.372476 33.000000
-4.398443 -10.005741 0.366973 28.000000
-5.567637 -9.880967 0.380798 48.000000
-5.421929 -9.911571 0.379321 34.000000
-4.969945 -9.920431 0.372543 31.500000
-4.802247 -9.933922 0.370462 27.000000
-4.503165 -9.890195 0.364870 31.000000
-4.419551 -9.926473 0.364825 26.000000
-4.434013 -9.792895 0.360932 34.000000
-6.495857 -9.732767 0.392878 1.000000
-5.112437 -9.741782 0.369389 45.000000
-4.956706 -9.703075 0.365832 32.500000
-4.750669 -9.710047 0.362946 43.000000
-4.570227 -9.685886 0.359590 35.000000
19.503605 -9.732638 0.353833 24.000000
-5.693870 -9.604837 0.374892 22.000000
-5.446901 -9.561096 0.369456 30.500000
-5.283022 -9.586250 0.367509 52.000000
-4.963489 -9.641191 0.364087 34.500000
-4.552549 -9.570397 0.355832 28.000000
19.484116 -9.570527 0.352383 55.000000
-6.451623 -9.450618 0.384198 23.333334
-5.600805 -9.515874 0.370731 14.000000
-5.064933 -9.469840 0.360575 29.333334
19.584755 -9.467640 0.353118 41.000000
-6.573167 -9.425938 0.385831 15.000000
-5.498546 -9.443699 0.366906 34.000000
-5.401134 -9.377703 0.363349 33.000000
-5.565487 -9.288081 0.363550 33.000000
-6.596296 -9.240843 0.381201 6.000000
-5.961932 -9.055494 0.364020 44.000000
-5.799648 -9.117664 0.362812 45.000000
-5.747490 -9.098660 0.361335 41.000000
-5.525270 -9.123307 0.358114 19.000000
-5.548596 -8.954172 0.353684 31.000000
-5.828960 -8.853400 0.355899 53.000000
-5.711828 -8.917612 0.355563 56.000000
-5.467404 -8.901055 0.350731 29.000000
-5.687813 -8.818994 0.352342 67.000000
-5.681285 -8.668844 0.348002 46.666668
-5.797381 -8.607914 0.348449 37.333332
-5.774333 -8.420583 0.342812 127.000000
-5.634957 -8.162239 0.333014 2.000000
-5.558806 -8.161138 0.331537 10.000000
-5.815795 -8.093536 0.334624 3.000000
-5.592124 -8.046014 0.328987 9.000000
-5.548619 -7.930139 0.324960 16.000000
17.717539 -7.777483 0.314099 54.333332
17.776749 -7.681597 0.314359 35.000000
-5.272614 -7.445820 0.306330 25.000000
-5.320664 -7.291183 0.303059 24.500000
-5.549269 -7.200508 0.305229 26.000000
-5.427999 -7.190086 0.302477 27.000000
-6.847859 -6.963569 0.327913 1.000000
-5.986561 -4.663788 0.386691 40.000000
18.735458 -4.706022 0.313580 5.000000
-5.928162 -4.558710 0.381059 34.000000
-5.425616 -4.604506 0.362603 46.666668
-5.865403 -4.452184 0.375224 42.000000
-5.374944 -4.501380 0.357243 21.750000
-5.547410 -4.377939 0.360092 55.000000
-6.165620 -4.305527 0.301346 39.875000
-5.807811 -4.308711 0.368489 49.750000
-5.393963 -4.298182 0.351441 47.000000
-5.305673 -4.324245 0.348775 39.000000
-6.298396 -4.177647 0.318956 42.000000
-6.178319 -4.189334 0.351363 44.888889
-5.793730 -4.181858 0.364096 46.666668
-5.775075 -4.145249 0.362230 45.000000
-6.432552 -4.030443 0.320826 42.500000
-6.270872 -3.888105 0.375970 56.000000
-6.124571 -3.850879 0.368642 71.000000
-6.150386 -3.786704 0.368031 40.000000
-6.048315 -3.829497 0.364774 64.000000
-5.864415 -3.777818 0.355462 38.500000
-6.048743 -3.684941 0.360907 43.500000
-6.797351 -3.546986 0.390684 42.428570
-6.640512 -3.533797 0.383298 38.000000
-6.402360 -3.537210 0.372713 50.000000
-6.282742 -3.509842 0.366708 39.500000
-6.133998 -3.503030 0.359940 43.250000
-6.001616 -3.545901 0.355207 42.799999
-5.919832 -3.542946 0.351543 46.000000
-6.735564 -3.402361 0.311524 43.666668
-8.893847 -3.254684 0.317980 6.000000
-8.762565 -3.332086 0.314759 0.000000
-6.826001 -3.283472 0.327453 39.722221
-6.154193 -3.312246 0.356123 86.000000
-6.077182 -3.332675 0.353171 96.000000
-6.895660 -3.152012 0.333690 43.599998
-5.919203 -3.221895 0.343401 44.000000
-8.408772 -3.137221 0.301336 3.000000
-6.786059 -3.145685 0.359357 45.500000
-6.892832 -2.999961 0.383054 43.000000
-7.180646 -2.869116 0.394019 40.666668
-7.026273 -2.867327 0.386691 33.000000
-6.760149 -2.841682 0.373663 40.333332
-6.583422 -2.718871 0.362942 42.000000
-7.196757 -2.582484 0.389608 41.000000
-6.873438 -2.638464 0.375156 55.000000
-7.031679 -2.498337 0.380245 50.000000
-6.642430 -2.484179 0.361365 21.500000
-6.788137 -2.363959 0.366267 41.666668
-6.843232 -2.334960 0.368438 53.000000
-6.742833 -2.253454 0.362264 30.666666
-6.841659 -2.238842 0.366810 46.000000
-6.662429 -2.157045 0.356836 26.000000
-6.599047 -2.052591 0.352154 32.166668
-7.168188 -2.001392 0.379227 21.000000
-7.012660 -1.993607 0.371492 35.000000
-6.950116 -2.023169 0.368845 36.000000
-6.749006 -1.999145 0.358668 39.000000
-6.579565 -1.994007 0.350322 31.000000
-6.909524 -1.882405 0.364910 48.666668
-9.614527 -1.761127 0.328181 0.000000
-7.176237 -1.774600 0.376682 46.500000
-7.080649 -1.786420 0.372102 46.000000
-6.836578 -1.770537 0.359855 38.166664
-7.011828 -1.664008 0.367217 45.000000
-7.193447 -1.623752 0.375766 51.000000
-6.933225 -1.626145 0.362874 34.000000
-6.923431 -1.471626 0.360674 49.428570
-7.002325 -1.259919 0.362535 78.000000
-6.934488 -1.335674 0.359848 40.599998
-6.848725 -1.187906 0.354189 1.000000
-7.643095 -1.128636 0.393679 14.000000
-6.817431 -1.085157 0.351764 33.666668
-7.486978 -0.842445 0.383909 20.000000
-6.671141 -0.835665 0.342587 16.000000
-6.508082 -0.753012 0.333834 16.000000
-9.307096 -0.663875 0.313282 0.000000
-7.188529 -0.687072 0.367963 15.000000
-7.110257 -0.720999 0.364164 29.000000
-6.947892 -0.737609 0.356021 23.000000
-9.754669 -0.480495 0.327913 9.000000
-5.427100 -0.484861 0.372607 5.250000
-9.509865 -0.408556 0.319591 22.000000
-7.729223 -0.404977 0.394392 19.500000
-7.734821 -0.332298 0.394494 26.000000
-7.034141 -0.257931 0.358668 11.000000
-5.947511 -0.283589 0.303402 5.500000
-6.209889 -0.159357 0.316531 19.000000
-9.226477 -0.077297 0.309793 31.000000
-9.690535 0.010147 0.325363 1.000000
-9.426667 -0.019742 0.316504 31.000000
-9.034785 -0.047308 0.303350 62.000000
-7.655326 -0.032064 0.390083 36.000000
-6.543502 -0.003457 0.333426 19.500000
-6.191829 0.094033 0.315547 20.333332
-9.516110 0.219275 0.319591 22.000000
-7.190875 0.233520 0.366606 19.000000
-5.496636 0.222692 0.376188 9.500000
-5.463733 0.195570 0.373869 0.000000
-7.254397 0.281154 0.369931 50.666668
-6.701838 0.270370 0.341772 55.000000
-7.298045 0.351827 0.372306 6.000000
-9.338424 0.479598 0.313954 8.000000
-8.958393 0.544782 0.301336 49.000000
-7.734863 0.543588 0.395104 32.000000
-9.415442 0.602269 0.316772 29.000000
-7.824751 0.574613 0.399786 35.000000
-7.371906 0.576286 0.376784 5.000000
-6.908535 0.649394 0.353579 15.000000
-9.068314 0.694586 0.305363 41.000000
-7.151886 0.706288 0.366199 11.000000
-6.354563 0.688083 0.325691 15.000000
-10.313421 0.822552 0.347376 11.000000
-9.383988 0.807792 0.316235 19.000000
-9.125863 0.776027 0.307511 39.000000
-9.080170 0.839147 0.306168 5.000000
-6.818435 0.781684 0.349711 27.000000
-9.008102 0.918213 0.304021 21.000000
-9.189880 1.024314 0.310464 20.000000
-6.308771 1.026317 0.325691 26.000000
-9.196701 1.318712 0.311940 4.000000
-7.556923 1.498908 0.303184 28.000000
-7.516505 1.630634 0.391915 9.333333
-10.438172 1.664451 0.354892 8.000000
-8.790526 1.887736 0.301873 17.000000
-8.776741 1.913638 0.301605 16.000000
-11.190638 2.439953 0.384556 2.000000
-11.155073 2.377215 0.382945 12.000000
-8.721970 2.469678 0.304356 5.500000
-8.865414 2.585712 0.310061 25.000000
-8.759045 2.564747 0.306437 38.333332
-9.989031 2.710213 0.347510 21.000000
-9.914931 2.723582 0.345228 39.000000
-8.715886 2.721371 0.306571 15.000000
-8.547175 2.698196 0.300934 22.000000
-10.067818 2.833786 0.351168 19.250000
-10.169494 2.896856 0.355027 15.000000
-8.690313 2.879128 0.307376 24.000000
-9.952500 3.038984 0.349389 5.000000
-9.899536 3.296978 0.350329 1.000000
-9.752728 3.282156 0.345497 2.000000
-9.638845 3.498783 0.344288 3.000000
-8.435848 3.535712 0.307108 34.000000
-8.389126 3.609472 0.306638 46.000000
-9.938222 3.749489 0.356637 4.000000
-9.105946 3.682741 0.329792 5.000000
-8.703966 3.712556 0.317712 45.000000
-8.548412 3.709779 0.312880 52.500000
-8.259680 3.739741 0.304424 52.333332
-8.432754 3.754504 0.309927 59.000000
-8.132065 3.759272 0.300799 49.500000
-8.150216 3.908430 0.303484 45.000000
-8.303462 4.014051 0.309658 35.000000
-9.870090 4.136846 0.359322 1.000000
-8.384951 4.102407 0.313417 35.000000
-8.498138 4.207425 0.318383 32.000000
-8.440652 4.228667 0.316974 37.000000
-8.197311 4.252711 0.310061 8.000000
-8.643962 4.415728 0.325900 59.000000
-8.561953 4.374043 0.322812 61.500000
-8.396479 4.389574 0.318115 15.000000
-8.093515 4.543699 0.311638 44.500000
-8.679029 4.641916 0.330463 38.500000
-7.777988 4.643974 0.304155 19.000000
-8.590588 4.673130 0.328349 39.500000
-8.100992 4.666030 0.313886 90.000000
-7.951608 4.680302 0.309793 110.333336
-8.355752 4.812535 0.323752 61.000000
-7.943387 4.810920 0.311806 75.333336
-7.592993 4.829823 0.302142 45.000000
-7.938675 4.910685 0.313417 10.000000
-7.770498 4.881163 0.308101 30.400000
-7.572688 4.861578 0.302142 45.666668
-9.602565 4.981747 0.363214 24.000000
-7.715729 5.045185 0.309524 35.000000
-9.778177 5.111908 0.370462 12.000000
-7.749925 5.102377 0.311537 63.000000
-8.951895 5.344874 0.350060 8.000000
-7.976381 5.280164 0.321175 54.000000
-7.859079 5.299020 0.318249 26.500000
-8.890825 5.403614 0.349322 55.500000
-7.892107 5.399814 0.321067 26.000000
-7.811701 5.422057 0.319269 23.200001
-8.965777 5.507161 0.353282 45.000000
-7.823353 5.547428 0.322007 66.599998
-9.159225 5.665689 0.361604 11.000000
-9.412840 5.863533 0.372342 18.000000
-9.341971 6.045960 0.373617 9.000000
-9.020204 6.143945 0.366436 0.000000
-8.873502 6.208676 0.363617 13.000000
-9.007154 6.386866 0.370731 3.000000
-9.188051 7.004487 0.387912 38.000000
-9.121596 6.999249 0.386033 54.000000
-9.007821 7.070596 0.384489 57.666668
-8.952578 7.210968 0.385966 47.500000
-9.003822 7.322425 0.389657 19.000000
-8.514824 7.618480 0.383617 24.000000
-9.039282 7.699842 0.398683 19.250000
-10.363499 15.439934 0.301861 34.500000
-10.484399 15.462125 0.303257 29.000000
-10.158289 16.044008 0.308256 14.000000
-10.377733 16.164972 0.311827 157.000000
-10.517484 16.270004 0.314489 86.000000
-10.252460 16.343922 0.313190 25.666666
-10.238459 16.512936 0.315398 29.000000
-10.801992 16.595543 0.321436 76.000000
-10.593505 16.615673 0.319878 90.000000
-11.640054 16.822914 0.332083 0.000000
-10.108603 16.770456 0.317865 9.000000
-10.394116 16.882191 0.321825 24.000000
-10.254630 16.892464 0.320787 77.000000
-11.375249 17.238377 0.335264 5.000000
-10.762645 17.237217 0.329876 4.000000
-10.499578 17.174095 0.326759 74.000000
-10.996967 17.368618 0.333706 20.000000
-10.639222 17.650768 0.334550 23.000000
-10.450044 17.712360 0.333836 22.000000
-6.462327 17.745422 0.306568 1.500000
-6.371874 17.756882 0.306244 2.000000
-10.648297 17.876873 0.337775 12.666667
-10.503589 18.017853 0.338554 28.000000
-4.226936 18.192951 0.303192 0.000000
-10.616605 18.388491 0.344678 15.000000
-10.550823 18.407877 0.344419 19.000000
-10.933729 18.532187 0.349288 3.000000
-4.569616 18.859741 0.315008 2.000000
12.263419 19.212704 0.369998 5.000000
12.038760 19.326036 0.369609 5.000000
12.192491 19.368942 0.371524 7.000000
-11.084064 19.622978 0.365843 94.000000
-10.571561 19.568018 0.361039 10.000000
-10.602646 19.773842 0.364220 10.000000
10.008326 19.821644 0.360455 76.500000
-10.843307 19.921120 0.368181 67.000000
9.796812 19.944889 0.360714 68.000000
9.872871 19.862663 0.360065 77.500000
10.147093 19.863338 0.362078 29.000000
-10.688897 20.085979 0.369349 29.000000
9.770897 20.051067 0.362078 3.000000
-10.758358 20.370554 0.373959 36.000000
8.567911 20.442154 0.359805 73.000000
8.668844 20.412563 0.360000 70.000000
8.796547 20.444996 0.361299 67.000000
8.905315 20.519987 0.363117 25.000000
8.499699 20.550673 0.361007 44.000000
8.438340 20.677521 0.362532 0.000000
-10.896678 20.790379 0.381035 36.000000
-10.828985 20.900036 0.382107 34.000000
-10.710675 21.075411 0.383762 31.000000
-10.651609 21.123241 0.384022 22.000000
-10.561935 21.110102 0.383178 21.000000
-10.842463 21.169811 0.386099 12.000000
-10.796632 21.922340 0.396682 35.000000
-10.715422 21.930994 0.396228 22.000000
-10.906357 21.970703 0.398175 30.000000
0.500084 -28.087849 0.456022 3.000000
0.316128 -27.442562 0.445504 5.000000
0.568640 -27.146465 0.440765 2.000000
-0.153491 -26.662012 0.432812 9.500000
-0.027827 -26.572485 0.431351 25.000000
0.054791 -26.160496 0.424664 15.000000
0.219726 -26.227623 0.425768 16.000000
0.299220 -25.974855 0.421677 13.000000
-0.597020 -25.909708 0.420704 33.000000
-0.461205 -25.899120 0.420487 34.333332
-0.311719 -25.882681 0.420184 42.500000
0.379591 -25.889807 0.420314 23.000000
-0.675065 -25.779766 0.418626 36.000000
-0.754411 -25.721550 0.417717 9.000000
12.643194 -25.671740 0.464527 1.000000
-0.026801 -25.592615 0.415445 3.000000
12.729118 -25.642643 0.464722 53.000000
-0.829633 -25.547165 0.414925 26.000000
-0.147075 -25.532181 0.414471 15.000000
12.766666 -25.516684 0.463164 7.000000
12.771134 -25.326460 0.460437 26.000000
12.877811 -25.339697 0.461411 13.000000
-2.012753 -25.236526 0.410965 30.000000
-1.847702 -25.160923 0.409537 29.000000
12.917247 -25.220800 0.459982 7.000000
12.952393 -25.094799 0.458424 19.000000
-2.548137 -24.999161 0.407914 23.000000
-2.387972 -24.982824 0.407394 5.000000
-2.310946 -25.006136 0.407654 18.000000
-1.913605 -24.983521 0.406745 44.000000
-1.361155 -24.971636 0.405966 42.000000
-1.049097 -25.030725 0.406680 37.000000
-0.970454 -25.033897 0.406680 33.000000
-2.460945 -24.919479 0.406485 12.000000
-1.122688 -24.915434 0.404862 35.000000
-2.600325 -24.740446 0.403824 12.000000
-1.228494 -24.676153 0.401064 31.500000
-1.652081 -24.613367 0.400448 34.000000
-1.576533 -24.646376 0.400902 30.000000
13.478934 -24.579027 0.455048 5.000000
19.653635 -22.058760 0.479589 60.000000
19.749538 -22.026686 0.480238 1.000000
17.454941 -21.694052 0.451997 58.000000
17.530497 -21.578918 0.451315 62.500000
18.690424 -21.244930 0.459333 36.000000
18.722610 -21.147181 0.458489 64.000000
18.842161 -21.147982 0.459788 1.000000
-3.749631 -14.353972 0.498111 37.000000
-4.071518 -14.124604 0.493547 70.000000
-3.742557 -14.145019 0.491265 53.000000
-4.069670 -13.791999 0.482809 20.000000
-3.980427 -13.647366 0.477306 24.000000
-4.053539 -13.275097 0.466031 29.000000
-4.086913 -13.162319 0.462743 32.000000
-3.945536 -13.142790 0.460729 13.000000
-5.411029 -13.024787 0.473548 19.000000
-4.323965 -12.983185 0.459454 64.000000
-4.094227 -12.969443 0.456635 32.000000
-4.504404 -12.913206 0.459186 30.000000
-4.201376 -12.884634 0.455025 38.000000
-4.127660 -12.933665 0.455830 27.000000
-5.226373 -12.806831 0.464420 25.000000
-4.731025 -12.844711 0.459588 18.000000
-4.518535 -12.759947 0.454488 32.000000
-4.412363 -12.843555 0.455964 35.000000
-4.319736 -12.769524 0.452608 37.500000
-4.916352 -12.727794 0.458112 7.000000
-4.809398 -12.747876 0.457463 31.666666
-4.605713 -12.626657 0.451266 38.000000
-4.530602 -12.604942 0.449723 38.000000
-5.036225 -12.452576 0.450998 34.000000
-4.982207 -12.431229 0.449656 42.000000
-4.838687 -12.410587 0.447239 4.000000
-4.806009 -12.157123 0.438918 48.000000
-4.875390 -11.840316 0.429924 9.000000
-4.839121 -11.511885 0.419276 22.666666
-5.453606 -8.061212 0.495933 10.666667
-5.467363 -7.972934 0.492608 26.000000
-5.259682 -7.466976 0.465399 46.333332
-5.149676 -7.459309 0.461871 30.000000
-5.694360 -7.372959 0.474695 46.000000
-5.113807 -7.357805 0.456578 22.000000
-5.569588 -7.315522 0.468507 19.600000
-5.429552 -7.263116 0.462075 28.000000
-5.590003 -7.191026 0.464110 27.000000
-5.336374 -7.232796 0.458003 31.000000
-5.227538 -7.097049 0.449149 28.500000
-5.135394 -7.146851 0.448436 30.666666
-6.813946 -6.972737 0.496781 26.500000
-5.882751 -7.005823 0.466146 50.000000
-5.450099 -6.965777 0.450675 30.000000
-6.734392 -6.891357 0.490980 3.000000
-5.470093 -6.869964 0.447477 27.000000
-5.895581 -6.758232 0.456986 5.000000
-5.736102 -6.798784 0.453271 46.125000
-5.523689 -6.835811 0.447826 24.000000
-5.785007 -6.589572 0.446808 34.000000
-5.764422 -6.649940 0.448436 31.000000
-5.494419 -6.627468 0.438665 37.000000
-5.393315 -6.568449 0.433068 51.500000
-6.821129 -6.513859 0.480598 2.000000
-5.262838 -6.471306 0.425027 22.000000
-7.155457 -6.375279 0.488333 16.000000
-5.998276 -6.374125 0.445994 43.000000
-5.687157 -6.385029 0.435699 31.571428
-5.936652 -6.308545 0.441413 37.000000
-5.536833 -5.996008 0.415867 29.000000
-5.428688 -5.981058 0.446485 38.000000
-6.016614 -5.928746 0.430421 11.000000
-6.193835 -5.822606 0.433169 29.000000
-5.601861 -5.841567 0.412407 38.000000
-6.118939 -5.698022 0.426045 34.000000
-5.805418 -5.685086 0.414035 19.000000
-5.570747 -5.676869 0.405282 10.333333
-6.246071 -5.600345 0.427470 31.000000
-5.896897 -5.595946 0.414239 85.000000
-5.671941 -5.636382 0.407453 15.666667
-6.212929 -5.535517 0.424009 10.000000
-5.751860 -5.519722 0.461881 45.400002
-6.236760 -5.417712 0.420956 15.000000
-6.133716 -5.361985 0.415140 34.714287
-5.964479 -5.381763 0.409353 43.000000
-5.841900 -5.356794 0.419111 37.222221
-6.274493 -5.212887 0.415664 3.000000
-6.176860 -5.214223 0.411898 31.500000
-5.951165 -5.157450 0.492617 31.000000
-5.378250 -4.318898 0.471702 46.250000
-5.283495 -4.322976 0.466836 8.000000
-8.088511 -4.239362 0.465331 3.000000
-5.888317 -4.210961 0.495035 47.000000
-5.774659 -4.157160 0.486575 23.000000
-6.057976 -4.078470 0.499401 44.000000
-5.880249 -3.999305 0.486302 51.500000
-5.717204 -3.994262 0.476933 39.666668
-6.299872 -3.662200 0.498310 38.000000
-6.143847 -3.721657 0.491215 41.250000
-6.352345 -3.586669 0.498856 39.000000
-6.066566 -3.590627 0.482073 36.500000
-6.159374 -3.548288 0.486098 35.750000
-9.135621 -3.375745 0.496272 17.000000
-8.976445 -3.413418 0.489351 5.000000
-9.104915 -3.331924 0.494033 57.000000
-8.551967 -3.099145 0.463499 87.000000
-6.230892 -3.091685 0.475659 59.000000
-7.591430 -2.996469 0.415867 27.000000
-6.161253 -2.961163 0.467473 38.428570
-7.449086 -2.899839 0.407318 33.000000
-6.285865 -2.912469 0.473749 46.000000
-7.630572 -2.792391 0.414035 2.000000
-6.429295 -2.820884 0.480117 35.000000
-6.299988 -2.843097 0.472658 42.333332
-6.224972 -2.825083 0.467473 37.000000
-7.511609 -2.722130 0.407114 1.000000
-6.588276 -2.563435 0.483437 43.000000
-6.724674 -2.519455 0.491078 65.500000
-6.516292 -2.507966 0.477479 30.333334
-6.622476 -2.422170 0.482209 2.000000
-6.723503 -2.287053 0.485654 31.250000
-6.675276 -2.171506 0.480026 40.500000
-6.897722 -2.089106 0.492852 33.666668
-6.711155 -2.125038 0.481390 32.000000
-6.681643 -2.138810 0.479753 43.000000
