# This PCD file was generated using the MATLAB® pcwrite function
# from Computer Vision Toolbox®.
# .PCD v.7 - Point Cloud Data file format
VERSION .7
FIELDS x y z intensity
SIZE 4 4 4 4
TYPE F F F F
COUNT 1 1 1 1
WIDTH 1230
HEIGHT 1
VIEWPOINT 0 0 0 1 0 0 0
POINTS 1230
DATA ascii
-11.587398 8.549208 0.483480 12.000000
-9.333698 8.564719 0.425327 37.000000
-10.332328 8.620799 0.451803 5.000000
-8.932178 8.619681 0.416770 4.000000
-10.403166 8.735479 0.456098 5.000000
-10.122187 8.830149 0.450998 37.000000
-9.042285 8.818052 0.424063 63.000000
-8.836185 8.910525 0.421334 35.000000
-8.595630 8.907221 0.415607 20.000000
-9.146607 8.938277 0.429387 7.000000
-9.061851 8.967452 0.428045 2.000000
-8.927176 8.927090 0.423884 35.000000
-8.801129 8.959146 0.421670 37.000000
-8.682113 8.921779 0.417978 18.000000
-11.277118 9.025034 0.484957 7.500000
-9.544723 9.095669 0.442676 69.000000
-10.254972 9.136922 0.461154 39.000000
-11.427288 9.233839 0.493279 11.000000
-10.514998 9.231150 0.469789 2.000000
-10.312012 9.284980 0.465897 20.000000
-11.525388 9.373107 0.498782 4.000000
-10.024215 9.373933 0.460796 38.000000
-9.901173 9.376202 0.457843 65.000000
-11.236745 9.495789 0.493950 2.000000
-10.362487 9.508789 0.472205 23.000000
-9.861356 9.516350 0.460125 46.000000
-11.207302 9.622801 0.495963 18.000000
-10.667038 9.726692 0.484688 4.000000
-9.922853 9.819486 0.468716 25.000000
-9.172553 9.881246 0.452676 17.500000
-9.065729 9.890043 0.450461 14.500000
-9.508142 10.082754 0.465315 14.000000
-9.172221 10.101366 0.458112 6.000000
-9.685464 10.142343 0.470863 1.000000
-10.639114 10.396790 0.499453 28.000000
-9.347870 10.491822 0.471803 59.000000
-8.877645 10.550012 0.462944 38.000000
-9.988303 10.896378 0.496299 33.000000
-9.355075 10.883911 0.481870 23.666666
-9.823714 10.933284 0.493503 23.000000
-9.630329 10.946547 0.489521 52.000000
-9.402744 11.032568 0.486702 16.000000
-8.997306 11.278776 0.484420 36.333336
-9.064447 11.485821 0.491265 58.000000
-8.868355 11.607721 0.490460 12.000000
-9.117294 11.665415 0.497104 21.500000
-8.941331 11.627341 0.492473 26.000000
-12.200083 22.247017 0.411874 1.000000
-11.306389 22.598038 0.410186 5.000000
-11.185381 22.711687 0.410965 32.000000
-11.087643 22.692810 0.409991 33.000000
-11.281580 22.726585 0.411874 40.000000
-11.089558 22.878691 0.412718 29.000000
-11.433588 23.778481 0.428300 17.000000
-11.336725 23.832163 0.428408 28.666666
-11.215776 23.899664 0.428559 10.000000
-12.002062 24.960737 0.449595 4.000000
-12.090118 25.868351 0.463521 14.500000
-11.935396 25.854265 0.462255 20.000000
-11.915721 26.026180 0.464657 16.000000
16.152290 26.111996 0.498417 9.000000
16.219442 26.037361 0.497962 31.000000
16.356421 26.074366 0.499650 17.000000
16.135069 26.268257 0.500430 22.000000
-12.073098 26.701511 0.475694 23.000000
8.711406 26.858833 0.458359 22.500000
8.593275 26.926287 0.458814 43.000000
-12.072641 27.039373 0.480693 3.000000
-11.889661 27.085392 0.480173 9.000000
8.539946 27.052313 0.460502 41.000000
6.280290 27.159670 0.452516 80.000000
6.369236 27.155380 0.452776 67.000000
6.469324 27.197489 0.453815 1.000000
8.348396 27.187319 0.461670 37.500000
8.468027 27.121002 0.461216 44.000000
-11.881114 27.298639 0.483290 6.000000
-11.773116 27.284418 0.482381 2.000000
6.207378 27.233856 0.453425 33.000000
7.548649 27.312267 0.459982 61.500000
7.729480 27.296978 0.460534 48.000000
8.198624 27.466713 0.465306 34.000000
7.499509 27.640911 0.464916 15.000000
-12.418320 27.813597 0.494457 12.000000
7.430233 27.730009 0.466020 34.000000
-12.327646 27.845156 0.494327 13.000000
7.287191 27.896105 0.468033 27.000000
7.385024 27.911739 0.468682 15.000000
8.219825 27.856750 0.471474 60.000000
7.219491 27.996317 0.469331 19.000000
9.019189 27.957310 0.476862 12.000000
5.156564 28.068470 0.463261 65.500000
5.323313 28.065144 0.463705 56.666668
7.057085 28.095430 0.470240 45.000000
6.984179 28.179575 0.471279 45.000000
7.158138 28.123508 0.471084 46.000000
6.919365 28.298502 0.472902 69.000000
8.153195 28.284460 0.477836 40.000000
6.851996 28.409525 0.474395 35.000000
6.833051 28.726620 0.479329 1.000000
7.649980 28.913143 0.485497 8.000000
-3.638046 -17.475271 0.599317 74.000000
-3.777031 -17.323027 0.595290 22.000000
-2.634689 -17.217770 0.584821 14.000000
-3.457056 -17.145084 0.587237 22.000000
-2.808853 -17.097019 0.581733 30.000000
-3.470778 -16.938322 0.580525 14.000000
-3.307921 -16.954586 0.579989 39.000000
-3.029237 -16.937551 0.577707 24.000000
-2.866807 -16.949581 0.577170 32.000000
-2.679024 -16.972158 0.576901 28.000000
-3.550666 -16.791021 0.576230 30.000000
-3.199235 -16.818760 0.574821 32.000000
-2.898312 -16.814423 0.572875 23.000000
-2.463248 -16.802837 0.570190 2.000000
-3.325388 -16.763727 0.573814 32.000000
-3.572344 -16.635162 0.571264 28.000000
-3.061669 -16.665531 0.568915 31.500000
-2.926230 -16.663485 0.568042 25.000000
-3.684588 -15.934327 0.549117 6.000000
-3.681682 -15.696930 0.541332 2.000000
-3.479260 -15.489097 0.533010 26.000000
-3.396347 -15.577055 0.535291 5.000000
-3.422806 -15.464821 0.531802 23.000000
-3.447942 -15.127291 0.520929 39.000000
-3.513577 -14.771317 0.509789 63.000000
-3.408987 -14.742466 0.508044 14.000000
-3.542529 -14.587540 0.504017 36.500000
-3.826086 -14.552952 0.505225 34.500000
-3.638492 -14.582443 0.504621 20.500000
-3.410554 -14.540969 0.501467 24.000000
-3.903286 -14.446157 0.502429 32.833332
-4.661014 -10.557947 0.588076 11.000000
-4.612918 -10.360781 0.577899 28.000000
-4.542356 -10.116646 0.565074 36.000000
-4.805216 -10.060901 0.568128 32.500000
-4.708886 -10.020340 0.564158 32.500000
-5.248683 -9.963444 0.573827 48.000000
-5.168825 -9.905945 0.569349 42.000000
-5.072183 -9.929003 0.568128 36.000000
-4.823068 -9.976993 0.564667 31.000000
-4.481843 -9.898532 0.553675 34.000000
-6.462812 -9.816275 0.598865 12.000000
-5.320022 -9.822583 0.569213 33.666668
-4.556931 -9.857573 0.553370 35.000000
-4.479735 -9.811724 0.549604 36.000000
-5.604529 -9.730846 0.572199 34.000000
-4.802038 -9.776096 0.554998 35.500000
-6.705174 -9.647483 0.598661 1.000000
-6.363395 -9.599471 0.586855 16.000000
-5.464436 -9.626818 0.564057 41.500000
-5.341804 -9.656662 0.562326 50.500000
-4.905504 -9.677649 0.552861 40.000000
-4.817804 -9.616703 0.548077 31.500000
-4.720102 -9.609445 0.545533 37.000000
-6.342513 -9.503011 0.582173 0.000000
-5.310198 -9.493695 0.554286 44.000000
-5.149051 -9.554832 0.553065 22.000000
-7.161918 -9.333594 0.599476 6.000000
-5.558211 -9.287070 0.551504 16.000000
-5.432602 -9.364194 0.551640 34.000000
-5.318470 -9.369815 0.548993 65.000000
-5.803974 -9.124464 0.551029 59.000000
-5.554331 -9.171293 0.546347 33.000000
-5.396236 -9.151712 0.541360 45.750000
-5.510413 -8.958443 0.535925 31.400000
-5.584331 -8.871059 0.534134 61.000000
-5.498053 -8.826120 0.529859 60.000000
-5.500796 -8.588139 0.519681 99.000000
-5.419678 -8.374284 0.508282 26.500000
-5.592962 -8.211284 0.506246 5.000000
-5.413150 -8.278466 0.504007 25.000000
13.386653 -7.992717 0.523480 22.000000
-6.771959 -7.912152 0.530673 2.000000
13.339478 -7.907814 0.520661 56.000000
13.327858 -7.788219 0.518290 62.333332
-7.504081 -7.703118 0.547976 20.500000
13.344262 -7.685690 0.517037 67.000000
-7.657464 -7.641441 0.551233 3.000000
13.394215 -7.630619 0.517574 60.500000
13.461381 -7.585098 0.518782 51.000000
13.579052 -7.567250 0.521936 35.500000
-5.309438 -6.929660 0.596982 24.428572
-5.125658 -6.899278 0.587752 23.250000
-7.498260 -6.723081 0.513167 4.000000
-5.600153 -6.709597 0.597644 38.000000
-7.498466 -6.680889 0.511742 5.000000
-5.451797 -6.490296 0.579633 44.000000
-5.071017 -6.521049 0.564897 66.000000
-5.104480 -6.479654 0.564078 57.000000
-5.851671 -6.334738 0.589730 30.000000
-5.795132 -6.299926 0.585364 38.666668
-4.941440 -6.313389 0.548250 25.000000
-6.186121 -6.190440 0.598463 11.500000
-5.195447 -6.198160 0.553071 31.333334
-5.094888 -6.262365 0.552084 28.150000
-5.021778 -6.272684 0.549478 40.000000
-5.569260 -6.144193 0.567080 58.000000
-5.264362 -6.148645 0.553526 35.000000
-6.013704 -6.074890 0.584545 3.000000
-5.295273 -6.042743 0.502423 44.333332
-6.455241 -5.915181 0.598736 6.000000
-5.272382 -5.890629 0.540609 94.000000
-5.852462 -5.801613 0.563532 62.000000
-5.717528 -5.812109 0.557528 12.000000
-5.850760 -5.763594 0.561622 19.000000
-5.043407 -5.718567 0.521415 30.333334
-5.439904 -5.617436 0.534742 36.500000
-5.315262 -5.582704 0.527128 19.799999
-5.624969 -5.420563 0.534196 32.750000
-6.508501 -5.234841 0.571173 33.000000
-5.811047 -5.241496 0.535151 39.333332
-6.329606 -5.147325 0.598541 49.142857
-6.012441 -5.089908 0.538699 48.000000
-5.923626 -5.111400 0.535042 39.799999
-5.822539 -5.120631 0.530239 36.000000
-6.470171 -4.973714 0.558074 35.000000
-6.197579 -4.952776 0.542519 65.000000
-6.334869 -4.806749 0.543793 33.000000
-6.198206 -4.842481 0.537880 39.750000
-6.122473 -4.861318 0.534605 34.000000
-6.305372 -4.722171 0.538699 41.000000
-5.980794 -4.449833 0.509772 60.000000
-6.122918 -4.143215 0.505564 43.833336
-6.300690 -4.043417 0.511955 32.000000
-6.217877 -4.054839 0.507634 40.500000
-6.229330 -3.928816 0.503631 50.000000
-6.631631 -3.716935 0.519869 40.000000
-6.524280 -3.724254 0.513729 39.000000
-6.341273 -3.686267 0.501585 39.000000
-6.995646 -3.665012 0.540063 54.000000
-6.782234 -3.607595 0.525327 46.500000
-6.659741 -3.617861 0.518286 34.400002
-6.556095 -3.647576 0.513046 43.000000
-9.181813 -3.491512 0.500547 47.000000
-6.720325 -3.493910 0.517958 55.000000
-9.327083 -3.479833 0.507264 5.000000
-6.514933 -3.361166 0.501312 67.000000
-6.229684 -3.091086 0.597181 35.000000
-7.104835 -3.024302 0.528056 39.500000
-6.934365 -3.016834 0.517140 50.500000
-6.763728 -3.018480 0.506497 42.000000
-6.170952 -2.989837 0.588831 32.200001
-7.703218 -2.983243 0.564897 1.000000
-6.938841 -2.915394 0.514684 54.000000
-6.731500 -2.903223 0.501312 72.000000
-6.782676 -2.874886 0.503768 44.000000
-6.195115 -2.870509 0.586316 41.000000
-7.101938 -2.635727 0.518027 47.500000
-6.945233 -2.515511 0.505132 57.000000
-7.101764 -2.199721 0.508407 36.000000
-6.965726 -2.245939 0.500493 31.666666
-7.500443 -2.118171 0.532968 61.000000
-7.119800 -2.119710 0.507998 41.500000
-8.280857 -2.004880 0.582635 22.000000
-7.410854 -1.992664 0.524781 69.000000
-7.234007 -1.969663 0.512705 42.750000
-7.122830 -1.963155 0.505269 35.500000
-8.622068 -1.633834 0.600100 0.000000
-8.129946 -1.593560 0.566534 14.000000
-7.230293 -1.606891 0.506497 51.000000
-6.667339 -1.503802 0.586914 45.000000
-8.284916 -1.435522 0.574994 13.000000
-6.833179 -1.473641 0.600261 65.000000
-8.108412 -1.378713 0.562441 9.000000
-6.820975 -1.303642 0.596326 46.000000
-8.657919 -1.249167 0.598190 21.000000
-8.272363 -1.237798 0.571992 63.000000
-7.656093 -1.277070 0.530785 21.000000
-6.770016 -1.217102 0.590679 55.500000
-6.723058 -1.201212 0.586458 45.000000
-8.044932 -1.109170 0.555345 30.000000
-7.555305 -1.175037 0.522871 37.000000
-8.302923 -1.064808 0.572447 7.333333
-11.078586 -0.930297 0.566499 1.000000
-8.415283 -0.945412 0.579087 3.000000
-7.357346 -0.920319 0.507043 5.000000
-6.607810 -0.889888 0.572541 0.000000
-8.573426 -0.854232 0.589185 2.000000
-6.560541 -0.820648 0.567750 30.000000
-15.514766 -0.715376 0.521466 5.000000
-8.096199 -0.729687 0.555891 26.000000
-15.548888 -0.668000 0.522540 11.000000
-8.193239 -0.621805 0.561895 48.000000
-7.645273 -0.616466 0.524508 7.000000
-10.260589 -0.537736 0.523549 2.000000
-8.127909 -0.527032 0.556983 31.000000
-8.022694 -0.545527 0.549887 22.000000
-8.001024 -0.443124 0.547977 9.000000
-7.882819 -0.411743 0.539790 18.000000
-7.634348 -0.458915 0.523007 41.000000
-5.589999 -0.424189 0.579730 3.250000
-7.876390 -0.302319 0.511472 25.400000
-5.952936 -0.329694 0.511967 4.000000
-8.060684 -0.268808 0.551525 37.000000
-7.885186 -0.163840 0.539335 46.000000
-7.717165 -0.111801 0.527783 38.000000
-7.677985 0.004677 0.525054 35.799999
-7.624138 -0.026604 0.521370 55.500000
-6.579701 -0.033304 0.565012 88.000000
-6.408201 -0.052568 0.550296 36.000000
-8.108834 0.060858 0.554527 16.000000
-7.657681 0.081529 0.523689 35.000000
-7.547260 0.141336 0.516204 21.285715
-7.481846 0.271201 0.511974 38.214287
-5.273109 0.238520 0.545854 2.000000
-7.400202 0.463039 0.507043 7.500000
-6.484063 0.436358 0.558054 11.000000
-6.414972 0.472211 0.552350 1.000000
-8.075241 0.594425 0.553708 23.000000
-7.991220 0.537779 0.547704 16.000000
-7.712293 0.604203 0.529011 26.500000
-7.591409 0.534838 0.520415 73.000000
-5.841113 0.624235 0.504438 9.000000
-8.164204 0.751577 0.560667 15.000000
-8.687585 0.914634 0.597371 13.000000
-8.233860 0.840722 0.565988 14.000000
-6.628695 0.923352 0.574708 11.333333
-10.036238 1.086742 0.514389 19.000000
-9.844929 1.034743 0.504414 13.000000
-8.515448 1.113519 0.587274 44.000000
-8.341862 1.080096 0.575212 39.599998
-8.342229 1.144226 0.575813 58.000000
-8.484955 1.218158 0.586183 37.333332
-8.476750 1.328721 0.586756 32.200001
-10.531857 1.442684 0.541665 28.000000
-8.450392 1.485470 0.586729 39.000000
-8.371456 1.495650 0.581543 33.111111
-8.356007 1.591007 0.581680 31.500000
-8.465270 1.666977 0.590003 15.000000
-7.426517 1.657258 0.520346 10.000000
-8.492687 1.746299 0.592914 31.666666
-7.377772 1.731799 0.518231 1.000000
-10.280569 2.005788 0.533727 30.000000
-10.314703 2.079811 0.536169 19.500000
-10.470572 2.214130 0.545329 0.000000
-7.807022 2.265201 0.555891 2.500000
-8.188911 2.502108 0.585546 32.666668
-8.319092 2.599073 0.596007 30.000000
-7.979465 2.548106 0.572811 50.000000
-7.861287 2.537610 0.564897 16.000000
-8.333716 2.632410 0.597644 30.000000
-8.017252 2.657640 0.577586 40.000000
-8.165378 2.749540 0.589185 31.000000
-8.279165 2.860645 0.599009 34.500000
-8.179993 2.850327 0.592368 28.000000
-8.160949 2.920434 0.592732 35.000000
-7.708726 3.034886 0.566534 51.666668
-7.503868 3.045550 0.553799 14.333333
-8.170593 3.157687 0.599009 34.000000
-8.669171 4.636686 0.500954 43.000000
-8.787784 4.753468 0.509096 35.500000
-8.642920 4.781055 0.503295 44.500000
-8.669527 4.885028 0.507061 33.000000
-8.751414 4.967454 0.512760 54.000000
-8.778561 5.148186 0.518562 57.000000
-8.635612 5.119302 0.511539 60.000000
-8.398026 5.397609 0.508689 64.000000
-8.828134 5.733058 0.536373 2.000000
-8.476401 5.891253 0.525991 46.000000
-8.755710 6.126259 0.544515 41.000000
-9.135755 6.222651 0.563242 0.000000
-8.751127 6.445924 0.553828 24.000000
-8.977771 6.537110 0.565889 5.000000
-9.205661 6.904214 0.586346 32.000000
-9.064779 6.932989 0.581512 64.000000
-8.995090 6.992410 0.580545 66.000000
-8.979303 7.048287 0.581664 49.000000
-8.986419 7.145608 0.585023 38.500000
-9.073364 7.498252 0.599781 24.500000
-10.669112 10.491827 0.502406 22.000000
-10.407940 10.695248 0.501064 6.000000
-10.556598 10.985269 0.511533 9.000000
-10.217379 10.937672 0.502540 16.500000
-10.522037 11.018377 0.511533 27.000000
-10.416942 11.046462 0.509789 3.000000
-10.263497 11.091331 0.507372 7.000000
-10.101924 11.410121 0.511668 13.000000
-10.372376 11.495461 0.519855 7.000000
-10.111599 11.566672 0.515829 16.000000
-10.002151 11.587609 0.513950 14.000000
-10.090944 11.616488 0.516634 34.000000
-9.924377 11.756468 0.516567 15.000000
-9.679908 11.801304 0.512473 40.000000
-9.837359 11.840600 0.516858 20.000000
-9.163786 11.839458 0.502675 15.000000
-11.979693 11.929618 0.567640 5.000000
-9.088047 11.973066 0.504688 78.000000
-9.228510 12.237758 0.514621 26.000000
-11.346729 12.897535 0.576767 3.000000
-11.609793 13.113257 0.588042 10.000000
-11.127186 13.055916 0.575962 12.000000
-10.989471 13.059797 0.573076 6.500000
-10.926477 13.151662 0.574083 3.000000
-11.045445 13.380149 0.582539 5.000000
-10.349666 13.905396 0.582002 13.000000
-10.137592 13.922502 0.578244 3.666667
-10.859514 14.030311 0.595693 5.000000
-10.434282 14.111420 0.589250 27.000000
-10.744932 14.248656 0.599183 3.000000
-10.491662 14.282674 0.595022 27.000000
16.545052 26.191921 0.502897 30.000000
16.739342 26.224844 0.505039 31.000000
16.936403 26.260015 0.507246 30.000000
17.068918 26.283827 0.508740 31.000000
17.195183 26.297022 0.510038 32.000000
16.106613 26.407595 0.502118 38.000000
17.332695 26.326384 0.511661 31.000000
17.466141 26.348475 0.513155 31.000000
17.599895 26.369986 0.514648 30.000000
17.738419 26.397552 0.516271 31.000000
17.875050 26.421198 0.517829 31.000000
18.078381 26.452166 0.520101 31.000000
18.284594 26.485245 0.522439 31.000000
16.083654 26.557272 0.504000 41.000000
18.429337 26.516338 0.524191 31.000000
18.569870 26.540237 0.525815 31.000000
18.708433 26.560244 0.527373 31.000000
18.847303 26.579636 0.528931 31.000000
18.979511 26.588655 0.530294 47.000000
19.058281 26.522404 0.530164 35.000000
19.211832 26.559616 0.532112 30.000000
16.057856 26.703640 0.505818 40.000000
19.422302 26.673717 0.535618 31.000000
19.576935 26.709347 0.537566 31.000000
19.720110 26.728168 0.539189 31.000000
19.865980 26.749565 0.540877 32.000000
15.983993 27.157108 0.511531 44.000000
15.957115 27.307331 0.513414 41.000000
15.935472 27.468027 0.515492 43.000000
15.873055 27.559546 0.516271 47.000000
15.871759 27.758572 0.519063 40.000000
15.851600 27.926558 0.521270 40.000000
15.824651 28.084232 0.523283 41.000000
15.802727 28.252487 0.525490 40.000000
15.768250 28.399900 0.527308 40.000000
-12.391855 28.472143 0.504065 3.000000
-12.338796 28.595390 0.505558 7.000000
15.742657 28.564888 0.529450 41.000000
-12.286643 28.722269 0.507117 5.000000
15.712340 28.722975 0.531463 39.000000
15.686913 28.891699 0.533670 39.000000
15.660579 29.060545 0.535878 39.000000
15.635226 29.233038 0.538150 39.000000
15.223682 31.745834 0.571521 15.000000
15.178852 31.909077 0.573598 38.000000
15.146798 32.101284 0.576195 35.000000
-13.547315 32.227772 0.567495 20.000000
-13.433686 32.240646 0.566976 20.000000
15.111991 32.289986 0.578727 26.000000
-13.387300 32.415768 0.569313 2.000000
14.987133 33.100353 0.589829 27.000000
14.948600 33.293221 0.592426 33.000000
14.894361 33.453281 0.594439 56.000000
14.873183 33.690166 0.597815 32.000000
18.390955 -38.871243 0.698056 13.000000
18.109030 -38.588493 0.691954 8.000000
18.570702 -38.621559 0.695654 3.000000
17.521908 -37.644432 0.674035 8.000000
17.334826 -37.550415 0.671373 5.000000
17.710188 -37.432373 0.672217 5.000000
18.159883 -37.465336 0.675853 10.000000
18.179165 -37.206871 0.672217 62.000000
18.311871 -37.181866 0.672801 4.000000
15.687723 -36.993855 0.652285 8.000000
16.938732 -36.997398 0.660531 13.000000
15.515630 -36.910225 0.649948 13.000000
15.783420 -36.896584 0.651441 15.000000
16.949272 -36.715233 0.656440 5.000000
15.797837 -36.611797 0.647286 7.000000
15.856917 -36.433632 0.645014 15.000000
16.564474 -36.482330 0.650403 9.000000
19.311039 -36.288219 0.667283 29.000000
15.884491 -36.185883 0.641508 38.000000
16.168612 -36.213181 0.643780 22.000000
16.331553 -36.271614 0.645728 14.000000
16.012669 -36.168713 0.642092 32.000000
17.957338 -36.174824 0.655596 7.000000
18.072687 -36.121807 0.655661 2.000000
19.379589 -36.142780 0.665725 29.000000
19.544371 -36.176727 0.667477 21.000000
17.418486 -35.935772 0.648260 5.000000
17.547091 -35.913216 0.648844 4.000000
19.524075 -35.869255 0.662933 9.000000
17.054604 -35.755718 0.643066 5.000000
17.194580 -35.759632 0.644105 11.000000
16.649500 -35.478386 0.636184 1.000000
18.815018 -35.356125 0.650143 3.000000
19.378971 -35.337830 0.654233 27.000000
19.520840 -35.332783 0.655272 18.000000
19.682320 -35.362144 0.656960 18.000000
19.597712 -34.951286 0.650468 18.000000
-1.429328 -20.338348 0.684550 23.000000
-1.486190 -20.238070 0.681329 53.000000
-2.056926 -20.180012 0.681060 2.000000
-1.599655 -20.056974 0.675557 32.000000
-2.099003 -19.970680 0.674215 13.000000
-1.525033 -19.910429 0.670457 60.000000
-2.177743 -19.821466 0.669517 4.500000
-1.071178 -19.651737 0.660792 42.000000
-0.978370 -19.652550 0.660658 48.500000
-0.885382 -19.648979 0.660390 33.000000
-1.724644 -19.324261 0.651397 15.000000
-1.780195 -19.263016 0.649517 23.000000
-1.288324 -19.193972 0.645893 37.000000
-1.166727 -19.185728 0.645356 31.000000
-1.886657 -19.104250 0.644551 3.000000
-1.222658 -19.114143 0.643075 50.000000
-1.103225 -19.133421 0.643477 39.000000
-2.546651 -19.035585 0.644819 12.000000
-2.487871 -19.051420 0.645088 15.000000
-2.897130 -18.932829 0.643075 7.000000
-2.796679 -18.802418 0.638242 21.666666
-2.611881 -18.847136 0.638846 18.500000
-3.358624 -18.779276 0.640524 6.000000
-2.992740 -18.768181 0.638108 1.000000
-2.672606 -18.638752 0.632202 24.000000
-2.309995 -18.440050 0.623970 27.666666
-2.168748 -18.406229 0.622270 37.000000
-2.160874 -18.338633 0.619988 41.500000
-3.670341 -18.056332 0.618645 7.000000
-4.062397 -13.010859 0.694537 30.000000
-4.477787 -12.772256 0.689651 40.000000
-5.192751 -12.611055 0.694944 13.000000
-4.510863 -12.612217 0.682527 82.000000
-4.380007 -12.620206 0.680695 32.000000
-5.537071 -12.542359 0.698608 6.000000
-5.049488 -12.576122 0.690547 27.400000
-5.094243 -12.483058 0.687005 37.000000
-4.536629 -12.437262 0.674588 82.000000
-3.588321 -12.448332 0.660136 1.000000
-4.537019 -12.317986 0.668889 57.000000
-3.602801 -12.352628 0.655657 21.000000
-3.516362 -12.344284 0.654029 1.000000
-3.700648 -12.188030 0.649042 6.500000
-3.755131 -12.160919 0.648533 19.000000
-3.571495 -12.103695 0.643037 22.000000
-3.599219 -12.057963 0.641205 12.000000
-4.425905 -11.825148 0.643376 23.666666
-4.446594 -11.693522 0.637473 26.333334
-4.824070 -11.509734 0.635912 15.000000
-4.970295 -11.403769 0.633877 10.000000
-4.882901 -11.422970 0.633012 16.750000
-4.714852 -11.399411 0.628584 10.500000
16.443031 -11.377253 0.671351 55.333332
16.476406 -11.260515 0.670054 56.000000
16.565723 -11.207408 0.671530 43.000000
16.673851 -11.204363 0.674483 15.000000
-6.404775 -10.500948 0.626752 4.000000
-6.966755 -9.504932 0.600493 6.000000
-4.505685 -9.168879 0.698616 23.000000
15.948121 -8.789316 0.611397 53.000000
15.975306 -8.706394 0.610860 54.500000
16.072481 -8.661376 0.613008 9.000000
-5.508014 -8.193703 0.675147 7.000000
-5.400258 -8.088166 0.665050 30.000000
-5.266991 -8.051872 0.657955 10.000000
-5.241668 -8.068379 0.657955 10.000000
-5.713752 -7.948601 0.669416 1.000000
-5.479006 -7.951154 0.660320 21.333334
-5.309455 -7.951943 0.653861 14.333333
-5.473986 -7.833582 0.653520 23.500000
-5.836757 -7.754081 0.663685 31.000000
-5.265016 -7.726912 0.639398 23.000000
-5.556817 -7.628685 0.645401 23.000000
17.829834 -7.638221 0.651262 49.500000
-5.361527 -7.533248 0.632302 8.000000
17.884607 -7.540008 0.651665 39.333332
-5.467490 -7.456714 0.632302 12.000000
-5.364382 -7.413327 0.625753 57.000000
-5.896975 -7.201982 0.636532 3.000000
-6.682806 -7.054468 0.664504 20.000000
-7.241724 -6.698871 0.674601 9.000000
-5.890360 -6.622821 0.606104 31.000000
-7.107020 -6.532951 0.660138 54.000000
-6.063110 -6.481447 0.606923 114.000000
-6.616481 -6.178646 0.619067 14.833333
-5.449082 -5.992784 0.660061 41.750000
-5.485462 -5.888575 0.691065 37.333332
-5.331783 -5.919468 0.684106 55.000000
-5.550954 -5.786459 0.688555 10.000000
-5.059961 -5.798299 0.660835 2.000000
-4.746246 -5.815383 0.644579 3.000000
-4.986535 -5.779590 0.655496 29.000000
-4.789905 -5.720560 0.640701 33.066666
-5.860181 -5.629538 0.697795 43.000000
-5.747910 -5.556511 0.686502 17.000000
-5.640848 -5.510365 0.677148 29.000000
-5.410229 -5.534398 0.664599 16.000000
-5.317812 -5.543399 0.659637 22.500000
-5.226703 -5.517431 0.652622 0.000000
-4.980995 -5.495199 0.636879 42.000000
17.236549 -5.520810 0.607684 52.000000
-5.731996 -5.397974 0.676121 19.000000
-5.473835 -5.392285 0.659808 37.000000
-5.315707 -5.398078 0.650568 22.666666
-4.998234 -5.479524 0.636879 32.000000
17.226748 -5.408440 0.606230 53.000000
18.797749 -5.482603 0.657437 2.000000
18.975304 -5.405253 0.662448 20.666666
-5.780875 -5.320589 0.674661 32.200001
-5.340985 -5.311212 0.646804 39.500000
17.308170 -5.314725 0.607907 39.500000
-6.147347 -5.204114 0.691635 70.000000
-6.094565 -5.192385 0.687528 56.000000
-5.914818 -5.279248 0.680798 33.333332
19.003817 -5.284515 0.662269 4.000000
-6.231807 -5.133529 0.654665 53.818180
-6.115278 -5.127735 0.685304 51.500000
-5.950179 -5.134244 0.674866 74.000000
19.001919 -5.155586 0.661061 1.000000
19.056639 -5.106211 0.662403 19.000000
19.030073 -5.035068 0.660927 0.000000
-6.180885 -4.939575 0.679429 52.000000
-5.752445 -4.963767 0.652450 75.000000
-5.568848 -4.928633 0.638590 33.000000
-6.190053 -4.820619 0.673725 40.666668
-5.560536 -4.874748 0.634997 35.000000
-6.227903 -4.694792 0.669733 45.599998
-6.226153 -4.541938 0.661793 51.799999
18.860262 -4.548841 0.651397 6.000000
19.076700 -4.537675 0.658376 4.000000
-6.061963 -4.335143 0.639959 53.000000
-6.327559 -4.259963 0.655017 31.000000
-6.232576 -4.229390 0.646804 38.666668
-6.079883 -4.247637 0.636879 44.000000
-6.286295 -4.111277 0.645007 37.000000
-5.854636 -4.131523 0.615319 53.000000
-7.829131 -4.008093 0.601465 1.000000
-5.737662 -4.076036 0.604368 39.000000
-6.344736 -3.932369 0.640986 51.000000
-6.584505 -3.690521 0.648173 36.000000
-6.372623 -3.753587 0.635111 35.666668
-6.262999 -3.760244 0.627297 39.000000
-6.110337 -3.742981 0.615319 28.333334
-5.907436 -3.751829 0.600946 39.166668
-6.769620 -3.600987 0.658439 15.000000
-6.622848 -3.598969 0.647260 27.000000
-6.516695 -3.652369 0.641499 35.000000
-6.414569 -3.675146 0.634826 40.000000
-6.595345 -3.448694 0.639104 51.750000
-6.662187 -3.384306 0.641670 29.000000
-6.406919 -3.292649 0.618570 52.500000
-6.507108 -3.267010 0.625244 77.500000
-6.333675 -2.995267 0.601630 36.000000
-7.295989 -2.984905 0.676919 51.666668
-7.054468 -2.963975 0.657070 30.000000
-6.989088 -2.975300 0.652279 40.000000
-6.696865 -2.888285 0.626270 50.000000
-6.408083 -2.896045 0.603855 50.500000
-7.382224 -2.832290 0.678973 40.000000
-7.095693 -2.799362 0.655017 64.000000
-7.015099 -2.818628 0.649199 82.000000
-6.477919 -2.854376 0.607876 35.000000
-7.301676 -2.775105 0.670759 40.000000
-6.856965 -2.692931 0.632601 62.500000
-6.673766 -2.779388 0.620795 87.000000
-7.075382 -2.663692 0.649199 41.000000
-7.003507 -2.586418 0.641100 53.000000
-6.736981 -2.633414 0.621137 35.000000
-6.933074 -2.388523 0.629692 64.500000
-6.836370 -2.395600 0.622050 68.000000
-6.669898 -2.403982 0.608817 75.500000
-6.970549 -2.263286 0.629350 54.666668
-6.826066 -2.244191 0.617030 34.750000
-7.145005 -2.090699 0.639275 31.000000
-6.844064 -2.125785 0.615405 23.750000
-7.552296 -2.056162 0.672128 85.000000
-7.465117 -2.057637 0.664942 74.000000
-7.307609 -2.051301 0.651766 18.000000
-7.036031 -2.022873 0.628666 30.000000
-7.270072 -1.954810 0.646461 64.000000
-7.145213 -1.897189 0.634826 33.000000
-7.061797 -1.827633 0.626384 43.000000
-7.171251 -1.712403 0.633115 37.000000
-6.917303 -1.743924 0.612581 48.000000
-6.994896 -1.635509 0.616859 48.500000
-6.809405 -1.671298 0.602086 42.666668
-6.951103 -1.427720 0.609373 52.916664
-7.749919 -1.305261 0.674866 46.000000
-8.017797 -1.216666 0.648895 62.333332
-7.732391 -1.252429 0.672642 40.000000
-6.934898 -1.269039 0.605395 38.000000
-8.869998 -1.109534 0.611289 16.000000
-8.743233 -1.093739 0.602557 6.500000
-7.629412 -1.149805 0.662546 68.500000
-7.449159 -1.106695 0.646690 65.000000
-7.847339 -1.031730 0.679657 30.000000
-7.646576 -1.029781 0.662546 51.000000
-8.941870 -0.976136 0.615110 2.000000
-9.040687 -0.786188 0.620568 26.000000
-7.012646 -0.799003 0.606079 16.500000
-6.557328 -0.841176 0.644928 53.000000
-8.844275 -0.741122 0.606923 17.000000
-7.647044 -0.721519 0.659580 23.000000
-7.624418 -0.735490 0.657755 22.000000
-8.054136 -0.623975 0.693688 35.000000
-7.849543 -0.632937 0.676235 27.000000
-7.693581 -0.656903 0.663059 33.000000
-7.752434 -0.502733 0.667109 21.666666
-7.447978 -0.553479 0.641328 93.000000
-7.322471 -0.521028 0.630377 15.000000
-7.583073 -0.419947 0.652165 32.000000
-6.724568 -0.393623 0.696581 9.000000
-7.647761 -0.351296 0.657413 27.000000
-7.589044 -0.311000 0.652230 38.714287
-6.043470 -0.315761 0.625812 21.750000
-7.720750 -0.208916 0.663230 50.000000
-7.488264 -0.249719 0.643381 33.000000
-5.763303 -0.228499 0.698498 7.500000
-7.424691 -0.166148 0.637735 43.250000
-7.296011 -0.128625 0.626612 32.000000
-7.278976 -0.036529 0.625072 29.500000
-7.129748 -0.013687 0.612239 36.000000
-6.366950 -0.032242 0.658420 29.000000
-9.912571 0.074395 0.677876 9.000000
-7.679302 0.081760 0.659466 35.000000
-7.603802 0.057067 0.652964 67.000000
-7.476414 0.032624 0.642013 41.000000
-6.540497 0.090188 0.676420 11.000000
-6.045672 0.026523 0.625195 12.000000
-9.280453 0.186298 0.634758 1.000000
-7.560793 0.139867 0.649370 10.000000
-7.238201 0.213561 0.621821 19.000000
-6.652843 0.129254 0.688105 58.799999
-7.948701 0.309527 0.683079 40.000000
-7.273343 0.237469 0.624901 4.000000
-5.183203 0.267104 0.628528 16.000000
-7.699992 0.396918 0.662090 22.000000
-7.623139 0.336836 0.655245 29.666666
-7.848287 0.429232 0.674952 36.000000
-9.599207 0.524916 0.657409 3.000000
-7.386957 0.567161 0.636195 6.000000
-6.471050 0.537707 0.671483 8.333333
-10.197194 0.621902 0.698616 1.000000
-7.585703 0.678340 0.653990 1.000000
-7.444642 0.689309 0.642013 49.000000
-7.013984 0.671663 0.605052 19.000000
-8.792189 0.978696 0.604958 39.799999
-8.077848 1.082121 0.699848 7.000000
-6.555552 1.025396 0.686158 11.666667
-6.161737 1.163160 0.648442 22.000000
-7.373173 1.804204 0.651823 11.000000
-9.324780 2.004168 0.652224 1.000000
-8.638976 1.999231 0.606377 36.000000
-9.318438 2.033451 0.652224 38.000000
-8.673781 2.064784 0.609720 31.500000
-7.842499 2.089650 0.696940 3.500000
-8.799236 2.153158 0.619476 8.000000
-8.656068 2.204774 0.610834 15.000000
-7.740018 2.173445 0.690352 16.250000
-7.253548 2.116962 0.648857 20.500000
-8.730055 2.223576 0.616065 39.000000
-7.564722 2.259456 0.677946 21.000000
-9.899913 2.389555 0.696433 7.000000
-9.803202 2.398827 0.690156 16.000000
-8.688673 2.388366 0.616201 10.000000
-9.054269 2.427777 0.641035 9.000000
-8.954166 2.431117 0.634485 1.000000
-8.876968 2.508863 0.630821 25.714285
-8.753105 2.584480 0.624115 58.000000
-8.473454 2.530879 0.604740 80.000000
-7.720088 2.599597 0.699506 38.000000
-9.029341 2.635233 0.643218 32.000000
-8.790357 2.868039 0.632302 35.000000
-9.361388 3.021839 0.672691 4.000000
-8.436968 3.049145 0.613472 80.000000
-8.465231 3.180183 0.618385 51.000000
-8.336401 3.176698 0.610061 47.500000
-8.774621 3.233556 0.639489 49.333332
-8.530893 3.514437 0.630938 54.000000
-8.296951 3.463886 0.614837 56.500000
-8.155737 3.495542 0.606786 58.000000
-8.615784 3.517791 0.636396 9.000000
-8.379780 3.544931 0.622205 65.000000
-8.184686 3.584270 0.611016 65.666664
-9.396249 3.802057 0.693158 20.000000
-8.322500 3.770116 0.624798 51.000000
-8.197721 3.747956 0.616414 39.222221
-8.076487 3.812566 0.610743 8.000000
-8.520115 4.087644 0.646220 43.000000
-8.667554 4.158474 0.657409 43.500000
-8.389088 4.171632 0.640694 37.750000
-8.741775 4.261758 0.665050 61.000000
-8.436035 4.311266 0.647857 40.333332
-8.324009 4.336950 0.641854 43.000000
-8.388242 4.420745 0.648403 41.000000
-7.909931 4.469697 0.621295 88.333336
-7.970691 4.559319 0.627936 98.000000
-8.651809 4.664367 0.672145 39.000000
-8.156880 4.699890 0.643764 116.000000
-8.035080 4.663393 0.635304 45.000000
-6.599875 4.686763 0.620400 10.944445
-8.923845 4.750921 0.691339 24.666666
-8.710756 4.731524 0.677876 81.000000
-8.119102 4.780606 0.644310 0.000000
-6.567087 4.745773 0.624923 7.700000
-8.313229 4.859806 0.658500 93.000000
-8.180098 4.877228 0.651269 66.000000
-7.858835 4.837600 0.631074 15.750000
-8.911802 4.986761 0.698343 43.000000
-7.798767 4.957705 0.631951 33.428574
-7.742661 5.082113 0.633348 30.833334
-7.792959 5.238626 0.642127 48.000000
-8.027637 5.433074 0.662867 50.000000
-8.132548 5.541414 0.672964 47.000000
-8.039032 5.562701 0.668520 31.142857
-9.759454 7.200547 0.617999 19.000000
-10.888059 7.217585 0.665632 4.000000
-9.081973 7.674770 0.605888 12.000000
-9.074541 7.766844 0.608636 0.000000
-9.772984 7.964993 0.642426 12.000000
-9.146309 7.928369 0.616778 68.000000
-10.814371 8.031463 0.686394 0.000000
-9.699012 8.092391 0.643647 13.000000
-9.167697 8.125153 0.624208 16.000000
-9.095636 8.163935 0.622783 19.000000
-9.630102 8.400876 0.651179 20.000000
-9.202796 8.605801 0.642019 3.000000
-10.252116 8.663713 0.683952 14.000000
-10.179268 8.712373 0.682730 1.000000
-9.576621 8.677460 0.658507 25.000000
-9.329283 8.669307 0.648940 60.000000
-9.148542 8.663454 0.642019 3.000000
-9.990933 8.771071 0.677438 20.000000
-9.379363 8.826306 0.656268 123.000000
-9.291909 8.854750 0.654029 129.000000
-10.269360 9.101565 0.699219 25.500000
-9.457223 9.069155 0.667667 66.000000
-8.995670 9.071352 0.650975 15.000000
-8.917843 9.077984 0.648431 15.000000
-8.770733 9.055422 0.642375 10.750000
-8.470660 9.039285 0.631230 10.000000
-9.397191 9.125609 0.667464 32.000000
-10.057916 9.287678 0.697590 56.000000
-9.938087 9.293392 0.693315 61.000000
-9.560919 9.226423 0.677031 63.000000
-9.373848 9.218086 0.669906 17.000000
-9.879498 9.355652 0.693315 61.000000
-9.418237 9.924755 0.697183 30.000000
-8.990232 10.090419 0.688634 34.000000
-11.408190 13.997794 0.606297 14.000000
-11.419502 14.101918 0.609250 27.000000
-11.490428 14.280999 0.615424 15.000000
-10.499101 14.578808 0.603210 73.000000
-10.418360 14.562946 0.601196 18.000000
-10.650442 14.691400 0.609250 56.000000
-11.365765 14.876561 0.628578 4.000000
-12.304783 15.097909 0.653947 8.000000
-10.615366 15.087322 0.619384 28.000000
-12.254770 15.133388 0.653813 3.000000
-10.345258 15.256924 0.618914 12.000000
-10.339703 15.352353 0.621464 27.000000
-10.575193 15.438841 0.628310 9.500000
-11.547898 15.515292 0.649383 2.000000
-11.402849 15.523106 0.646699 2.000000
-10.835491 15.555449 0.636497 23.000000
-10.841166 15.668313 0.639719 51.000000
-10.324464 15.645987 0.629384 33.000000
-10.453215 15.733343 0.634216 7.000000
-11.303520 15.905590 0.655155 28.000000
-10.658181 15.933028 0.643611 29.000000
-10.439614 15.929116 0.639450 84.000000
-11.354937 16.084726 0.661061 13.000000
-11.308943 16.126863 0.661329 2.000000
-11.106636 16.160248 0.658376 65.000000
-10.871480 16.702299 0.669114 61.000000
-11.631824 16.754616 0.684819 7.000000
-10.818958 16.736368 0.669114 39.000000
-11.544923 16.911541 0.687503 13.000000
-10.499690 16.816074 0.665624 10.000000
-6.660767 16.874783 0.609115 0.000000
-10.392871 16.999552 0.668980 24.000000
-10.833969 17.111179 0.679987 39.000000
-10.805690 17.185747 0.681597 23.000000
-10.380935 17.161186 0.673409 4.500000
-11.178841 17.412825 0.694751 7.000000
-10.687257 17.358311 0.684416 24.000000
-11.149866 17.488314 0.696362 29.000000
-10.878784 17.504620 0.691977 35.333332
-6.827216 17.702393 0.637034 4.500000
-10.539904 17.737116 0.692738 9.000000
-6.830420 17.962324 0.645222 0.000000
-6.928442 18.570461 0.665490 1.000000
14.842646 33.908928 0.600866 34.000000
14.806103 34.116821 0.603723 34.000000
14.771560 34.332161 0.606709 32.000000
14.731103 34.536587 0.609501 30.000000
13.601102 35.211479 0.612747 4.000000
13.427505 35.761196 0.620083 4.000000
13.546874 35.737534 0.620408 5.000000
14.384706 35.891640 0.627679 14.000000
14.369778 36.856575 0.642157 9.000000
14.110761 37.580898 0.651636 17.000000
14.228755 37.536381 0.651636 4.000000
14.140402 38.022392 0.658518 25.000000
14.103821 38.291813 0.662413 28.000000
14.062945 38.553856 0.666179 28.000000
14.020559 38.816017 0.669945 28.000000
13.972627 39.066998 0.673515 29.000000
13.928593 39.333134 0.677346 28.000000
13.867146 39.554089 0.680397 57.000000
13.842477 39.884613 0.685331 10.000000
18.492346 -39.729343 0.711366 3.000000
-2.164034 -22.639996 0.763609 1.000000
15.164047 -16.912481 0.762670 7.000000
-3.183501 -15.291876 0.795908 2.000000
-3.131434 -15.282233 0.794890 6.000000
-3.256844 -14.937235 0.779013 12.000000
-3.195642 -14.880995 0.775552 0.000000
-3.473472 -14.705730 0.769955 26.000000
-3.300798 -14.721843 0.768784 22.125000
-3.473992 -14.403759 0.754993 51.000000
-3.924711 -14.287531 0.754993 26.000000
-3.497403 -14.303522 0.750311 39.000000
-3.551498 -14.139157 0.742848 29.333334
-4.089363 -14.020865 0.744205 1.000000
-4.502983 -13.809537 0.740133 33.000000
-3.836866 -13.797881 0.729752 50.000000
-3.564145 -13.821330 0.727309 31.000000
-5.462944 -13.755720 0.754179 5.000000
-4.406769 -13.733576 0.734943 39.000000
-3.667462 -13.773441 0.726292 45.000000
-4.627290 -13.608139 0.732398 28.000000
-3.898376 -13.604083 0.721101 30.000000
-3.635057 -13.651995 0.719880 30.000000
-4.126400 -13.513710 0.719981 18.000000
-3.820666 -13.574262 0.718556 32.000000
-4.502967 -13.380295 0.719371 33.000000
-4.430433 -13.372910 0.717844 28.000000
-4.005181 -13.341700 0.709803 26.000000
-5.190041 -13.189191 0.722220 34.000000
-4.179016 -13.238031 0.707361 30.000000
-5.095365 -13.150353 0.718624 18.333332
-4.901536 -13.179832 0.716521 3.000000
-4.660574 -13.161054 0.711432 16.000000
-4.713316 -13.048852 0.706954 37.000000
-5.448795 -12.737414 0.705936 19.000000
-5.309844 -12.724666 0.702577 5.500000
-5.528076 -12.629226 0.702475 6.000000
-4.929936 -10.615786 0.800407 72.000000
-4.594455 -10.491327 0.783214 17.000000
-4.477807 -10.584987 0.785943 6.000000
-4.611448 -10.396601 0.777756 29.500000
-4.832960 -10.321958 0.779394 95.000000
-4.698443 -10.328964 0.775983 30.500000
-4.076712 -10.307167 0.757971 1.000000
-4.841339 -10.214329 0.772981 29.000000
-4.852349 -10.114038 0.767113 29.000000
-5.114063 -10.006672 0.768478 53.000000
-4.470693 -9.869323 0.740915 30.000000
-5.583727 -9.761586 0.769024 32.000000
-5.555683 -9.607367 0.758927 31.000000
-5.489975 -9.668034 0.760291 49.000000
-6.508814 -9.552204 0.790446 16.000000
-6.427501 -9.561528 0.787854 25.000000
-5.211433 -9.487575 0.740233 31.250000
-5.128519 -9.548567 0.741188 39.500000
-5.018048 -9.521442 0.736003 39.500000
-4.651735 -9.541698 0.725906 36.000000
-4.628688 -9.570635 0.726998 19.000000
19.614759 -9.558284 0.732603 49.000000
-5.531816 -9.394910 0.745555 31.000000
-4.869184 -9.405620 0.724269 18.333334
-4.747482 -9.398382 0.720039 23.000000
19.591118 -9.432785 0.730053 60.500000
-5.474077 -9.364011 0.741734 35.000000
-5.269489 -9.348023 0.733820 25.000000
-5.236199 -9.357565 0.733274 29.000000
-4.671939 -9.358185 0.715263 24.000000
-4.640745 -9.369241 0.714990 24.000000
19.693373 -9.330009 0.731663 52.500000
-5.558401 -9.239769 0.737368 24.000000
-5.819233 -9.113274 0.739414 56.500000
-5.641797 -9.181154 0.736913 34.666668
-5.445461 -9.149216 0.728089 50.000000
-5.642476 -8.991392 0.725906 74.000000
-5.619531 -8.892655 0.719356 75.000000
-5.454687 -8.839311 0.710296 43.200001
-5.664957 -8.690284 0.709396 24.500000
13.318531 -7.952044 0.790412 54.000000
-7.749308 -7.877499 0.755652 0.000000
13.288970 -7.821633 0.785730 60.333332
13.310278 -7.693990 0.783389 71.500000
-7.597906 -7.651188 0.737368 10.000000
-5.317367 -7.633270 0.798849 17.857143
13.411416 -7.612467 0.785798 56.000000
13.576368 -7.593795 0.792651 45.000000
-5.412476 -7.579616 0.799778 22.000000
13.645560 -7.576317 0.795297 6.000000
-5.203753 -7.191359 0.762247 15.333333
-5.510091 -7.154958 0.775480 10.500000
-5.662086 -7.004582 0.773427 40.000000
-5.526660 -7.023323 0.767438 20.666666
-5.947714 -6.858970 0.779587 8.000000
-5.640762 -6.874521 0.763616 20.333334
-5.477026 -6.841438 0.752551 30.500000
-5.185359 -6.832563 0.736552 12.750000
-5.851104 -6.620450 0.758711 42.000000
-6.366305 -6.543299 0.783950 6.250000
-5.792417 -6.512699 0.748444 52.000000
-6.068415 -6.432796 0.759395 94.000000
-6.910086 -6.232798 0.799093 69.000000
-6.662592 -6.280482 0.786260 3.500000
-6.720720 -6.139011 0.781640 0.000000
-6.350448 -5.764295 0.736466 99.000000
-7.153363 -5.570748 0.778560 15.000000
-4.956044 -5.554739 0.769819 1.500000
-4.987113 -5.439718 0.763154 39.200001
-4.936167 -5.462969 0.761384 45.500000
-5.156239 -5.225056 0.759121 28.500000
-4.999408 -5.226372 0.747938 36.818180
-4.933482 -5.229868 0.743486 36.333332
-5.012453 -5.159821 0.743898 34.000000
-5.710340 -4.990230 0.784220 95.000000
-5.577235 -4.797426 0.760767 96.500000
-5.467318 -4.702623 0.745749 36.500000
-6.214681 -4.503764 0.793683 45.500000
-6.024087 -4.322429 0.766733 39.500000
-6.385597 -4.202561 0.790529 30.000000
-6.060710 -4.206086 0.762893 36.666668
-6.203800 -4.176689 0.773385 43.000000
-6.378010 -4.008542 0.779008 32.000000
-6.227827 -3.901027 0.759944 48.000000
-6.702224 -3.778749 0.795658 33.200001
-6.357293 -3.749421 0.763236 40.500000
-6.191720 -3.739393 0.748012 36.166668
-6.326406 -3.664336 0.756036 35.500000
-6.583081 -3.488472 0.770436 49.000000
-6.506966 -3.566765 0.767350 41.666668
-6.803936 -3.429466 0.787923 42.000000
-6.333253 -3.407287 0.743692 32.500000
-6.669142 -3.296282 0.769305 38.750000
-6.666513 -3.204106 0.764882 34.333332
-6.585834 -3.114516 0.753361 49.000000
-7.085118 -3.029162 0.796837 31.333334
-6.993602 -3.016191 0.787614 41.500000
-6.516500 -2.994634 0.741635 39.333332
-6.519217 -2.897071 0.737726 48.000000
-7.191364 -2.837106 0.799443 39.000000
-6.885300 -2.716456 0.765430 57.666668
-6.719291 -2.699774 0.748835 26.000000
-8.773399 -2.627140 0.786431 7.000000
-7.055363 -2.681490 0.780517 37.000000
-6.706599 -2.605495 0.744035 29.333334
-6.442417 -2.683039 0.721680 0.000000
-8.951653 -2.528002 0.798751 3.000000
-7.067023 -2.534580 0.776402 51.666668
-6.984670 -2.554701 0.769099 54.250000
-6.829750 -2.546747 0.753773 58.000000
-8.886617 -2.479514 0.792249 1.000000
-7.134851 -2.458058 0.780380 31.333334
-7.384643 -2.287341 0.799443 35.000000
-7.331281 -2.327767 0.795432 32.750000
-7.148315 -2.189554 0.773111 46.000000
-7.393843 -2.088067 0.794506 31.000000
-7.202971 -2.132248 0.776814 89.000000
-7.009971 -2.111076 0.757064 31.500000
-7.231061 -2.005343 0.775991 36.000000
-14.755177 -1.801250 0.757436 3.000000
-6.908461 -1.811110 0.738549 46.000000
-6.677874 -1.795708 0.715096 40.599998
-14.879768 -1.769037 0.763543 1.000000
-6.799479 -1.722701 0.740780 39.625000
-7.096777 -1.663235 0.753773 57.000000
-6.945272 -1.646875 0.738138 36.000000
-6.955267 -1.568712 0.737315 44.000000
-8.057341 -1.422176 0.702586 2.000000
-6.802322 -1.444636 0.780836 39.000000
-6.690604 -1.464924 0.738374 40.750000
-8.804008 -1.298495 0.764187 33.000000
-7.029171 -1.286291 0.738960 30.000000
-6.792151 -1.383309 0.758009 40.666668
-6.715348 -1.368785 0.732771 37.599998
-8.776375 -1.210016 0.760764 7.000000
-8.476561 -1.195830 0.735098 45.000000
-7.290373 -1.192437 0.763922 40.333332
-7.108887 -1.239461 0.746229 35.000000
-7.041033 -1.242791 0.739372 38.000000
-6.807962 -1.278944 0.716331 40.000000
-7.585442 -1.143128 0.793272 40.000000
-7.494031 -1.135165 0.783808 42.750000
-8.252320 -1.005947 0.713880 18.000000
-7.185148 -1.013583 0.750378 39.000000
-11.112450 -0.913648 0.762474 18.000000
-8.615858 -0.913164 0.743995 12.000000
-8.474800 -0.938530 0.732189 5.500000
-7.229365 -0.962074 0.754184 40.000000
-7.657052 -0.762927 0.795740 32.000000
-7.489114 -0.722438 0.778048 29.000000
-7.270535 -0.666895 0.755007 36.500000
-7.108988 -0.595845 0.737726 37.400002
-6.370623 -0.604498 0.774961 49.500000
-5.951262 -0.597601 0.724346 9.750000
-9.029543 -0.557017 0.776849 16.000000
-6.964139 -0.561544 0.722503 37.000000
-5.952807 -0.498813 0.723425 10.333333
-7.452775 -0.412760 0.771876 51.000000
-7.103671 -0.466058 0.736183 52.500000
-6.934445 -0.466152 0.779835 36.500000
-7.697437 -0.353514 0.796837 13.333333
-5.975121 -0.330923 0.724707 47.000000
-5.785939 -0.319952 0.753228 4.500000
-7.597311 -0.228212 0.786010 23.150000
-5.781188 -0.229165 0.700662 9.000000
-7.695988 -0.140510 0.795987 21.799999
-5.571990 -0.167311 0.774024 7.666667
-6.272804 -0.012076 0.759652 8.333333
-7.515849 0.032796 0.777225 9.000000
-5.845238 0.025506 0.707876 0.000000
-5.797478 0.043511 0.702105 17.000000
-8.458870 0.183166 0.726542 18.500000
-8.391910 0.142086 0.720724 1.000000
-7.430472 0.160698 0.768585 14.250000
-8.604076 0.267198 0.739204 6.000000
-7.424518 0.265735 0.768276 26.250000
-6.587620 0.235799 0.798284 0.000000
-8.835633 0.371866 0.759395 3.000000
-7.542906 0.364951 0.780928 55.000000
-8.751924 0.588972 0.753235 2.000000
-8.451467 0.542088 0.727226 87.000000
-8.555249 0.656790 0.736809 18.000000
-7.110059 0.714654 0.738960 16.500000
-6.453119 0.638419 0.785300 16.000000
-8.931361 0.798673 0.770004 106.000000
-8.693908 0.722445 0.749129 29.750000
-7.559318 0.759746 0.785660 17.500000
-8.869947 0.896356 0.765556 19.333334
-8.825375 0.901167 0.761791 29.333334
-7.594724 0.823711 0.789980 12.000000
-8.827671 1.027623 0.763160 37.500000
-8.291334 1.031175 0.717473 69.000000
-8.189663 1.035902 0.708860 40.333332
-6.510320 1.070763 0.799005 10.500000
-10.763239 1.133160 0.740097 0.000000
-8.296094 1.191052 0.719697 24.000000
-6.142087 1.179445 0.757408 0.000000
-8.719330 1.307767 0.757114 9.000000
-6.173473 1.215635 0.761976 1.000000
-8.603343 1.345711 0.747760 6.000000
-9.156678 1.510947 0.796926 20.666666
-8.592927 1.482713 0.748787 13.000000
-8.974766 1.519578 0.781640 39.000000
-7.428916 1.783177 0.790062 8.400000
-7.351715 1.971261 0.787100 17.000000
-7.182294 2.000902 0.771012 19.200001
-8.725164 2.033601 0.769320 53.500000
-7.227701 2.097219 0.778254 37.000000
-8.330381 2.121841 0.738178 2.000000
-10.861160 2.280854 0.758927 17.500000
-7.287774 2.218480 0.787786 16.666666
-10.838593 2.329531 0.758108 17.000000
-10.112323 2.609577 0.714171 3.000000
-7.818959 2.605571 0.707720 42.000000
-7.288732 2.518284 0.797455 29.333334
-10.080297 2.668978 0.713080 18.000000
-8.745271 2.691999 0.785747 27.333334
-8.152605 2.688325 0.737151 50.000000
-7.874120 2.679034 0.714222 86.000000
-11.040866 2.812232 0.779121 1.000000
-10.093174 2.774439 0.715809 14.000000
-8.731863 2.788372 0.787116 61.000000
-8.049137 2.795131 0.731675 41.000000
-8.855803 2.858638 0.799093 18.000000
-8.645972 2.820930 0.780956 31.000000
-8.333006 2.864405 0.756658 77.000000
-8.179460 2.869216 0.744338 44.000000
-8.328179 2.950799 0.758711 32.000000
-7.806666 2.960799 0.716960 56.000000
-7.685670 2.942559 0.706693 32.000000
-7.635496 2.950889 0.702928 13.000000
-8.395147 3.093806 0.768293 31.000000
-6.854730 3.092156 0.777637 1.000000
-8.702208 3.155275 0.794873 38.833336
-8.344781 3.114970 0.764871 32.666668
-8.457867 3.299285 0.779587 95.000000
-8.271660 3.347008 0.766240 58.000000
-8.336153 3.449696 0.774710 66.750000
-8.352610 3.580024 0.780357 54.500000
-7.873633 3.596386 0.743311 57.500000
-8.389119 3.673837 0.786431 41.000000
-8.035367 3.627655 0.757068 50.799999
-7.888467 3.678445 0.747418 41.000000
-8.516067 3.761363 0.799436 47.000000
-8.083686 3.815965 0.767609 48.000000
-9.709382 3.964303 0.717173 1.000000
-8.328089 4.011616 0.793789 41.000000
-8.038364 4.005197 0.771202 25.250000
-8.172976 4.016290 0.781982 53.000000
-9.303477 4.391777 0.703528 18.000000
-9.450952 4.425136 0.713626 1.000000
-7.772655 4.568404 0.774197 24.750000
-7.955214 4.785740 0.797211 42.000000
-7.841473 4.809888 0.789939 32.250000
-7.479403 4.859037 0.765898 0.000000
-9.001088 4.971868 0.703187 53.000000
-7.473054 4.955781 0.770004 3.500000
-9.005222 5.113597 0.708168 0.000000
-9.006322 5.303010 0.714717 59.000000
-9.188665 5.488417 0.731910 25.000000
-9.434689 5.675655 0.752923 29.000000
-9.269509 5.645985 0.742212 39.500000
-9.026009 5.624753 0.727270 1.000000
-8.606313 6.338082 0.730909 22.666666
-8.513378 6.387380 0.727816 28.500000
-8.654958 6.557574 0.742553 94.000000
-9.064504 6.935335 0.780485 61.000000
-9.019094 6.968232 0.779394 57.000000
-8.970282 7.043774 0.779940 60.750000
-8.965460 7.169891 0.785034 38.666668
-8.496923 7.275033 0.764930 6.000000
-8.938826 7.413256 0.794130 0.000000
-8.705149 7.406043 0.781577 39.000000
-8.900524 7.444673 0.793493 23.333334
-10.613174 8.798721 0.702475 2.000000
-11.322589 9.149237 0.741762 0.000000
-10.282942 9.200470 0.703086 0.000000
-11.272860 9.286020 0.744205 22.000000
-10.154740 9.318157 0.702272 19.000000
-11.035671 9.505589 0.742169 8.000000
-10.836331 9.881062 0.747258 25.000000
-10.947247 9.919395 0.752754 2.000000
-9.504551 9.952896 0.701254 1.000000
-9.458272 10.029858 0.702475 34.000000
-9.491372 10.214020 0.710482 36.000000
-10.483900 10.223718 0.746172 29.000000
-10.197997 10.219374 0.735655 34.000000
-10.024196 10.300910 0.732398 26.000000
-9.192568 10.252480 0.701661 31.000000
-10.544511 10.369296 0.753568 12.000000
-10.392017 10.316151 0.746138 43.000000
