# This PCD file was generated using the MATLAB® pcwrite function
# from Computer Vision Toolbox®.
# .PCD v.7 - Point Cloud Data file format
VERSION .7
FIELDS x y z intensity
SIZE 4 4 4 4
TYPE F F F F
COUNT 1 1 1 1
WIDTH 1231
HEIGHT 1
VIEWPOINT 0 0 0 1 0 0 0
POINTS 1231
DATA ascii
-10.124266 12.587549 1.670479 3.000000
-9.931254 12.588694 1.658135 17.000000
-10.134351 12.681454 1.678707 23.000000
-9.993650 12.708988 1.671919 28.000000
-9.841388 12.719494 1.663072 0.000000
-10.097831 12.882877 1.692697 50.000000
-11.882995 14.965763 1.640965 14.000000
-10.502542 15.921894 1.637885 49.000000
-10.434995 15.982877 1.639083 24.500000
2.541527 18.972078 1.643703 19.000000
2.619528 18.950718 1.642790 34.000000
2.730414 19.018293 1.649863 27.000000
3.131315 19.226995 1.672792 13.000000
2.500948 19.604389 1.697090 28.000000
-12.662868 20.575153 1.652118 1.000000
-12.642548 20.760685 1.662215 26.500000
-11.011701 21.018755 1.622645 5.000000
-11.142892 21.107573 1.632197 29.000000
-11.285983 21.216917 1.643386 33.000000
-11.573175 21.270859 1.655939 12.000000
-11.497747 21.452187 1.664399 34.000000
-12.062229 21.680443 1.696600 26.000000
9.822313 21.683361 1.627831 13.000000
-11.306422 21.747229 1.676133 25.000000
-11.000921 21.997093 1.681864 1.000000
-11.369789 22.037991 1.695782 37.000000
-11.309585 22.091364 1.697146 43.000000
17.136076 26.387243 1.603215 3.000000
17.329300 26.411341 1.609627 9.500000
17.547338 26.470968 1.618279 41.000000
17.683638 26.495457 1.623164 41.000000
17.820261 26.519346 1.628049 41.000000
17.957212 26.542643 1.632935 41.000000
18.094481 26.565338 1.637820 42.000000
18.234329 26.590725 1.642909 41.000000
18.376785 26.618786 1.648201 31.000000
18.694267 26.628918 1.657871 37.000000
18.878510 26.623646 1.663061 30.000000
18.526438 26.656048 1.654105 30.000000
19.054895 26.694263 1.671203 35.000000
19.215591 26.741325 1.677921 25.000000
19.365065 26.771456 1.683620 24.000000
19.512564 26.797680 1.689116 23.000000
19.662779 26.826466 1.694816 23.000000
15.641112 27.355186 1.605658 41.000000
15.616227 27.511889 1.611968 44.000000
15.545407 27.588654 1.613597 42.000000
15.556166 27.811680 1.623775 42.000000
15.528830 27.968683 1.630085 41.000000
15.496805 28.118792 1.635988 42.000000
15.467823 28.275986 1.642298 41.000000
-13.843859 28.333889 1.606879 35.000000
-13.637859 28.362711 1.603623 3.000000
15.438008 28.433271 1.648609 41.000000
15.411144 28.597681 1.655326 41.000000
-13.502323 28.772062 1.619500 6.000000
15.381516 28.758678 1.661840 40.000000
15.352901 28.923302 1.668557 41.000000
-13.725902 29.011162 1.635377 7.000000
15.323402 29.088026 1.675275 40.000000
15.294869 29.256388 1.682196 39.000000
15.263593 29.421316 1.688913 40.000000
15.231428 29.586330 1.695630 40.000000
3.506136 31.456142 1.612783 15.000000
3.627236 31.639444 1.622757 5.000000
-1.428970 -26.131838 1.789658 2.000000
-0.524849 -26.145660 1.788294 0.000000
-0.442774 -26.151169 1.788567 18.000000
-0.220874 -25.825378 1.766098 6.000000
0.776234 -25.700232 1.758275 24.000000
0.692898 -25.606802 1.751726 8.000000
0.048912 -25.476454 1.742174 21.000000
0.128829 -25.452230 1.740537 16.000000
0.926347 -25.383781 1.736989 28.000000
1.086498 -25.393408 1.738081 7.000000
14.093770 -21.961731 1.784473 4.000000
14.231478 -21.872747 1.784473 2.000000
13.468047 -21.578508 1.739445 6.000000
14.546541 -21.606785 1.781199 5.000000
13.586653 -21.541744 1.741628 24.000000
13.681540 -21.467447 1.740810 27.000000
13.896194 -21.066681 1.725801 6.000000
13.797138 -21.060162 1.721707 1.000000
-2.060749 -19.873890 1.715741 15.000000
-1.971226 -19.925045 1.719334 19.000000
-2.460006 -19.778254 1.711463 1.000000
-2.517087 -19.730892 1.708041 18.000000
-2.633932 -19.661959 1.703478 14.000000
-1.491843 -17.295206 1.795147 6.000000
-1.160251 -17.240858 1.786918 1.000000
-1.570771 -16.964584 1.761820 13.000000
-1.353031 -16.927458 1.756060 8.000000
-1.647170 -16.649502 1.730138 11.000000
-2.165720 -16.561930 1.727258 0.000000
-2.190266 -16.349979 1.705863 7.000000
13.380677 -15.360189 1.749279 44.000000
13.490108 -15.290754 1.750990 44.500000
13.595209 -15.216093 1.752188 44.000000
13.697229 -15.137761 1.753043 37.000000
13.775147 -15.080421 1.753899 18.000000
-1.862301 -14.598171 1.782193 0.000000
-3.047164 -14.397554 1.782193 43.000000
-2.855177 -14.380177 1.775460 20.000000
-2.811507 -14.396872 1.776422 16.000000
-2.884629 -14.293287 1.765842 17.000000
-2.676077 -14.299440 1.761755 4.000000
-3.860186 -14.217647 1.784116 29.000000
-2.913562 -14.206353 1.756225 29.000000
-3.162523 -14.067554 1.746126 36.000000
-3.041481 -14.151088 1.752858 22.000000
-4.104418 -13.900820 1.755263 12.000000
-3.873857 -13.921493 1.749973 4.000000
-4.126476 -13.815564 1.746126 9.000000
-3.041605 -13.834071 1.715349 21.500000
-4.176070 -13.667838 1.730737 6.000000
-3.874512 -13.756362 1.730737 50.000000
-2.092174 -12.748154 1.793771 13.833333
-2.293406 -12.569912 1.774150 24.000000
-2.331438 -12.554853 1.773050 1.000000
-3.557399 -12.397966 1.790929 5.000000
-4.807699 -11.983697 1.792854 10.000000
11.997286 -11.913832 1.748448 0.500000
16.417496 -11.821089 1.737216 49.750000
16.532887 -11.688599 1.738670 57.500000
-3.937155 -11.645162 1.706851 16.000000
16.605753 -11.623157 1.740552 45.000000
16.691458 -11.566300 1.743803 49.000000
16.777002 -11.508969 1.747054 39.000000
16.822954 -11.462940 1.748081 47.000000
16.885288 -11.427903 1.750819 41.000000
-4.869778 -11.307796 1.709510 45.000000
-5.145624 -11.166818 1.707218 23.333334
-5.011789 -11.175072 1.700571 47.000000
12.913829 -11.198149 1.767580 7.000000
13.304770 -10.963709 1.782804 6.000000
13.410604 -10.840328 1.783215 15.000000
-3.735072 -10.641868 1.767749 0.000000
-4.258918 -10.520041 1.778898 17.000000
-3.994579 -10.493606 1.759903 28.666666
-4.517886 -10.460243 1.785918 91.666664
-4.139459 -10.431607 1.759077 14.600000
-4.007586 -10.461842 1.755980 15.500000
-3.728338 -10.378620 1.728520 10.000000
-4.714061 -10.315423 1.777659 118.000000
-4.619995 -10.279959 1.766510 77.000000
-4.392829 -10.288889 1.753503 87.000000
-3.827448 -10.280710 1.719436 24.000000
17.198053 -10.345891 1.723441 17.000000
17.162039 -10.250941 1.716596 59.000000
-5.270820 -10.073580 1.781995 4.000000
-4.511209 -10.122906 1.737089 87.000000
-4.264988 -10.077007 1.715100 115.000000
-4.117102 -10.078589 1.706429 9.000000
-5.075876 -10.005100 1.758458 9.000000
-4.600909 -9.984726 1.723152 51.000000
-5.330090 -9.957261 1.770226 6.000000
-4.985263 -9.942352 1.743283 17.500000
-5.189394 -9.768057 1.733682 8.000000
-5.025453 -9.791245 1.725011 8.500000
-4.716136 -9.825723 1.708287 33.000000
-5.081273 -9.637495 1.707667 11.000000
-6.122217 -9.420189 1.760935 70.000000
-5.721686 -9.373629 1.721294 2.000000
-5.624607 -9.379107 1.714171 20.000000
-5.514577 -9.406936 1.709113 35.166668
-4.547471 -9.213202 1.795014 25.500000
-4.361707 -9.160963 1.772641 43.000000
-4.316079 -9.138991 1.765757 14.000000
-4.881233 -8.999336 1.788646 16.500000
-4.668358 -8.990806 1.769887 9.000000
-5.010435 -8.928450 1.788703 11.333333
-4.919466 -8.918954 1.779525 23.000000
-5.364340 -8.788201 1.798800 14.000000
-5.205640 -8.837425 1.791916 50.000000
-5.171052 -8.715975 1.770575 65.000000
-5.006426 -8.761648 1.763003 21.400000
-5.576288 -8.580173 1.787786 10.000000
-5.475488 -8.542059 1.772641 6.000000
-5.686111 -8.427008 1.776083 27.000000
-5.173192 -8.415484 1.725829 37.000000
-5.519677 -8.320377 1.744416 9.000000
-7.882049 -8.110950 1.772704 6.000000
-5.551586 -8.089701 1.714126 25.000000
-5.559556 -7.993199 1.701047 2.000000
-6.337685 -7.888126 1.767822 4.000000
-6.194338 -7.911298 1.755431 24.000000
-4.734239 -7.698406 1.742170 23.000000
-5.011413 -7.629113 1.759584 42.000000
-4.526255 -7.571862 1.700527 16.250000
-4.890503 -7.553165 1.734598 30.400000
-4.748728 -7.508844 1.712641 26.000000
-4.335167 -7.330405 1.797477 22.000000
-6.683308 -7.255165 1.723420 1.500000
-5.397834 -7.026974 1.708099 69.000000
-6.107464 -6.883756 1.773969 46.500000
-4.981199 -6.878730 1.792521 3.000000
-4.843260 -6.914325 1.781782 17.166666
-5.166625 -6.770096 1.797477 46.000000
-5.019691 -6.840985 1.790869 10.000000
-4.827802 -6.800866 1.760305 6.666667
-4.560736 -6.779304 1.724509 30.000000
-4.470964 -6.773913 1.713055 19.600000
-5.856829 -6.706717 1.716427 40.000000
-5.185876 -6.692779 1.787014 12.000000
-7.598522 -6.471422 1.743728 11.000000
-5.187358 -6.495766 1.754522 18.000000
-5.643809 -6.341153 1.791695 7.000000
-5.153202 -6.329670 1.722720 13.875000
-5.797812 -6.232713 1.796651 63.000000
-5.581210 -6.075901 1.741306 115.000000
-7.257468 -5.574892 1.764127 26.000000
-5.838289 -5.587098 1.705579 57.500000
-5.487941 -5.592197 1.799706 37.000000
-5.296198 -5.626044 1.774782 29.000000
-5.009656 -5.505609 1.709772 28.799999
-5.579495 -5.423927 1.787318 48.000000
-6.105165 -5.331508 1.710742 1.000000
-5.781663 -5.277534 1.798064 56.000000
-5.578618 -5.321765 1.770902 27.666666
-5.543234 -5.354908 1.770305 35.000000
-6.698425 -5.246574 1.795825 18.000000
-5.544819 -5.223346 1.749709 34.000000
-6.669451 -5.106524 1.772902 17.500000
-6.488276 -5.114942 1.743784 26.000000
-6.374444 -5.090453 1.721756 24.666666
-6.293751 -5.107500 1.710742 31.500000
-5.571814 -5.134312 1.740307 34.000000
-5.512369 -5.143949 1.731801 29.000000
-6.818830 -4.992525 1.783709 28.333334
-6.689026 -4.982512 1.760423 25.428572
11.747618 -4.820457 1.763147 0.000000
-6.670455 -4.721642 1.724903 20.714285
-6.379734 -4.468796 1.789109 34.000000
13.501817 -4.109929 1.709177 26.833332
-6.699713 -3.981944 1.790184 34.200001
-6.641079 -4.055295 1.787318 31.666666
-8.097433 -3.888334 1.731570 25.000000
-6.788483 -3.895641 1.797765 31.000000
13.571812 -3.960902 1.712143 31.000000
13.740692 -3.893402 1.729535 26.500000
-10.471086 -3.790480 1.745450 1.000000
-7.333287 -3.780130 1.741306 34.000000
-6.768806 -3.790715 1.781946 35.000000
13.753164 -3.827018 1.728814 36.000000
13.861057 -3.786720 1.740115 18.500000
14.076284 -3.774362 1.764881 25.000000
-7.577604 -3.756610 1.785086 28.000000
-6.706160 -3.762560 1.783974 29.000000
14.157168 -3.748417 1.773537 8.000000
-8.202683 -3.641742 1.730055 4.000000
-7.704449 -3.610665 1.795825 31.000000
-7.540274 -3.591680 1.762783 33.000000
-6.834836 -3.664735 1.781349 42.666668
-7.514752 -3.521923 1.751631 30.500000
-7.522798 -3.432291 1.745229 19.750000
-7.595843 -3.358088 1.752870 47.000000
-9.360182 -3.190039 1.727665 14.666667
-6.863708 -3.008521 1.721354 36.000000
-6.494359 -3.026958 1.778901 23.000000
-7.546664 -2.892359 1.705786 1.000000
-6.913750 -2.908271 1.722846 48.041664
-6.613324 -2.898916 1.792716 54.000000
-7.076213 -2.788823 1.747023 43.000000
-7.026787 -2.807656 1.738069 52.500000
-6.691283 -2.625056 1.784524 48.000000
-6.594657 -2.498501 1.750843 8.222222
-6.538874 -2.529701 1.740670 9.000000
-7.679434 -2.455251 1.701656 54.000000
-7.499576 -2.089686 1.788214 26.000000
-7.209341 -2.139649 1.727323 28.666668
-7.460999 -2.053701 1.777468 4.000000
-7.304979 -1.973815 1.738069 38.000000
-8.261496 -1.873929 1.787977 15.500000
-8.124857 -1.883241 1.760305 17.000000
-7.377831 -1.783522 1.743441 14.000000
-7.291831 -1.835580 1.727144 47.000000
-7.022126 -1.802973 1.799945 32.500000
-8.011056 -1.672137 1.727263 8.000000
-7.902390 -1.675379 1.704960 10.000000
-7.608045 -1.688058 1.790005 17.000000
-7.944681 -1.606257 1.710742 68.000000
-7.660384 -1.473771 1.791796 62.000000
-7.600300 -1.536630 1.781050 33.000000
-6.726150 -1.536831 1.712960 28.750000
-6.906350 -1.396327 1.749344 0.000000
-7.686427 -1.353941 1.792691 35.000000
-7.533308 -1.241621 1.753739 6.000000
-7.418072 -1.198817 1.725980 35.500000
-6.748094 -1.188656 1.701153 0.000000
-8.176519 -1.084994 1.740893 11.500000
-7.999224 -1.125643 1.704960 13.000000
-7.623233 -1.121679 1.769857 15.500000
-6.969396 -1.137534 1.753199 60.000000
-6.922711 -1.085307 1.739706 74.000000
-7.115182 -0.887505 1.780187 67.000000
-6.833470 -0.791361 1.707900 28.000000
-6.669723 -0.789414 1.794973 14.000000
-7.128301 -0.711551 1.778580 18.333332
-6.939136 -0.755058 1.732959 23.000000
-7.600976 -0.610224 1.751500 37.000000
-7.398911 -0.640815 1.705832 15.000000
-8.141617 -0.550759 1.722307 29.000000
-7.437240 -0.467859 1.711653 45.000000
-7.136668 -0.490290 1.776010 13.666667
-6.618556 -0.468619 1.773285 3.000000
-9.910064 -0.391100 1.732713 5.000000
-6.961750 -0.448975 1.731995 9.000000
-9.871866 -0.358536 1.725829 2.000000
-8.469618 -0.359423 1.789216 28.000000
-8.363103 -0.275971 1.766087 2.000000
-8.239969 -0.323749 1.740480 44.000000
-7.631240 -0.299832 1.754187 51.000000
-7.405541 -0.345192 1.702848 22.666666
-7.122139 -0.315699 1.769970 21.799999
-8.403795 -0.224463 1.774348 33.000000
-8.290991 -0.195388 1.750392 31.000000
-8.232869 -0.168143 1.738001 29.000000
-7.470064 -0.223012 1.716578 75.000000
-7.236974 -0.216053 1.797535 28.000000
-7.791904 -0.134647 1.790005 48.000000
-8.343101 -0.032695 1.760924 43.500000
-7.738402 -0.036468 1.777468 42.000000
-7.560299 -0.043572 1.736576 66.000000
-8.257570 0.090799 1.742958 33.000000
-8.239471 0.116455 1.739241 30.000000
-8.271427 0.194927 1.746262 47.000000
-7.498858 0.164924 1.722846 20.500000
-8.956155 0.314316 1.727532 26.666666
-8.153152 0.269024 1.721756 8.666667
-7.685776 0.301975 1.766723 46.000000
-7.494020 0.259153 1.722398 49.000000
-8.963927 0.352194 1.729298 2.000000
-7.467103 0.363933 1.717175 46.333332
-7.624233 0.443615 1.754187 65.000000
-7.737916 0.743713 1.785528 8.000000
-8.809297 0.865313 1.706332 11.333333
-9.974073 0.980616 1.750956 21.500000
-7.505524 1.098232 1.742322 26.000000
-6.835060 1.415467 1.732959 7.000000
-10.043088 1.443653 1.772641 32.000000
-9.874768 1.451133 1.743728 37.000000
-8.763054 1.600419 1.717184 14.000000
-8.676083 1.584501 1.700149 10.500000
-9.695003 1.831892 1.723764 8.000000
-8.743698 1.753578 1.719077 4.500000
-8.649823 1.791331 1.702799 25.000000
-7.004172 1.833589 1.797535 0.000000
-9.613693 1.879161 1.711373 6.000000
-8.774523 1.903621 1.730813 29.500000
-6.907403 1.894706 1.778293 44.642857
-8.851336 1.993112 1.748984 47.000000
-6.951362 2.031410 1.798017 58.500000
-9.539811 2.099165 1.706554 37.000000
-6.890934 2.077730 1.786933 30.714285
-10.638440 2.218611 1.703332 6.000000
-9.492301 2.167052 1.701047 4.000000
-8.912101 2.213778 1.770184 35.000000
-8.830830 2.149471 1.752012 40.500000
-7.463766 2.202402 1.787468 23.666666
-6.873181 2.203284 1.791993 31.750000
-8.194844 2.325161 1.797890 49.000000
-8.146817 2.242486 1.783434 16.333334
-7.213548 2.278036 1.719924 34.583336
-6.265569 2.329405 1.786504 30.600000
-8.709749 2.412165 1.742170 26.000000
-7.241033 2.390536 1.751500 27.000000
-6.801984 2.351646 1.786846 25.909090
-7.697339 2.514392 1.709090 36.000000
-7.370316 2.458925 1.784632 66.000000
-7.141969 2.501932 1.702598 57.000000
-9.903106 2.623913 1.789851 2.000000
-7.864138 2.706305 1.755348 66.000000
-7.772573 2.647512 1.733045 51.000000
-7.022452 2.682949 1.726726 36.333332
-7.665007 3.217350 1.754522 40.000000
-7.450923 3.164259 1.708539 27.666666
-8.219519 3.299226 1.707341 46.000000
-6.959906 3.301724 1.769409 21.750000
-8.498481 3.415766 1.765641 54.857143
-8.172550 3.400230 1.706332 36.000000
-7.550774 3.385522 1.746537 18.333334
-6.909198 3.344501 1.763141 3.000000
-8.299245 3.524573 1.738132 32.666668
-7.604970 3.529177 1.769557 27.400000
-8.529115 3.738693 1.795169 11.000000
-8.283538 3.787283 1.755798 21.000000
-8.247870 3.770946 1.748227 23.000000
-8.224691 3.886039 1.753527 12.000000
-7.968792 3.919405 1.711884 5.000000
-8.079605 4.005478 1.738384 51.000000
-8.907398 4.206706 1.721010 36.000000
-8.805199 4.192320 1.703800 26.000000
-8.947510 4.329178 1.736568 72.000000
-7.868220 4.374000 1.735355 54.000000
-7.174395 4.411993 1.777652 10.000000
-7.250339 4.490146 1.799955 82.000000
-8.791058 4.599762 1.733402 43.000000
-7.470356 4.823545 1.714156 1.000000
-8.720909 4.846024 1.743039 31.000000
-7.458457 4.849133 1.714913 27.000000
-8.875852 5.116216 1.789851 38.000000
-8.670061 5.070436 1.754742 20.000000
-8.785488 5.212098 1.784688 4.000000
-7.181061 5.409355 1.733084 55.000000
-7.529221 5.470334 1.794033 25.500000
-8.616515 5.599909 1.795358 34.000000
-8.539142 5.600674 1.784114 24.000000
-8.334919 5.875285 1.781590 45.000000
-7.809454 5.880575 1.707931 7.000000
-8.279178 5.953577 1.781590 51.000000
-7.995114 5.981109 1.744416 57.000000
-7.705516 6.111699 1.718257 16.000000
-7.864762 6.157900 1.745105 10.000000
-7.997025 6.302081 1.778836 51.000000
-6.804880 6.282332 1.785326 7.600000
-6.749818 6.318577 1.782298 21.000000
-6.725676 6.355695 1.783812 8.000000
-9.087233 6.491433 1.750406 7.000000
-7.917321 6.526535 1.792604 53.000000
-7.799734 6.470869 1.770575 50.000000
-8.883231 6.910430 1.764032 12.000000
-8.615469 6.921975 1.732237 33.333332
-8.527741 6.955019 1.724804 36.000000
-8.896893 7.033869 1.777659 27.000000
-8.105101 7.256903 1.705190 12.000000
-8.462302 7.729920 1.796447 37.166668
-8.065506 7.715662 1.749476 5.000000
-8.356631 7.803640 1.792111 24.000000
-8.195015 7.765913 1.769607 2.000000
-7.823720 7.796457 1.731204 16.000000
-8.091115 7.862768 1.768368 10.000000
-8.173934 8.043726 1.797480 0.000000
-7.668528 8.189033 1.758458 3.000000
-7.631992 8.201513 1.755980 31.000000
-8.890590 8.460541 1.704101 17.666666
-8.700648 8.724976 1.710886 7.000000
-8.643450 9.057504 1.738392 17.000000
-10.719357 9.995998 1.774979 4.000000
-10.473743 9.984470 1.752377 5.000000
-10.362233 10.003197 1.744202 10.000000
-10.437335 10.397334 1.784116 16.000000
-10.278999 10.336584 1.765362 18.500000
-9.521299 10.357967 1.703807 29.000000
-10.324947 10.481095 1.781712 24.000000
-10.153668 10.437600 1.763438 14.000000
-10.043880 10.521341 1.761514 45.000000
-10.225710 10.577938 1.781712 13.000000
-9.828842 10.625336 1.752858 10.000000
-10.097425 10.711380 1.782674 4.000000
-9.830611 10.796163 1.768247 19.000000
-9.219617 10.780324 1.717849 15.600000
-11.934912 12.660592 1.799262 7.000000
-11.471043 12.677383 1.767992 9.000000
-11.295637 12.702389 1.757808 53.250000
-11.246818 12.829138 1.764289 39.000000
-11.003043 13.024933 1.763191 35.000000
-10.262197 13.524852 1.755648 3.000000
-10.393590 13.564737 1.767169 20.500000
-9.311867 13.707100 1.713612 27.833334
-9.350847 13.983961 1.739602 10.000000
7.246007 15.667467 1.785067 37.000000
7.393458 15.726021 1.796999 39.500000
6.882539 15.988756 1.800085 39.000000
-11.900414 16.421673 1.741493 46.500000
11.709998 16.729824 1.753557 28.000000
10.732750 16.808174 1.712490 20.500000
10.879366 16.803925 1.718992 22.500000
11.344542 16.818935 1.742092 12.500000
11.504148 16.807657 1.748994 24.666666
11.566150 16.747320 1.747739 16.000000
11.684682 16.805794 1.757663 22.000000
-11.939592 16.919184 1.778197 9.000000
-10.743793 16.857885 1.716596 6.000000
10.545195 16.921806 1.712148 4.000000
10.651308 16.855217 1.712148 5.000000
11.138095 16.911070 1.738841 8.000000
11.095820 16.962652 1.740552 19.000000
12.120609 17.030216 1.794966 35.000000
12.215769 16.937527 1.793255 40.500000
-12.112703 17.050539 1.795992 14.000000
-11.993901 17.109987 1.794281 100.000000
-11.797744 17.057180 1.780935 10.000000
-11.102154 17.063206 1.748081 15.000000
-11.173950 17.292141 1.767930 23.000000
-11.014746 17.403418 1.768615 22.000000
-10.964253 17.444687 1.769299 28.000000
-10.905178 17.472282 1.768615 30.000000
-11.261635 17.548529 1.790517 26.000000
-11.236430 17.630875 1.795308 23.000000
-10.974108 17.706314 1.788806 24.000000
-10.872034 17.706821 1.784243 28.333334
-10.726107 17.676083 1.775459 33.000000
-10.740455 17.825752 1.787095 24.000000
2.571308 19.663612 1.702908 27.000000
2.386596 20.224726 1.748766 21.000000
2.452040 20.232954 1.750134 28.000000
2.170493 20.410690 1.762569 18.666666
2.997919 20.425190 1.772721 59.000000
2.057321 20.467133 1.766390 15.000000
2.541662 20.434759 1.768272 40.000000
2.336082 20.535469 1.774775 15.666667
3.102269 20.683674 1.795992 28.000000
3.173268 20.713221 1.799415 19.000000
-12.173202 21.719028 1.702604 27.000000
-12.025517 21.937773 1.710791 12.000000
-11.375685 22.393629 1.717614 29.000000
-11.459744 22.735727 1.741083 10.000000
15.205647 29.765661 1.703162 40.000000
15.171662 29.930872 1.709879 40.000000
15.140382 30.103298 1.717004 39.000000
15.111732 30.282969 1.724535 41.000000
15.073240 30.444857 1.731049 27.000000
14.921193 31.623150 1.781735 2.000000
14.848866 31.727760 1.784992 43.000000
14.813030 31.911943 1.792727 40.000000
-1.548617 -26.776615 1.834141 9.000000
-2.301558 -26.682375 1.831412 2.000000
-1.374599 -26.674227 1.826499 4.000000
-2.130051 -26.648571 1.828137 5.000000
-2.043877 -26.623301 1.825954 7.000000
-1.704570 -26.575197 1.821041 23.000000
-2.703357 -26.476189 1.819950 15.000000
-2.199221 -26.466763 1.816129 5.000000
-1.619128 -26.548555 1.818858 24.000000
-2.864067 -26.407104 1.816402 20.000000
14.317903 -23.595179 1.887355 9.000000
14.440775 -23.463966 1.884081 4.000000
15.810212 -22.554180 1.883535 2.000000
16.304707 -22.204287 1.883808 0.000000
15.989242 -22.063940 1.863340 6.000000
16.089054 -22.055511 1.866888 5.000000
16.365284 -21.995749 1.874802 14.000000
-2.988627 -21.292150 1.846299 18.000000
-3.049842 -21.243208 1.842877 1.000000
-2.470195 -20.933186 1.810024 6.000000
17.585665 -20.641178 1.854335 1.000000
18.132931 -20.488338 1.870982 24.000000
18.244980 -20.484917 1.875894 13.000000
17.768036 -20.203585 1.839871 6.000000
18.077822 -19.916094 1.839326 31.000000
18.153761 -19.873934 1.840690 28.000000
-3.672087 -17.904459 1.890055 27.000000
-3.529990 -17.926296 1.889369 4.500000
-3.449991 -17.966196 1.891837 3.000000
-1.794440 -17.574421 1.826829 4.000000
-1.060134 -17.382835 1.800907 4.000000
14.942749 -15.653096 1.858277 9.000000
15.019462 -15.634815 1.861700 4.000000
-2.766146 -15.312452 1.884383 13.000000
-2.607913 -15.344539 1.884912 12.200000
14.872856 -15.288751 1.831584 15.000000
15.170461 -15.112317 1.838771 57.000000
15.394857 -15.049462 1.848695 2.000000
-4.051129 -14.737677 1.850961 3.000000
-4.551091 -14.407907 1.829801 0.000000
-4.147963 -14.380370 1.812489 6.000000
-4.336378 -14.353720 1.815855 3.000000
-4.757220 -14.127635 1.805276 18.000000
-3.182511 -13.175039 1.881974 1.000000
-3.106009 -13.221774 1.885825 10.000000
-3.033167 -13.096373 1.866571 20.000000
-3.494113 -13.022022 1.872072 24.000000
-3.450141 -13.021446 1.870422 12.000000
-4.156160 -12.867717 1.877573 19.000000
-2.612292 -12.932224 1.831913 18.000000
-3.512581 -12.848709 1.849517 23.000000
-4.016720 -12.708466 1.850617 18.000000
-3.809257 -12.672910 1.837414 23.000000
-3.322982 -12.702582 1.823111 4.000000
-3.728199 -12.618534 1.826962 20.000000
-3.509343 -12.603019 1.816509 11.000000
-4.793198 -12.512813 1.860519 18.000000
-3.904977 -12.491188 1.817197 19.250000
-3.522050 -12.496595 1.802756 12.000000
-4.331478 -12.466330 1.832463 1.000000
-4.824189 -12.360652 1.842365 21.000000
-4.668120 -12.301850 1.826962 18.000000
-4.609403 -12.321839 1.826687 12.500000
-4.376625 -12.345510 1.818710 7.000000
-4.315513 -12.295646 1.809358 11.000000
-5.142458 -12.203707 1.838789 13.500000
-4.981788 -12.195326 1.829162 16.000000
-4.739905 -12.182242 1.815042 30.333334
-4.802227 -12.079740 1.804957 3.000000
-3.508859 -10.202037 1.884851 43.000000
-4.174299 -10.037986 1.899307 5.000000
-4.515350 -9.880600 1.897930 79.000000
-6.501362 -9.766754 1.838979 17.000000
-6.392634 -9.802761 1.834333 29.500000
-4.462269 -9.683854 1.862822 18.000000
-4.799457 -9.609414 1.876590 48.000000
-5.037355 -9.518072 1.881408 9.500000
19.745441 -9.498649 1.881549 37.000000
-5.039449 -9.414308 1.865575 23.000000
-4.943192 -9.447419 1.862822 12.000000
-4.353208 -9.369617 1.804996 39.000000
19.774635 -9.372763 1.879153 45.500000
-5.562989 -9.243743 1.884851 49.000000
-5.383186 -9.238018 1.867985 29.500000
-4.773643 -9.264627 1.820829 15.000000
-5.506221 -9.084695 1.855938 9.000000
-5.077607 -9.137666 1.826336 13.000000
-5.711005 -8.971392 1.858003 0.000000
-5.877232 -8.920064 1.866264 41.000000
-5.806028 -8.872541 1.852496 13.000000
-5.609137 -8.690345 1.807061 1.000000
-4.763204 -8.474085 1.873911 27.500000
19.995424 -8.532897 1.866833 19.000000
-5.115325 -8.376962 1.892083 26.000000
-4.878594 -8.399115 1.872397 32.000000
13.484487 -7.996956 1.898569 1.000000
13.432682 -7.852658 1.884303 65.333336
-4.498236 -7.688562 1.880082 23.000000
13.462470 -7.700672 1.878211 63.000000
-4.798363 -7.587166 1.894744 32.750000
13.518705 -7.620507 1.879333 57.000000
13.597826 -7.580838 1.885345 54.500000
-5.646411 -7.512237 1.811574 47.333332
-5.057083 -7.399527 1.891646 9.333333
-4.757699 -7.419421 1.860256 18.000000
-4.594330 -7.435925 1.844837 22.000000
-4.448209 -7.388247 1.820193 18.500000
-5.140366 -6.914004 1.818403 76.000000
-5.661720 -6.778659 1.864111 52.333332
-5.899456 -6.734108 1.889581 47.500000
-5.760770 -6.680911 1.861908 52.000000
-5.689100 -6.703617 1.855713 60.500000
-4.654711 -6.734805 1.880445 26.000000
-4.565304 -6.740353 1.869924 28.500000
-4.439863 -6.720783 1.850149 20.833334
-4.734190 -6.580775 1.862088 27.500000
-4.566314 -6.651119 1.853134 21.000000
-5.732759 -6.481984 1.826388 89.000000
-4.723367 -6.533396 1.851791 30.250000
-4.579691 -6.516220 1.829405 28.000000
-5.028954 -6.420582 1.873282 3.000000
-5.933241 -6.311440 1.828316 52.333332
-5.042912 -6.315004 1.856268 28.333334
-4.802818 -6.272730 1.814630 0.000000
-5.936653 -6.184093 1.809317 48.000000
-5.032766 -6.234849 1.840448 14.333333
-4.950461 -6.239214 1.829405 25.000000
-7.251427 -5.979740 1.811826 1.000000
-4.753114 -5.941025 1.888961 25.428572
-6.902650 -5.692129 1.888342 39.000000
-6.731136 -5.586314 1.846214 6.000000
-6.543300 -5.561934 1.812552 25.250000
-5.618076 -5.558224 1.815256 28.000000
17.403103 -5.497196 1.887312 40.000000
-6.918729 -5.384146 1.850344 10.000000
-6.565573 -5.460806 1.802433 16.000000
-5.035171 -5.464207 1.844763 31.750000
17.373695 -5.398011 1.881346 65.000000
-6.046824 -5.354577 1.855193 49.400002
-5.917050 -5.333260 1.829703 52.333332
17.435837 -5.297367 1.884431 50.000000
17.548300 -5.241381 1.893895 1.000000
-6.607302 -4.475160 1.832986 9.000000
-6.954780 -4.428979 1.893877 14.000000
-7.067173 -4.224590 1.891191 35.000000
-6.741423 -4.174973 1.821346 35.000000
-7.575509 -4.026274 1.810694 57.000000
-6.501649 -4.012344 1.896809 14.500000
-9.977192 -3.843867 1.867985 8.500000
-7.821784 -3.755969 1.831345 20.000000
-7.271303 -3.719313 1.875968 40.000000
-7.154048 -3.759117 1.856268 49.500000
-7.375904 -3.647126 1.889997 30.666666
-7.311335 -3.596039 1.871491 29.000000
-7.166966 -3.623449 1.844627 25.000000
-6.665968 -3.664671 1.888617 26.000000
-6.565644 -3.569306 1.855365 31.000000
-7.874701 -3.520820 1.820606 29.333334
-6.690269 -3.542287 1.879461 11.000000
-6.576824 -3.548663 1.855365 4.000000
-6.747888 -3.110820 1.844763 48.000000
-6.955200 -2.983839 1.878979 46.000000
-6.996300 -2.885059 1.878910 48.714287
-7.070262 -2.812170 1.889099 45.000000
-6.385945 -2.847200 1.868645 9.333333
-7.491893 -2.697258 1.828957 30.000000
-6.405369 -2.765984 1.864686 20.750000
-7.867988 -2.542809 1.899250 26.000000
-7.530328 -2.551803 1.826271 48.000000
-7.192296 -2.349415 1.878497 21.000000
-7.834416 -2.209535 1.869700 12.000000
-7.719101 -2.220622 1.844926 22.333334
-7.085505 -2.167592 1.839622 34.333332
-8.541800 -2.008179 1.851996 9.000000
-6.800160 -2.010426 1.895153 45.000000
-7.293667 -1.958498 1.874963 42.666668
-7.188196 -1.881764 1.844763 49.000000
-7.422379 -1.794291 1.895846 43.000000
-7.304195 -1.814329 1.868537 55.666668
-6.796285 -1.824873 1.880694 79.000000
-8.075156 -1.685517 1.894772 27.000000
-7.722579 -1.675344 1.815077 47.500000
-7.874201 -1.617775 1.846418 23.000000
-6.756161 -1.410205 1.844547 1.000000
-7.794846 -1.310032 1.815525 31.000000
-6.959325 -1.316229 1.892915 20.666668
-6.740871 -1.362897 1.838006 25.333334
-7.475119 -1.211989 1.880103 35.666668
-7.502804 -1.007753 1.879461 42.000000
-8.121430 -0.935374 1.877759 24.000000
-7.460922 -0.906834 1.865967 32.000000
-7.243732 -0.938254 1.813439 42.000000
-6.844169 -0.919287 1.845579 24.000000
-6.707255 -0.922357 1.809432 17.000000
18.011921 -0.928205 1.865093 0.000000
-8.088569 -0.803071 1.867013 8.000000
-6.828328 -0.829945 1.838350 55.000000
-8.123494 -0.677867 1.872386 1.000000
-7.231817 -0.718009 1.804282 18.000000
-7.585876 -0.417476 1.886207 40.000000
-7.476011 -0.434990 1.859220 53.000000
-7.350658 -0.381374 1.827414 55.000000
-7.932132 -0.286701 1.823136 25.000000
-9.639041 -0.257456 1.858769 1.000000
-8.032542 -0.189297 1.845523 15.000000
-7.888884 -0.161118 1.812391 40.000000
-7.483656 -0.129320 1.858256 12.000000
-8.132225 0.012773 1.867909 32.000000
-8.190459 0.064329 1.881341 19.000000
-7.553077 0.154260 1.875605 7.000000
-8.232119 0.297544 1.892086 28.000000
-7.505193 0.318496 1.865003 52.000000
-7.420815 0.291565 1.843799 1.000000
-10.295399 0.418892 1.800177 8.000000
-8.636858 0.407333 1.824943 14.500000
-9.740892 0.474704 1.879968 13.000000
-9.642061 0.510378 1.861292 34.666668
-8.634842 0.502417 1.825562 38.000000
-7.354487 0.451109 1.829342 4.000000
-9.567454 0.576861 1.847664 22.666666
-8.727703 0.544508 1.845663 37.000000
-7.588243 0.673257 1.891348 17.000000
-7.444921 0.691956 1.856329 4.000000
-7.816068 0.982508 1.809436 15.600000
-7.990759 1.098860 1.852686 44.000000
-8.878987 1.221005 1.891646 9.000000
-8.859519 1.275098 1.889168 33.000000
-8.805132 1.295516 1.878429 32.000000
-7.734608 1.322317 1.802362 26.400000
-8.669456 1.409398 1.853813 24.400000
-6.614208 1.380482 1.805817 6.000000
-10.293398 1.446644 1.816010 3.000000
-9.609854 1.661639 1.879968 0.000000
-8.770023 1.730143 1.886690 10.500000
-8.743499 1.682150 1.879255 20.000000
-8.582785 1.777400 1.849931 42.000000
-7.546278 2.153886 1.802541 25.000000
-7.590083 2.321972 1.823136 59.000000
-6.963693 2.298976 1.820667 50.000000
-6.929977 2.239659 1.808137 23.000000
-6.606699 2.320108 1.871399 31.000000
-6.533835 2.329067 1.853842 38.000000
-6.345305 2.327384 1.806334 28.799999
-6.936613 2.485031 1.829342 49.000000
-6.366325 2.447568 1.822858 57.333332
-6.292214 2.457028 1.805301 5.000000
-7.624484 2.583698 1.849105 45.500000
-8.358356 2.905780 1.867691 37.000000
-7.493386 2.844975 1.841045 41.000000
-7.671036 3.023246 1.893877 40.000000
-7.600257 2.995399 1.876416 33.000000
-7.656655 3.101266 1.897459 39.000000
-7.605977 3.080896 1.884923 28.500000
-7.453212 3.073513 1.851791 57.000000
-7.489943 3.227227 1.873282 24.000000
-8.385078 3.274264 1.899907 37.000000
-7.960543 3.312025 1.819780 38.000000
-7.550794 3.253381 1.888504 37.000000
-7.542000 3.405421 1.823235 2.500000
-7.407692 3.386803 1.870894 13.333333
-7.310867 3.398245 1.851791 36.000000
-6.887229 3.333867 1.899701 17.000000
-7.011961 3.677477 1.818659 17.250000
-8.675078 3.737872 1.820912 3.000000
-8.128614 3.747344 1.889168 16.000000
-9.728426 3.974059 1.835974 4.000000
-8.570585 4.082451 1.829997 1.000000
-8.581311 4.137292 1.836433 6.500000
-6.639006 4.420943 1.832091 7.000000
-9.641354 4.516338 1.860068 6.000000
-9.548290 4.436220 1.839416 1.000000
-7.606956 4.482626 1.863561 53.000000
-7.447438 4.460956 1.832289 33.428570
-6.591134 4.464226 1.828509 9.333333
-9.594289 4.829622 1.876590 12.000000
-9.212626 4.894167 1.822550 32.000000
-8.379803 5.027171 1.883754 25.500000
-8.325741 4.941500 1.866340 28.000000
-9.114792 5.102442 1.824959 33.000000
-7.211021 5.110376 1.865419 15.000000
-9.153633 5.162018 1.835974 17.000000
-9.072720 5.172879 1.824615 21.000000
-7.208879 5.185832 1.874299 39.000000
-10.849572 5.249561 1.889150 6.000000
-7.098266 5.277408 1.866865 37.000000
-7.113604 5.335346 1.876777 23.000000
-7.123585 5.483929 1.897428 24.000000
-6.610426 5.477385 1.811933 23.250000
-6.722868 5.651159 1.853648 47.000000
-7.676002 5.744472 1.848169 40.000000
-10.007135 5.894651 1.820397 0.000000
-8.421072 5.995629 1.806028 36.500000
-8.863235 6.123470 1.882097 33.000000
-8.779358 6.126797 1.870394 39.500000
-7.197235 6.083635 1.816653 29.500000
-8.166155 6.660124 1.841022 29.666666
-7.602213 7.295358 1.840793 19.000000
-8.351716 8.065157 1.819778 2.000000
-8.118775 8.175668 1.805945 17.333334
-7.933511 8.579417 1.831546 4.000000
-10.008165 8.681579 1.839615 16.000000
-10.495437 8.763104 1.898478 4.000000
-10.230234 8.987479 1.890776 4.000000
-10.122559 8.977724 1.878673 21.000000
-9.855033 9.049479 1.857769 11.000000
-9.957500 9.201393 1.882524 32.000000
-10.863388 10.553117 1.834129 4.000000
-10.408636 10.632665 1.801909 24.000000
-10.260059 10.770532 1.801429 29.666666
-10.365067 11.064730 1.836053 12.000000
-10.657639 11.448935 1.894241 3.000000
-10.431277 11.564797 1.886066 6.000000
-10.282122 11.581016 1.875486 0.500000
-10.450555 11.659607 1.896165 14.000000
-9.308882 12.389280 1.876688 3.500000
-11.131648 13.403375 1.801730 6.000000
-11.032434 13.628789 1.813251 3.000000
-10.929718 13.588972 1.803376 27.000000
-11.360035 13.854568 1.852750 6.000000
-11.152755 13.955816 1.847401 6.000000
-10.861532 14.408507 1.865916 59.000000
-10.801906 14.423450 1.863448 63.000000
-10.766035 14.470085 1.865093 54.000000
8.358580 15.273585 1.800496 23.000000
8.240540 15.400797 1.806256 39.000000
8.348974 15.428270 1.814074 10.500000
8.475679 15.372685 1.815308 19.000000
-9.060216 15.585775 1.864270 4.000000
8.044912 15.559872 1.811399 25.000000
8.285419 15.602310 1.826829 3.000000
-9.310330 15.674155 1.885254 5.000000
-9.248919 15.682762 1.882786 7.000000
7.863645 15.726556 1.818271 30.600000
8.004679 15.723612 1.824566 40.500000
8.179849 15.639959 1.825183 32.000000
-9.025403 15.752869 1.877437 6.000000
7.694328 15.782701 1.815720 43.000000
7.579557 15.862370 1.817983 35.500000
7.701624 15.839540 1.821343 33.333332
6.998793 15.981595 1.804199 38.333332
7.253963 16.013813 1.817983 34.500000
6.924413 16.226212 1.824360 49.000000
7.247811 16.180237 1.833412 49.666668
6.949361 16.427441 1.844521 41.000000
6.960802 16.599630 1.861390 45.000000
5.922918 16.716421 1.833961 31.000000
6.455750 16.704420 1.851927 33.000000
6.919739 16.722309 1.871471 46.000000
5.790414 16.759308 1.833618 34.000000
6.127475 16.789497 1.848224 14.000000
6.434538 16.806366 1.860979 42.000000
6.809865 16.829632 1.877437 38.000000
5.231525 16.931705 1.832589 24.000000
5.346195 16.925058 1.835469 18.000000
6.097688 16.872274 1.855219 11.000000
6.281409 16.881180 1.862625 32.000000
6.375737 16.890419 1.866945 39.500000
5.163593 17.027376 1.839995 36.000000
5.761929 16.935242 1.849870 17.000000
6.272370 17.020298 1.875791 44.000000
6.799436 16.957008 1.889266 33.000000
-13.389240 17.082077 1.863753 2.000000
-13.225561 17.093365 1.855882 1.000000
5.066524 17.060659 1.840406 28.000000
6.695511 17.084997 1.897598 40.500000
-11.997019 17.229349 1.802837 83.000000
4.494086 17.191544 1.837526 36.000000
4.582747 17.198982 1.840612 22.000000
4.704891 17.221661 1.846167 23.000000
5.000239 17.233543 1.855630 11.500000
4.412147 17.322205 1.848498 16.333334
4.929928 17.295191 1.859745 17.000000
4.282218 17.342527 1.847264 28.666666
-12.520908 17.508377 1.848353 0.000000
4.163803 17.491354 1.859333 0.000000
-13.062057 17.671698 1.887024 12.000000
-12.595088 17.729572 1.867517 5.000000
-12.109339 17.805122 1.849037 1.000000
-11.841476 18.075005 1.855540 1.000000
-10.940160 18.286909 1.829873 30.000000
11.506099 18.271458 1.854171 23.000000
-10.917250 18.379440 1.835690 32.000000
-11.974252 18.530642 1.894553 2.000000
11.431499 18.473097 1.865464 3.000000
11.360886 18.553970 1.868202 11.000000
-10.993076 18.640211 1.858277 26.000000
-10.900064 18.683189 1.857422 19.000000
-10.783049 18.684309 1.852459 5.000000
11.325036 18.692495 1.876757 15.000000
11.209411 18.766705 1.877100 2.000000
-10.823352 18.890995 1.869571 177.000000
-9.858648 19.035639 1.840824 2.500000
-10.925522 19.208965 1.897633 34.000000
-9.890574 19.319567 1.863753 26.000000
-9.891203 19.471348 1.875389 1.000000
9.685359 19.787729 1.891815 1.500000
9.817415 19.820465 1.899344 5.000000
9.518166 19.919498 1.895751 5.000000
8.154274 20.522058 1.896264 3.000000
8.356364 20.466433 1.898318 37.000000
3.248795 20.770086 1.805233 7.000000
3.491395 20.819565 1.812762 34.500000
3.628849 21.030678 1.832610 40.000000
2.956497 21.063246 1.826450 4.000000
2.849495 21.271009 1.842877 3.000000
3.747340 21.317486 1.858620 43.000000
3.884066 21.309202 1.859988 3.000000
4.023791 21.315706 1.862726 23.000000
3.819911 21.336992 1.861357 42.000000
3.964076 21.367426 1.866148 4.000000
-13.528489 23.960297 1.881625 2.000000
-13.447301 23.992233 1.880806 4.000000
-13.397087 24.079695 1.884354 1.000000
5.796152 26.967731 1.886264 61.000000
5.907091 26.934084 1.885627 66.333336
14.777857 32.099846 1.800666 38.000000
14.652794 32.910713 1.835678 8.000000
14.599344 33.069878 1.841988 25.000000
14.561057 33.265621 1.850334 15.000000
14.523274 33.465115 1.858883 52.000000
14.470170 33.631672 1.865600 19.000000
14.447511 33.871716 1.876389 17.000000
14.415704 34.093548 1.886160 27.000000
14.378015 34.304462 1.895320 30.000000
-0.663767 -28.589508 1.955580 3.000000
-0.484525 -28.617056 1.957217 5.000000
-1.467019 -28.467651 1.949303 26.000000
-0.975334 -28.500679 1.950122 4.500000
-3.251623 -28.319363 1.949303 10.000000
-0.746950 -28.335957 1.938387 2.000000
-0.299397 -28.120728 1.923105 3.000000
-0.385264 -27.940084 1.910825 5.000000
15.475366 -24.794632 1.998697 7.000000
14.057485 -24.715511 1.944391 8.000000
14.053724 -24.529257 1.933202 16.000000
14.295163 -24.502562 1.939888 25.500000
14.036964 -24.322535 1.920376 15.000000
14.692619 -24.212692 1.936750 11.000000
15.596505 -24.136232 1.965131 1.000000
14.166235 -24.020727 1.907004 27.000000
14.394738 -24.061378 1.917374 14.000000
14.652081 -23.975725 1.921468 11.000000
14.869710 -23.991734 1.930200 30.000000
14.190681 -23.890329 1.900182 29.000000
14.391996 -23.886147 1.907004 10.000000
15.715619 -23.824938 1.951759 9.000000
16.140997 -22.872843 1.914372 4.000000
16.305222 -22.952154 1.925288 6.000000
16.927071 -22.900696 1.947393 1.000000
17.065632 -22.937052 1.955034 4.000000
-2.618544 -22.805683 1.971211 2.000000
17.440830 -22.395664 1.941116 9.000000
17.216536 -22.251503 1.923924 1.000000
17.331556 -21.969200 1.913554 1.000000
17.506622 -21.906631 1.917647 8.000000
17.811663 -21.769409 1.923469 32.000000
17.907961 -21.631577 1.920376 41.500000
18.198870 -21.497374 1.926107 5.000000
19.181890 -20.999485 1.944937 13.000000
19.272070 -20.965567 1.947393 40.000000
19.518261 -20.190580 1.920376 9.000000
-1.775095 -19.171326 1.990996 6.000000
-2.868185 -19.122986 1.999637 7.000000
-1.711668 -19.141140 1.987293 16.000000
-3.101863 -19.046165 1.995522 0.000000
-3.135608 -18.879324 1.979064 4.000000
-1.573908 -18.941368 1.965487 3.000000
-2.636398 -18.782732 1.961372 0.000000
-2.398152 -18.798592 1.959726 1.000000
-4.175813 -18.574879 1.968778 9.000000
-3.374687 -18.514599 1.946149 10.000000
-3.811901 -18.010864 1.903769 15.000000
-2.136247 -16.336544 1.995229 8.000000
-1.198143 -16.276720 1.976474 20.000000
-2.068833 -16.217125 1.979840 0.000000
-1.273237 -16.251080 1.974069 26.500000
-1.341300 -16.142027 1.961566 17.000000
15.293951 -16.122099 1.908242 12.000000
-1.553403 -16.044521 1.952109 18.333334
-1.416457 -16.029922 1.948822 27.500000
-2.495175 -15.952069 1.955315 4.000000
-2.318193 -15.794148 1.933194 2.000000
-2.254458 -15.703086 1.921171 13.000000
-2.211185 -15.753348 1.926461 18.000000
-2.136959 -15.702123 1.919087 13.000000
-3.223865 -15.472228 1.913958 15.000000
-2.525778 -15.508869 1.902897 0.000000
-2.966960 -15.450762 1.905302 17.000000
-1.386007 -14.289856 1.993466 20.666666
-1.302014 -14.279186 1.990899 9.000000
-2.220145 -14.177547 1.992549 14.000000
-3.087972 -13.928937 1.980996 19.000000
-3.578280 -13.856127 1.987048 21.000000
-2.942498 -13.784195 1.957066 19.500000
-3.879437 -13.682189 1.974670 17.000000
-2.860930 -13.718414 1.945789 23.000000
-2.801884 -13.649714 1.934786 21.000000
-4.459442 -13.563384 1.982463 14.000000
-3.375335 -13.329348 1.909205 10.000000
-4.776106 -13.208254 1.950190 17.000000
-4.336150 -13.004628 1.903429 8.000000
-5.234853 -12.930717 1.936987 9.000000
-4.707500 -12.891732 1.905630 9.000000
-2.105443 -12.541220 1.993208 9.500000
-4.800947 -11.544894 1.959761 5.000000
-4.766867 -11.362127 1.931268 1.000000
-5.310768 -11.245175 1.949231 1.000000
-5.177546 -11.098152 1.919500 2.000000
-3.711600 -10.682273 1.975720 27.000000
-4.168215 -10.484896 1.971245 3.000000
-4.321668 -10.300967 1.951626 0.000000
-3.791081 -10.331707 1.922713 5.500000
-4.502210 -10.231943 1.953003 35.500000
-3.950783 -10.265366 1.921680 6.500000
-3.835861 -10.254186 1.912731 7.500000
-4.872747 -10.070950 1.954609 44.333332
-4.740317 -10.119496 1.952314 55.000000
-4.406399 -10.114543 1.927532 79.333336
-4.305852 -10.085170 1.915829 81.000000
-4.490589 -9.950253 1.907224 39.500000
-4.991661 -9.839103 1.927532 15.000000
-5.506540 -9.764561 1.958510 16.000000
-4.020061 -9.370327 1.965525 15.000000
-5.582429 -9.342353 1.901372 46.000000
-4.060994 -9.344109 1.964010 13.000000
-4.588158 -9.254949 1.991267 11.000000
-4.539965 -9.085895 1.957953 18.000000
-4.967872 -9.002998 1.982182 16.000000
-4.922583 -8.987558 1.975367 0.000000
-4.771138 -9.011113 1.965525 16.000000
-5.044277 -8.811371 1.957196 21.000000
16.320686 -8.865097 1.920639 46.000000
-5.167264 -8.737518 1.956818 20.500000
16.255339 -8.730684 1.908090 38.000000
-5.217278 -8.604577 1.939782 70.000000
-4.969907 -8.618549 1.917825 27.000000
-4.886547 -8.598385 1.906468 44.000000
16.304619 -8.625546 1.907473 45.500000
-5.809785 -8.076246 1.917825 4.000000
-4.709002 -8.010816 1.961309 21.333334
-6.184831 -7.947626 1.941296 3.000000
-5.058086 -7.779851 1.958556 33.000000
-4.827023 -7.685993 1.915601 49.000000
-4.693345 -7.685918 1.900733 33.000000
-4.996758 -7.632941 1.925514 27.000000
13.770753 -7.592460 1.904340 13.000000
-4.464625 -7.468716 1.998645 38.000000
-5.618610 -7.458856 1.970947 64.000000
-4.270668 -7.379267 1.958349 13.500000
-6.818999 -7.330416 1.929939 8.000000
-4.355579 -7.338550 1.960140 23.000000
-4.278693 -7.278306 1.939247 9.333333
-4.179730 -7.301176 1.932381 24.000000
-5.921208 -7.180447 1.964338 7.000000
-4.262151 -6.786639 1.989658 27.666666
-5.142835 -6.608641 1.923427 50.000000
-5.751407 -6.470243 1.988436 30.799999
-5.648009 -6.529301 1.982974 37.000000
-4.432219 -6.477810 1.948695 23.666666
-4.777682 -6.384137 1.979699 0.000000
-4.715250 -6.447215 1.983072 2.500000
-4.648799 -6.433929 1.970703 16.000000
-4.910615 -6.351302 1.993192 17.000000
-4.868862 -6.236245 1.964277 13.000000
-5.766732 -6.007194 1.912681 17.000000
-4.750171 -6.064391 1.960954 14.666667
-7.558889 -5.693965 1.997380 13.000000
-5.574142 -5.680214 1.975843 9.000000
-5.470553 -5.680754 1.958012 9.000000
-5.393675 -5.761790 1.959458 29.000000
-4.571893 -5.704354 1.953792 30.888889
-6.483596 -5.661984 1.977154 6.000000
-5.580991 -5.616163 1.965723 11.000000
-5.338965 -5.631957 1.926688 14.000000
-6.629835 -5.502243 1.978945 57.000000
-5.558029 -5.471403 1.936326 13.000000
-5.912116 -5.379602 1.984518 58.000000
-5.722211 -5.390453 1.951748 41.000000
-5.542926 -5.422433 1.925146 33.400002
-7.322519 -5.302567 1.908167 20.000000
-5.982249 -5.349644 1.992469 58.750000
-5.840958 -5.365395 1.969096 60.000000
-5.617695 -5.310983 1.919391 32.428570
11.760175 -4.890472 1.996305 12.000000
-6.837141 -4.821206 1.921636 10.333333
12.891297 -4.845521 1.912231 30.000000
12.954724 -4.822967 1.919383 3.000000
13.066463 -4.817882 1.933686 36.000000
-7.058465 -4.684308 1.945813 2.000000
-6.897239 -4.735025 1.921636 0.000000
-6.997666 -4.665018 1.931784 33.666668
-7.112477 -4.482350 1.931038 14.000000
-6.966910 -4.498496 1.904846 26.250000
-6.611753 -4.478175 1.982590 6.000000
-6.351674 -4.478954 1.929579 18.000000
-7.138453 -4.451945 1.932381 31.000000
13.464748 -4.395756 1.966693 27.000000
13.501112 -4.360741 1.969994 16.000000
-7.162936 -4.210834 1.908503 25.666666
-6.874636 -4.138869 1.992228 37.000000
-6.614429 -4.125134 1.935362 20.000000
-7.734314 -3.986849 1.998645 37.000000
-6.684116 -3.798613 1.937871 22.799999
-7.695295 -3.613782 1.952753 30.000000
-6.481545 -3.603137 1.981907 0.000000
-10.808830 -3.495327 1.984669 1.000000
-6.597106 -3.499615 1.995849 7.500000
-7.121283 -3.255868 1.944037 35.000000
-7.024726 -3.052981 1.901629 25.000000
-6.608147 -2.847283 1.923038 60.000000
-8.889088 -2.704121 1.961034 4.500000
-8.791578 -2.734908 1.943274 21.000000
-7.387143 -2.681413 1.951105 30.000000
-7.898443 -2.580119 1.908562 40.000000
-7.386843 -2.626702 1.946446 41.500000
-9.022489 -2.565002 1.979758 27.666666
-8.166938 -2.554565 1.965513 20.333334
-8.104538 -2.479355 1.946709 30.000000
-11.028195 -2.412600 1.972278 8.000000
-7.944370 -2.403085 1.906413 15.000000
-7.424498 -2.451105 1.941145 45.000000
-7.390096 -2.286178 1.920584 31.000000
-7.316513 -2.322326 1.905805 35.666668
-9.068809 -2.177305 1.968468 20.000000
-7.745535 -2.184468 1.998011 44.000000
-7.590457 -2.218167 1.963313 74.000000
-7.391460 -2.109697 1.908375 30.000000
-8.289732 -1.976423 1.957454 1.000000
-7.189521 -1.954699 1.991202 44.000000
-8.310135 -1.816360 1.953872 24.000000
-7.722530 -1.841192 1.971024 33.000000
-7.046996 -1.750484 1.940595 66.000000
-6.998548 -1.278162 1.901350 6.000000
-7.823881 -1.176268 1.964277 65.000000
-7.728055 -1.186699 1.941145 73.000000
-7.360755 -1.177684 1.992234 20.000000
-7.103527 -1.219662 1.926265 22.875000
-7.706385 -1.121561 1.933435 26.000000
-7.326177 -1.070203 1.978808 33.000000
-7.179749 -1.084090 1.940595 29.600000
-7.204351 -0.921664 1.941112 29.750000
16.451048 -0.899596 1.995229 2.000000
-7.101481 -0.806629 1.910128 17.500000
-7.816550 -0.676987 1.947892 30.000000
-7.652851 -0.469410 1.903556 73.000000
-7.975591 -0.187955 1.980662 7.000000
-8.298329 -0.152124 1.906413 26.666666
-8.039433 -0.088400 1.996083 35.000000
-7.762669 -0.158540 1.927652 27.000000
-7.744370 -0.085182 1.922833 51.500000
-7.854312 -0.017226 1.950013 53.000000
-8.413827 0.132160 1.932829 16.500000
-8.316534 0.056583 1.910294 32.333332
-7.977218 0.096121 1.980662 32.666668
-7.893501 0.053736 1.959779 16.000000
-9.391662 0.162292 1.982511 1.000000
-8.037054 0.214667 1.996083 27.000000
-7.734965 0.182285 1.920905 72.000000
-8.288191 0.508381 1.907309 13.000000
-10.314367 0.632662 1.992024 1.000000
-8.405561 0.621690 1.935963 37.000000
-9.396936 0.665339 1.988294 0.000000
-8.449833 0.705099 1.947604 2.000000
-8.323769 0.668252 1.918054 1.000000
-7.229844 0.752245 1.942661 5.500000
-8.392193 0.886527 1.938351 40.333332
-7.678802 0.847754 1.918014 86.500000
-7.573332 0.848343 1.963766 11.000000
-7.405901 0.864791 1.992751 15.000000
-7.316072 0.873722 1.969169 17.333334
-8.414899 0.942395 1.944918 1.000000
-7.325971 0.960579 1.974677 7.000000
-8.423498 1.185346 1.953872 46.000000
-7.820042 1.175691 1.963313 66.000000
-7.685846 1.180218 1.930543 65.000000
-8.940494 1.315335 1.907341 11.500000
-9.028390 1.415424 1.928818 23.000000
-9.213298 1.593071 1.973425 8.000000
-9.301827 1.698816 1.995728 33.000000
-8.902565 1.683768 1.912297 11.000000
-7.550676 1.825306 1.928616 37.000000
-9.762959 1.862388 1.915932 10.500000
-9.701326 1.908619 1.905963 22.666666
-7.502505 1.885325 1.920584 27.166668
-6.917257 2.307772 1.948858 39.000000
-6.804762 2.329699 1.922263 55.250000
-7.417400 2.422948 1.937290 34.000000
-8.310734 2.457018 1.990586 1.000000
-9.729200 2.645191 1.943568 7.000000
-7.429329 2.705508 1.962992 17.666666
-7.438838 2.827891 1.975843 15.428572
-7.319375 3.222121 1.985482 5.500000
-7.187379 3.218064 1.955121 1.000000
-8.451536 3.254406 1.911471 38.000000
-7.725464 3.271313 1.927009 41.000000
-6.929164 3.327339 1.908375 0.000000
-8.655124 3.411087 1.963512 42.000000
-7.680178 3.366566 1.926113 37.000000
-7.241438 3.393677 1.985481 23.000000
-7.144694 3.389468 1.963313 31.500000
-8.339967 3.439187 1.904037 0.000000
-9.396265 3.601243 1.939782 2.000000
-8.662296 3.540309 1.975077 11.000000
-6.970357 3.593048 1.946928 0.000000
-6.998871 3.644886 1.959137 27.000000
-8.061152 4.187436 1.917254 0.000000
-8.003988 4.375744 1.925308 32.750000
-6.630566 4.415330 1.977771 6.500000
-8.123471 4.471632 1.957179 20.333334
-6.584935 4.460032 1.974558 9.000000
-7.996805 4.594693 1.946578 40.500000
-9.036986 4.730449 1.966282 48.000000
-8.858803 4.672691 1.930696 71.000000
-8.693387 4.690700 1.904197 94.000000
-8.180023 4.648787 1.985815 32.000000
-8.162165 4.758240 1.994076 30.000000
