# This PCD file was generated using the MATLAB® pcwrite function
# from Computer Vision Toolbox®.
# .PCD v.7 - Point Cloud Data file format
VERSION .7
FIELDS x y z intensity
SIZE 4 4 4 4
TYPE F F F F
COUNT 1 1 1 1
WIDTH 1230
HEIGHT 1
VIEWPOINT 0 0 0 1 0 0 0
POINTS 1230
DATA ascii
12.458625 15.412601 2.049422 38.000000
12.583894 15.418467 2.058063 38.500000
12.797377 15.381749 2.069171 20.500000
5.972145 15.453078 2.006289 1.000000
6.058584 15.459896 2.010858 9.500000
7.597349 15.460281 2.086118 28.000000
7.685989 15.456306 2.090446 26.000000
11.829728 15.511881 2.017329 49.000000
12.747556 15.469522 2.072875 19.000000
6.410335 15.560345 2.038028 25.000000
6.521811 15.552624 2.042356 13.500000
7.555656 15.560173 2.094774 13.500000
6.557116 15.636947 2.053417 6.000000
6.952193 15.695787 2.078904 11.000000
11.775103 15.643123 2.024735 71.000000
5.760140 15.782988 2.034662 23.000000
5.908288 15.802319 2.043078 16.000000
6.835332 15.742723 2.078424 30.000000
-11.413795 15.854766 2.020209 38.000000
-11.313519 15.872730 2.015683 37.500000
5.525851 15.912781 2.039952 26.000000
5.634696 15.903145 2.043222 32.000000
6.025609 15.887581 2.057745 15.000000
-11.238629 15.925874 2.015683 16.000000
5.210157 15.968805 2.034181 19.000000
5.336132 15.985033 2.040834 11.000000
5.455726 15.980304 2.044921 32.666668
5.763166 15.946654 2.053417 24.000000
12.253918 15.963847 2.081104 39.000000
-11.231938 16.023003 2.023501 18.000000
4.921009 16.105947 2.039471 14.000000
5.035168 16.116304 2.044761 12.500000
5.158510 16.066889 2.043559 22.500000
10.926559 16.035767 2.006631 23.000000
10.990388 16.021048 2.009100 38.000000
-10.883490 16.165854 2.015272 4.000000
4.744123 16.160980 2.039711 32.000000
4.847934 16.138437 2.040673 35.500000
12.242276 16.157864 2.096327 1.000000
4.613276 16.281380 2.049329 6.500000
4.692732 16.269009 2.050532 15.000000
-11.019026 16.534771 2.054771 21.500000
-11.345926 16.626274 2.081515 58.000000
-10.595692 16.625502 2.038724 25.000000
4.254924 16.815271 2.100545 11.500000
-10.436249 16.838497 2.048599 4.000000
-10.692160 17.011772 2.077812 37.000000
-10.706079 17.153286 2.090978 71.000000
-10.290991 17.201797 2.072875 39.000000
-10.539040 17.245464 2.090018 12.666667
-10.293788 17.329828 2.084395 8.000000
-10.141482 17.509085 2.092418 7.000000
-9.865232 17.472305 2.074932 1.000000
-8.802262 17.600725 2.035021 19.000000
-9.129719 18.113039 2.097561 9.000000
4.011768 19.253607 2.033787 57.000000
4.450320 19.230511 2.041193 5.000000
4.580275 19.240875 2.045308 25.000000
4.653769 19.280540 2.051068 14.000000
2.752006 19.385197 2.024735 36.500000
2.938185 19.381998 2.027204 37.500000
3.072501 19.377277 2.028850 19.000000
3.963252 19.324581 2.039959 3.000000
4.096127 19.353794 2.045719 7.000000
2.641338 19.484909 2.033376 24.000000
2.858364 19.474388 2.035433 35.000000
2.565534 19.619455 2.046130 2.000000
4.224768 19.556826 2.069034 33.666668
2.514459 19.710302 2.054771 16.000000
-12.500440 20.028214 2.027336 4.000000
-10.962046 20.607937 2.004407 10.000000
10.741862 20.696623 2.002354 1.000000
-10.700562 20.901741 2.016385 26.000000
-10.580700 20.828657 2.006118 12.000000
-10.419357 20.998850 2.012963 33.000000
-10.407895 21.142326 2.023571 39.000000
-10.460355 21.418430 2.046843 33.000000
-10.420813 21.508575 2.052318 23.000000
-10.264263 21.442385 2.041367 29.000000
-10.142673 21.447308 2.037261 7.000000
2.318531 24.211733 2.088594 4.000000
2.243191 24.226833 2.089279 10.000000
16.905832 24.315248 2.025168 28.000000
17.014175 24.307789 2.028989 26.000000
17.143326 24.329247 2.035266 24.000000
17.344595 24.343103 2.043998 27.333334
17.499969 24.344818 2.050275 27.000000
17.632513 24.367311 2.056824 27.000000
17.758318 24.379538 2.062555 26.000000
17.889095 24.397646 2.068832 27.000000
16.876986 24.437197 2.030899 30.000000
18.024899 24.421598 2.075655 27.000000
18.223289 24.448301 2.085206 26.500000
18.422264 24.473818 2.094757 26.000000
16.852051 24.565786 2.037176 29.000000
16.835464 24.707649 2.044544 28.000000
16.813681 24.843042 2.051367 26.000000
16.791210 24.978537 2.058189 25.000000
16.767179 25.198605 2.069787 24.000000
16.732849 25.405634 2.080294 24.000000
16.714119 25.551584 2.087935 24.000000
16.696812 25.701015 2.095849 23.000000
-12.108089 26.904032 2.017527 3.000000
-12.436351 26.951782 2.029808 16.000000
-12.237075 26.963978 2.024896 12.000000
-12.628944 27.596720 2.075382 11.000000
4.478517 29.859495 2.064739 1.000000
4.675907 29.893850 2.069105 18.000000
15.228868 36.334507 2.007480 27.000000
15.197405 36.581383 2.018472 22.000000
15.163020 36.824722 2.029260 27.000000
15.130275 37.075607 2.040456 29.000000
15.096102 37.326645 2.051652 25.000000
15.059014 37.574123 2.062644 24.000000
15.021994 37.825451 2.073839 26.000000
14.944046 37.976540 2.079539 27.000000
14.169893 38.101692 2.071397 35.000000
11.276382 38.215336 2.030278 11.000000
12.582473 38.179955 2.048395 11.000000
14.756958 38.203842 2.086867 58.000000
11.549755 38.254635 2.036181 5.000000
12.754111 38.295631 2.056741 17.000000
13.995923 38.370113 2.081167 14.000000
14.948009 38.339664 2.096841 17.000000
11.759710 38.512356 2.051855 8.000000
12.010982 38.468212 2.053484 13.000000
11.582629 38.803677 2.063458 5.000000
12.233994 38.754097 2.070786 13.000000
12.379975 38.791588 2.074857 6.000000
12.137585 39.307327 2.096231 5.000000
15.316842 -39.901745 2.177857 11.000000
16.392506 -39.692535 2.188238 16.000000
15.364184 -39.652275 2.166865 7.000000
16.037680 -39.535618 2.173989 10.000000
16.160292 -39.481339 2.173786 6.000000
16.471029 -39.530212 2.182132 7.000000
17.097578 -38.949371 2.167475 23.000000
14.339298 -38.805779 2.108037 13.000000
18.957699 -38.800274 2.200452 3.000000
14.465329 -38.771767 2.108648 3.000000
14.581424 -38.711182 2.107833 23.000000
14.737045 -38.754795 2.112719 11.000000
14.817208 -38.600155 2.106816 11.000000
16.512918 -38.601921 2.139385 8.000000
16.304224 -38.447651 2.127985 4.000000
18.033640 -38.427849 2.162997 3.000000
16.553383 -38.362793 2.129003 7.000000
16.042482 -38.163559 2.109462 15.000000
15.865659 -38.077335 2.101930 11.000000
16.923405 -37.903702 2.115161 16.000000
17.266573 -37.713467 2.113533 13.000000
18.140467 -37.127666 2.105594 12.000000
18.272902 -37.102741 2.107426 2.000000
-2.886762 -31.177517 2.141150 5.000000
16.062277 -26.658281 2.128324 5.000000
16.248833 -26.216896 2.109221 1.000000
12.906233 -21.884226 2.181679 4.000000
13.008700 -21.744562 2.175861 2.000000
13.832249 -21.405973 2.188524 9.000000
13.687447 -21.328573 2.176203 2.000000
13.905950 -21.372433 2.189550 8.000000
13.044874 -21.195850 2.137190 15.000000
13.163887 -21.239450 2.145746 21.000000
13.896587 -21.211964 2.177572 10.000000
13.345083 -21.159027 2.148141 7.500000
13.122932 -21.025564 2.128292 14.000000
-2.178061 -17.972231 2.192395 19.000000
-2.027233 -17.903927 2.182056 19.000000
-1.826824 -17.891581 2.177969 23.000000
-1.432482 -17.921444 2.177247 10.250000
-1.261424 -17.904423 2.173640 7.666667
-2.109489 -17.876451 2.179892 20.000000
-1.763964 -17.830051 2.169793 22.000000
-1.536014 -17.807289 2.164504 4.000000
-1.893649 -17.718884 2.158011 24.000000
-1.696584 -17.716919 2.155366 18.000000
-1.612456 -17.718769 2.154645 16.000000
-2.785882 -17.628811 2.161378 15.500000
-2.641100 -17.608944 2.156328 7.000000
-2.502892 -17.563587 2.148474 23.333334
-2.842378 -17.452866 2.141421 13.000000
-2.901289 -17.300224 2.124349 7.500000
-2.181551 -17.317585 2.113769 17.500000
-2.253640 -17.234287 2.104873 22.000000
12.271575 -17.046295 2.172034 3.000000
12.840378 -16.922703 2.196720 17.000000
12.653028 -16.785036 2.173679 20.000000
12.857252 -16.834850 2.190549 18.000000
13.014130 -16.496500 2.172856 3.000000
12.611817 -16.406376 2.139941 10.000000
13.391534 -16.124453 2.167508 4.000000
13.795035 -15.886167 2.175737 21.000000
13.861224 -15.761304 2.170525 55.000000
13.943294 -15.655112 2.167919 56.000000
13.995062 -15.614193 2.168330 54.000000
-2.838134 -15.555510 2.195545 14.000000
-2.676568 -15.495675 2.183442 18.000000
-2.613977 -15.570620 2.192244 11.500000
-2.439585 -15.578862 2.189493 17.000000
-2.932598 -15.453245 2.183992 28.000000
-2.722490 -15.471581 2.181242 14.000000
-2.522759 -15.473289 2.176841 9.000000
-2.752209 -15.357656 2.166388 15.000000
-3.648585 -15.104502 2.157586 1.000000
-3.731006 -15.031292 2.150435 10.000000
-4.833226 -14.963952 2.183442 27.000000
-3.816510 -14.972962 2.145483 17.333334
-3.506541 -14.718916 2.100924 3.000000
-4.763283 -14.436643 2.110826 53.000000
14.937335 -14.061471 2.121425 41.000000
14.958190 -13.992733 2.118134 59.000000
15.070156 -13.920883 2.121562 60.666668
15.239878 -13.857458 2.130066 48.000000
15.410501 -13.793104 2.138706 1.000000
-2.988270 -13.682493 2.195130 4.000000
15.548010 -13.770258 2.147758 38.000000
15.650424 -13.744398 2.153930 6.000000
16.182577 -13.767587 2.197132 10.000000
-3.010713 -13.580444 2.180264 28.000000
-2.162629 -13.623656 2.162096 16.333334
16.177134 -13.675580 2.190549 2.000000
-3.557636 -13.484301 2.185839 24.666666
-3.074834 -13.533636 2.175309 15.000000
15.459697 -13.491107 2.121837 8.000000
16.262428 -13.486948 2.184788 43.000000
-3.606956 -13.442568 2.181503 27.000000
11.580509 -13.420887 2.146710 19.000000
16.309841 -13.354222 2.179851 52.333332
16.427526 -13.279028 2.184377 40.000000
-2.848866 -13.243662 2.123280 3.000000
12.541327 -12.973322 2.185182 4.000000
12.409442 -12.597118 2.141421 1.000000
12.637335 -12.588901 2.160176 2.000000
12.798169 -12.669267 2.180854 2.000000
12.541633 -12.572313 2.150558 5.000000
12.986620 -12.576092 2.189270 0.500000
-4.853961 -11.270617 2.143920 94.000000
-4.754854 -11.234428 2.131299 1.000000
-4.962554 -11.135612 2.129922 123.000000
-5.375252 -10.933589 2.128546 36.000000
-5.003408 -10.948580 2.103075 102.000000
-6.088299 -10.562264 2.129922 5.000000
-4.831891 -10.310301 2.194937 12.000000
-4.551599 -10.295512 2.169951 35.000000
-5.438473 -9.855843 2.169951 11.000000
-5.552188 -9.769650 2.166166 12.000000
-5.437554 -9.727140 2.148184 25.500000
-6.088080 -9.111454 2.112409 5.000000
-5.143076 -8.983953 2.184893 31.000000
-6.834668 -8.936124 2.168689 42.333332
-5.278824 -8.768097 2.160111 4.000000
-5.974141 -8.415760 2.178284 18.000000
-6.288410 -8.106943 2.165481 21.000000
-5.944344 -8.154602 2.129878 35.599998
-6.133126 -8.036319 2.133678 2.000000
-5.915455 -8.008884 2.101462 16.000000
-6.108273 -7.951833 2.116331 20.000000
-5.036261 -7.908391 2.153558 27.000000
19.724060 -7.909035 2.197543 0.000000
-4.982219 -7.878047 2.141021 26.000000
19.697042 -7.826461 2.191783 30.000000
-6.661556 -7.774916 2.160937 35.000000
-5.074040 -7.698110 2.117739 24.000000
-5.164897 -7.677613 2.125415 19.714285
19.475235 -7.596994 2.161747 19.000000
19.521275 -7.544378 2.164216 25.000000
-5.969884 -7.475668 2.197435 55.000000
-4.707862 -7.470181 2.192222 19.500000
11.571072 -7.417091 2.154250 20.000000
19.467848 -7.383480 2.153107 4.000000
-4.725533 -7.369258 2.173428 24.000000
11.444303 -7.285211 2.126377 1.000000
-5.049272 -7.208173 2.184994 32.333332
-4.936862 -7.207424 2.168930 24.333334
11.450431 -7.238662 2.123280 26.000000
-5.112399 -7.154104 2.183066 49.000000
-8.837152 -6.854810 2.155944 18.000000
-7.317694 -6.839415 2.114059 12.000000
-5.461570 -6.795166 2.164432 28.666666
-5.357339 -6.869390 2.162825 25.000000
-5.142870 -6.872116 2.131019 23.000000
-8.817980 -6.773613 2.143452 8.000000
-7.942114 -6.718739 2.195631 27.000000
-7.717683 -6.739685 2.162589 0.000000
-5.330808 -6.761960 2.137766 31.500000
-7.933225 -6.668570 2.187371 30.000000
-7.709412 -6.616065 2.144210 31.750000
-6.852637 -6.619826 2.188480 18.000000
-5.600489 -6.662587 2.160898 46.000000
-7.608479 -6.518955 2.114679 24.000000
-5.530070 -6.516247 2.121863 31.000000
-7.865027 -6.444331 2.146068 10.000000
-6.950795 -6.384871 2.167885 40.000000
-6.742137 -6.391343 2.133858 11.000000
-5.727766 -6.408409 2.133911 24.000000
-5.630617 -6.468031 2.129092 22.833334
-7.730445 -6.293569 2.103940 25.000000
-7.042095 -6.307427 2.171467 48.000000
-6.813490 -6.338139 2.137439 9.000000
-5.706017 -6.310504 2.112225 34.500000
-5.943473 -6.230366 2.137766 49.000000
-6.875500 -6.119392 2.114158 32.000000
-6.310472 -6.134523 2.184994 49.000000
-6.245478 -6.128823 2.172464 61.000000
-6.018581 -6.152412 2.136802 62.000000
-5.917314 -6.164054 2.121381 60.000000
-6.221191 -5.984838 2.143228 25.000000
-6.070347 -6.013405 2.121381 57.000000
-6.975748 -5.938925 2.104308 23.000000
-7.109366 -5.850132 2.114755 34.333332
-6.686156 -5.728707 2.185957 15.000000
-6.796226 -5.640334 2.192704 16.000000
-6.695413 -5.578079 2.163597 25.000000
12.711278 -5.521746 2.172212 2.000000
-6.958878 -5.389272 2.185234 28.500000
-6.171800 -5.430875 2.197138 21.200001
12.721304 -5.478658 2.170974 11.000000
-6.268789 -5.286334 2.191561 33.000000
-5.805680 -5.332989 2.106873 0.000000
12.958619 -5.269875 2.192652 15.000000
13.059924 -5.144440 2.200085 0.000000
-6.967751 -4.979226 2.126200 75.000000
-10.128569 -4.902885 2.169194 8.000000
-10.222139 -4.751466 2.172980 19.000000
-10.128920 -4.746886 2.156323 3.000000
-10.028726 -4.738416 2.138152 18.000000
-9.905293 -4.737311 2.116573 2.000000
-10.432018 -4.611949 2.198723 5.000000
-8.050096 -4.675824 2.138335 10.000000
-10.399273 -4.480784 2.182823 13.000000
-7.478697 -4.486520 2.165235 30.000000
12.649560 -4.529199 2.105937 6.000000
-7.515372 -4.428658 2.165717 26.000000
-8.762002 -3.742734 2.188480 27.000000
-8.685755 -3.742472 2.172362 32.000000
-7.208738 -3.701628 2.165741 42.500000
-7.088352 -3.682106 2.134758 79.000000
-8.687558 -3.678707 2.166989 15.000000
-7.220579 -3.593752 2.155586 52.833332
-10.797463 -3.564647 2.191908 1.000000
-7.301240 -3.520107 2.166258 50.000000
-7.747327 -3.454194 2.105960 41.000000
-7.424662 -3.468096 2.190115 17.200001
17.106647 -3.396517 2.112086 6.000000
-7.781106 -3.338194 2.102104 2.500000
-7.485562 -3.281257 2.184332 44.000000
-7.246646 -3.285700 2.126496 44.000000
-7.971768 -3.258075 2.138087 12.333333
-8.186264 -3.167028 2.179210 52.000000
-7.923140 -3.093883 2.111743 0.000000
-7.552698 -3.170306 2.189151 27.333334
-7.470647 -3.149607 2.166774 37.500000
-7.308102 -2.986846 2.109971 36.000000
-7.314383 -2.909268 2.103775 28.000000
-8.841399 -2.826751 2.132067 12.000000
-7.439650 -2.691746 2.114447 35.333332
-10.737976 -2.667328 2.132852 2.000000
-7.514773 -2.507119 2.117201 32.000000
-7.741413 -2.421560 2.167807 31.000000
-8.908034 -2.331992 2.115053 12.000000
-7.534562 -2.279123 2.103775 20.000000
17.856407 -2.334989 2.180854 8.000000
-7.918155 -2.224182 2.198102 10.000000
-10.009379 -1.601451 2.139460 2.000000
-7.901040 -1.511528 2.149906 29.000000
-10.118524 -1.456298 2.157633 3.000000
-8.051561 -1.470477 2.187430 40.000000
-7.851324 -1.382987 2.130627 80.000000
-8.470613 -1.029556 2.118490 32.000000
-8.001469 -0.777400 2.148529 36.000000
-7.843309 -0.753843 2.105840 63.000000
-7.866000 -0.613654 2.108643 28.571428
-8.125751 -0.575334 2.177102 1.000000
-8.712994 -0.205333 2.163789 12.000000
-8.206861 -0.128948 2.193627 32.500000
-8.196078 -0.064373 2.190528 29.000000
-8.902153 0.125861 2.127220 2.000000
-8.585788 0.598846 2.136802 19.000000
-8.482527 0.627336 2.111742 39.333332
-9.213657 0.739694 2.123112 10.000000
-9.137474 0.762479 2.106099 20.000000
-8.475997 0.740192 2.112385 37.000000
-8.518627 0.886375 2.126361 26.000000
-9.158059 0.996502 2.115949 26.000000
-8.611113 0.964369 2.151259 68.000000
-8.451941 1.000274 2.113028 44.000000
-8.583123 1.084341 2.147886 55.000000
-8.487786 1.140053 2.126200 81.000000
-9.073652 1.320387 2.106099 37.500000
-9.331245 1.492953 2.170571 48.000000
-9.218545 1.464995 2.144006 31.333334
-9.361687 1.618728 2.182212 29.000000
-9.210609 1.652230 2.149379 44.000000
-9.145132 1.699902 2.136544 43.000000
-8.351835 1.894443 2.126200 0.500000
-8.410311 2.117205 2.153187 36.000000
-8.343431 2.128266 2.137766 36.000000
-7.735482 2.155419 2.146119 39.000000
-7.596020 2.193917 2.113070 0.000000
-8.885009 2.505833 2.120426 20.000000
-9.068279 2.588301 2.166094 11.000000
-8.157987 2.580034 2.124272 62.000000
-7.781501 2.623301 2.194659 60.000000
-8.879142 2.962307 2.149976 29.000000
-7.627971 3.061785 2.196725 7.000000
-7.540651 3.118817 2.180889 18.166666
-8.782451 3.271399 2.152662 8.000000
-7.953844 3.476611 2.155115 11.333333
-7.904688 3.514264 2.147726 22.666666
-7.814954 3.548190 2.130858 14.500000
-8.753951 3.685053 2.181615 30.000000
-8.735020 3.666482 2.175944 11.000000
-8.360313 3.727498 2.102517 96.000000
-8.377563 3.894173 2.121993 59.500000
-8.443501 4.021916 2.148185 47.000000
-9.365874 4.168707 2.163746 58.200001
-6.767246 4.279727 2.139922 25.000000
-6.631935 4.311769 2.114102 27.000000
-7.264677 4.348956 2.102104 38.799999
-6.928180 4.335949 2.184331 28.500000
-9.180297 4.443861 2.152677 28.000000
-7.532158 4.567029 2.186921 43.000000
-8.802382 4.678340 2.103940 14.000000
-8.038752 4.703116 2.139230 8.000000
-7.525086 4.660297 2.197523 31.000000
-7.433192 4.668258 2.179210 39.000000
-7.125685 4.640705 2.111261 17.250000
-8.082797 4.797307 2.158930 40.000000
-7.336341 4.747937 2.169572 32.000000
-7.131882 4.814296 2.136320 13.750000
-6.528962 4.806515 2.166774 36.500000
-6.387516 4.843074 2.142332 37.333332
-6.271471 4.867302 2.121676 28.750000
-7.300403 5.011801 2.198487 28.000000
-6.952073 5.001093 2.126200 6.000000
-6.343106 4.968269 2.153348 37.000000
-7.240019 5.105381 2.199451 1.000000
-6.936327 5.022908 2.126200 5.000000
-6.369281 5.053664 2.172971 8.000000
-8.637329 5.200098 2.127895 50.000000
-8.523899 5.168359 2.103940 46.000000
-8.522844 5.241331 2.111787 48.000000
-7.041974 5.304583 2.188849 29.000000
-7.008816 5.355896 2.190005 33.000000
-8.646556 5.699190 2.185719 13.000000
-8.318261 5.634002 2.120461 54.000000
-9.291449 5.876078 2.119223 43.000000
-8.250476 5.895875 2.140286 47.000000
-8.257327 5.940051 2.146894 44.000000
-8.245054 5.990406 2.151025 41.500000
-6.907068 6.012709 2.103412 4.500000
-8.279768 6.095429 2.170024 51.000000
-8.367160 6.220803 2.200588 24.000000
-8.194036 6.132152 2.160111 12.000000
-8.574549 7.116203 2.147995 16.000000
-8.500243 7.039598 2.127552 13.666667
-8.807454 7.216523 2.194937 9.000000
-8.262840 7.215759 2.114681 10.000000
-8.667973 7.286190 2.182823 0.000000
-8.538282 7.269217 2.161623 0.000000
-8.230207 7.255908 2.115059 2.500000
-8.145185 7.295434 2.107866 8.000000
-8.247675 7.434065 2.140423 5.000000
-7.588945 7.880603 2.109002 5.000000
-9.323183 7.934649 2.138872 68.000000
-8.483863 8.534304 2.102386 26.000000
-8.570714 8.703370 2.134053 19.000000
-8.722462 8.913309 2.178799 24.000000
-8.575930 8.874431 2.156082 3.000000
-8.383114 8.867931 2.131988 6.000000
-9.607650 9.756355 2.146198 18.000000
-9.515986 9.764996 2.137114 21.666666
-9.749516 9.838405 2.170974 6.000000
-9.491558 9.852856 2.144340 13.000000
-9.029406 10.602012 2.182742 10.000000
-8.921479 10.677546 2.180884 3.000000
-10.725963 11.526364 2.186193 1.000000
-9.404171 12.080190 2.125679 0.000000
-8.870674 12.272440 2.102574 35.666668
-8.854718 12.386397 2.114126 37.000000
-8.818051 12.417387 2.114677 14.000000
-9.586641 12.421634 2.178674 27.333334
-9.106049 12.432728 2.139799 37.333332
-14.311023 14.991334 2.143232 1.000000
-9.743394 15.182717 2.184701 62.000000
-9.656919 15.364650 2.197685 21.000000
-9.517682 15.356305 2.187907 17.333334
-9.409249 15.396687 2.185182 6.000000
-9.315508 15.351487 2.174602 4.000000
-9.178101 15.341557 2.164984 15.000000
-9.092545 15.362406 2.161859 18.000000
8.578318 15.616863 2.157771 4.500000
7.501448 15.762498 2.114010 33.000000
7.554365 15.746013 2.114971 41.000000
7.162604 15.900438 2.111926 24.333334
7.298887 15.847046 2.112888 39.333332
7.450785 15.847935 2.120742 16.000000
7.056795 16.114019 2.130360 31.000000
-12.064229 16.538124 2.116899 29.000000
-12.009881 16.572720 2.116488 28.000000
-12.545379 16.751455 2.164216 19.000000
12.083175 16.809326 2.140764 37.000000
12.189121 16.789202 2.145495 20.500000
-11.425350 16.856150 2.105790 26.000000
-11.654946 16.964403 2.128420 28.000000
11.931091 16.932215 2.141998 39.000000
12.042993 16.921194 2.147758 46.000000
11.921187 17.031546 2.149815 37.000000
-11.507205 17.208740 2.140764 5.000000
4.674438 17.145697 2.152160 31.333334
-12.108932 17.274086 2.181497 4.000000
-11.978569 17.260687 2.172651 54.500000
-10.900888 17.223520 2.107848 4.000000
4.620766 17.232901 2.160656 33.000000
4.805329 17.268925 2.170755 32.000000
4.605227 17.393204 2.178930 16.000000
4.257072 17.516388 2.183018 34.500000
4.912309 17.441034 2.194319 15.000000
4.125661 17.576290 2.186384 37.000000
-11.241483 17.638802 2.162982 4.000000
4.144339 17.655617 2.196243 30.000000
3.423760 17.829603 2.198647 36.000000
2.355585 18.013906 2.200090 13.000000
2.463326 17.959410 2.195281 13.000000
-11.079232 18.129337 2.197132 6.000000
-10.495023 18.317932 2.183143 31.000000
10.500137 18.289742 2.180880 10.000000
-9.328940 18.364504 2.130066 48.000000
10.337578 18.338762 2.176971 11.000000
-9.488120 18.533440 2.153107 25.000000
-9.663054 18.729837 2.179440 18.000000
-9.364639 18.725235 2.165039 3.000000
-9.033167 18.794712 2.156399 26.000000
-8.952205 18.853203 2.158250 0.500000
-9.276795 18.994997 2.186023 27.000000
-9.171965 18.930952 2.175325 38.000000
-9.457860 19.061079 2.200423 14.000000
-9.369808 19.033585 2.193840 9.000000
5.105168 19.782948 2.112785 21.000000
5.051832 19.833590 2.116488 32.000000
4.980754 20.081200 2.139529 4.000000
2.036543 24.509027 2.111866 3.000000
18.556896 24.492161 2.101307 26.000000
18.694250 24.513073 2.108129 26.000000
1.960171 24.523249 2.112550 1.000000
2.193691 24.531473 2.114945 1.000000
18.831917 24.533365 2.114952 26.000000
18.969894 24.553026 2.121774 26.000000
19.110630 24.575218 2.128869 26.000000
19.244312 24.587339 2.135146 26.000000
19.388136 24.611399 2.142514 26.000000
19.524864 24.625420 2.149064 25.000000
19.671827 24.651297 2.156705 25.000000
19.811647 24.667158 2.163527 27.000000
19.949253 24.679279 2.170077 27.000000
16.670078 25.837177 2.102671 39.000000
16.634039 25.959980 2.108402 30.000000
16.635954 26.143417 2.119045 20.000000
16.613432 26.290010 2.126686 24.000000
16.598639 26.450239 2.135419 23.000000
16.574558 26.597088 2.143060 20.000000
16.551817 26.747438 2.150974 24.000000
16.530384 26.901308 2.159161 20.000000
16.508146 27.055305 2.167348 20.000000
16.491308 27.219666 2.176353 20.000000
16.471544 27.380768 2.185086 19.000000
16.444788 27.531733 2.193000 19.000000
-12.653237 27.997725 2.101034 8.500000
3.659496 31.871675 2.193819 5.000000
14.668137 38.695499 2.108648 53.000000
14.836744 38.772346 2.115365 20.000000
14.786623 39.380909 2.143456 16.000000
16.742203 -39.828129 2.201470 2.000000
18.891476 -38.974670 2.206966 4.000000
19.185400 -38.955551 2.212665 4.000000
19.311241 -38.902241 2.213072 3.000000
16.726618 -28.362196 2.251673 5.000000
16.793221 -28.271765 2.248671 10.000000
16.275047 -27.896036 2.208555 3.000000
-1.873202 -26.588005 2.288795 17.000000
-2.707832 -26.520014 2.289138 4.000000
-1.115433 -26.502916 2.277844 14.000000
-3.270662 -26.295860 2.275449 1.000000
-3.055750 -26.249449 2.269289 10.500000
-1.182842 -26.148932 2.247728 5.000000
-3.316947 -26.000818 2.250808 4.000000
-1.257861 -25.997801 2.235066 34.000000
-0.439954 -25.984636 2.231644 3.000000
-0.926654 -25.888086 2.224457 10.000000
-0.763739 -25.885431 2.223773 1.000000
-3.462253 -25.845163 2.239173 0.000000
-1.006733 -25.853191 2.221719 1.000000
12.569765 -23.630341 2.298378 25.000000
12.558922 -23.256332 2.269631 4.000000
12.677976 -23.128040 2.264840 8.000000
12.715286 -22.939060 2.252177 8.000000
13.451599 -22.973612 2.286057 2.000000
12.915511 -22.542629 2.230959 7.000000
13.286740 -22.051771 2.210768 6.000000
13.366285 -22.026960 2.212479 13.000000
13.408404 -21.940653 2.208030 12.000000
14.400012 -21.681965 2.235066 20.000000
16.159307 -21.021214 2.276818 7.000000
17.201347 -20.448980 2.294613 45.000000
16.845911 -20.283791 2.264155 12.000000
17.032228 -20.377548 2.280582 9.000000
17.565367 -20.100122 2.292217 1.000000
16.832901 -19.883827 2.237119 2.000000
-3.779175 -18.427027 2.277994 11.000000
-3.848010 -18.181477 2.250583 8.000000
12.605236 -17.394270 2.221407 22.000000
-2.247399 -16.363930 2.293467 40.000000
-2.036345 -16.348890 2.287599 32.666668
-1.726724 -16.373169 2.286040 36.500000
-1.597232 -16.378407 2.284940 25.500000
14.015386 -16.242714 2.218527 25.000000
-2.409312 -16.044460 2.252758 51.000000
-2.407448 -15.696104 2.204897 19.000000
-2.501646 -15.653280 2.201046 12.000000
-5.182481 -15.462129 2.264310 4.000000
-4.268177 -15.328202 2.209298 1.000000
-4.958904 -15.189744 2.218650 20.000000
-3.269639 -14.117393 2.271315 18.000000
-4.152571 -13.974054 2.284942 7.500000
-4.674806 -13.874878 2.294852 1.000000
-5.167979 -13.684031 2.292685 18.000000
-4.271245 -13.693347 2.248274 20.600000
-3.412918 -13.749795 2.220525 0.000000
-5.404423 -13.594529 2.292994 19.000000
-5.291097 -13.619942 2.290207 9.500000
-4.624132 -13.583295 2.249017 25.000000
-3.689577 -13.579898 2.205660 6.000000
-5.590783 -13.503968 2.290826 14.500000
-5.483800 -13.545602 2.290517 15.333333
-5.345759 -13.570996 2.286181 20.000000
-3.729078 -13.556808 2.203802 23.000000
-4.629507 -13.460331 2.231055 25.000000
-4.394209 -13.460012 2.219286 4.000000
-4.328900 -13.474913 2.218357 12.500000
-5.590902 -13.326267 2.265121 7.000000
-5.647472 -13.113287 2.237868 3.000000
-2.416988 -12.902722 2.293418 28.000000
-2.682785 -12.864192 2.295828 30.000000
-2.627303 -12.799219 2.282748 19.000000
-2.344512 -12.850021 2.282060 20.000000
-3.213012 -12.724621 2.292878 18.285715
-3.073508 -12.723783 2.286879 15.000000
-2.894958 -12.680730 2.272422 18.000000
-6.615548 -12.643621 2.236629 2.000000
-3.305802 -12.636909 2.282060 9.000000
-3.072225 -12.545669 2.256589 25.000000
-2.953140 -12.571489 2.256130 34.666668
-5.199257 -11.866740 2.263473 56.000000
-5.440680 -11.710234 2.255900 72.000000
-5.951094 -11.594512 2.276897 9.500000
-5.906204 -11.641767 2.280683 11.000000
-6.168999 -11.352427 2.257277 4.000000
-6.123950 -11.354412 2.253835 1.000000
-6.062713 -11.073774 2.205647 11.000000
-4.783847 -10.729572 2.264593 14.000000
-4.636209 -10.759982 2.258536 19.000000
-4.916653 -10.665044 2.263836 11.000000
-4.485558 -10.662931 2.229954 14.000000
-7.047135 -10.550767 2.216661 1.000000
-5.046727 -10.509746 2.247432 9.333333
-4.587801 -10.511250 2.210837 50.000000
19.407909 -10.542021 2.283947 0.000000
-4.881804 -10.416975 2.217651 19.000000
15.835498 -10.453491 2.297871 28.000000
15.896427 -10.350845 2.297230 40.500000
-6.079566 -10.098125 2.272165 1.000000
-6.527414 -9.886395 2.283711 40.000000
12.991594 -9.592235 2.242305 2.000000
-5.330759 -9.448998 2.289800 10.000000
12.956530 -9.441220 2.225985 64.666664
-5.284998 -9.299501 2.257585 23.000000
13.005208 -9.290239 2.219200 61.666668
-6.995720 -9.226547 2.232037 23.000000
13.105370 -9.207167 2.223876 64.500000
13.244462 -9.191363 2.238455 30.000000
-5.290537 -9.174568 2.235281 16.000000
-6.091268 -8.754402 2.250976 2.000000
-6.943707 -8.208047 2.269149 4.000000
-5.284147 -8.240393 2.248475 37.000000
-6.832455 -8.025270 2.224543 49.000000
-6.041583 -7.968151 2.296829 30.000000
-5.560059 -7.964248 2.231014 7.500000
-6.051283 -7.826396 2.272354 33.666668
-5.967250 -7.818970 2.259221 38.000000
-6.011945 -7.725464 2.248475 28.000000
-5.153454 -7.695266 2.299367 24.333334
-5.023553 -7.726735 2.288123 12.000000
-5.979442 -7.659220 2.231909 31.000000
-4.719347 -7.647118 2.231016 28.000000
-5.970600 -7.524926 2.206389 50.000000
-5.314618 -7.486691 2.279448 36.000000
-4.872905 -7.546795 2.230293 28.000000
-4.767002 -7.485578 2.203306 29.000000
-5.033321 -7.431391 2.228366 1.000000
17.336155 -7.462541 2.285689 20.000000
-5.107920 -7.316475 2.215354 13.500000
17.055676 -7.183605 2.241206 24.500000
-5.422845 -7.152107 2.228366 5.000000
-5.416375 -7.074054 2.211981 10.500000
-4.880521 -7.067544 2.295485 31.000000
17.067476 -7.062577 2.236878 54.500000
17.161242 -7.006868 2.244813 29.000000
-8.327585 -6.889238 2.281127 20.500000
-4.870803 -6.953729 2.269020 24.666666
-9.368237 -6.851462 2.237337 12.500000
-8.119346 -6.781606 2.232803 9.000000
-5.920152 -6.844049 2.246678 17.000000
-8.471158 -6.721383 2.282366 12.000000
-7.322097 -6.683650 2.277130 40.000000
-5.183596 -6.704371 2.264889 13.000000
11.215813 -6.725841 2.284813 5.500000
-7.236729 -6.626644 2.253848 15.000000
-7.085678 -6.674870 2.235939 21.000000
-5.487892 -6.604006 2.294839 18.799999
-5.188328 -6.602678 2.244233 11.000000
11.244014 -6.670900 2.284125 8.000000
11.360908 -6.596287 2.295139 4.000000
12.913944 -6.585762 2.272141 11.000000
-7.230739 -6.517447 2.235939 5.000000
12.821520 -6.555458 2.257069 31.000000
13.060123 -6.574270 2.291755 3.000000
-5.632504 -6.395552 2.277626 19.000000
-5.696588 -6.333323 2.276593 14.166667
13.049356 -6.364596 2.275651 8.000000
13.069287 -6.323568 2.275651 10.000000
-6.679763 -6.213741 2.264991 23.000000
11.247888 -6.204047 2.244198 11.000000
11.294972 -6.183817 2.249705 3.000000
11.542848 -6.272472 2.295139 0.000000
11.555560 -6.232437 2.293763 0.000000
13.149745 -6.210241 2.279367 7.000000
13.204976 -6.185662 2.285562 1.000000
-5.950493 -6.082810 2.274184 59.000000
11.620755 -6.126929 2.295139 1.000000
11.593237 -6.035083 2.283437 11.000000
13.190803 -6.028084 2.273174 11.000000
13.312677 -6.008155 2.289278 4.500000
-6.964247 -5.929134 2.270774 21.000000
-5.949214 -5.893409 2.238036 34.000000
-5.943132 -5.974179 2.252151 46.666668
11.581054 -5.921225 2.272422 15.000000
13.286733 -5.921193 2.279987 1.000000
-8.041771 -5.797755 2.277130 16.000000
-6.768091 -5.835877 2.218727 25.000000
-6.058802 -5.862144 2.253140 25.500000
11.275173 -5.809587 2.215973 8.000000
13.185989 -5.826714 2.259547 2.000000
-8.017843 -5.691789 2.258504 17.200001
-6.162519 -5.732584 2.249397 8.000000
-6.093634 -5.731232 2.235713 21.250000
-7.115723 -5.645941 2.255192 11.666666
13.308002 -5.583244 2.262024 13.666667
-7.366312 -5.512710 2.284267 32.000000
-7.284134 -5.541039 2.272220 32.000000
-6.462003 -5.571949 2.280380 15.000000
-7.289802 -5.441183 2.258437 26.799999
-7.017759 -5.425896 2.202342 22.000000
-6.499764 -5.405719 2.259380 24.333334
-7.395396 -5.355340 2.266919 0.000000
-6.263039 -5.354801 2.202233 22.000000
12.988469 -5.353460 2.201943 26.000000
13.528430 -5.378147 2.281845 2.000000
13.389738 -5.201611 2.251495 8.000000
13.428882 -5.144112 2.253972 9.000000
-8.611712 -5.074708 2.295934 6.000000
-8.364486 -5.047792 2.243998 26.666666
-10.482430 -4.594919 2.206294 12.000000
-10.482404 -4.555705 2.203265 33.000000
-7.984830 -4.571106 2.284267 28.000000
-7.775671 -4.508317 2.231498 39.750000
-7.336743 -4.401399 2.286577 26.500000
-7.408465 -4.330011 2.293364 22.714285
-7.336077 -4.184455 2.257143 14.000000
-7.514066 -4.115534 2.289675 31.000000
-7.424406 -4.157724 2.274184 25.000000
-8.826706 -4.002115 2.226089 6.000000
-8.817903 -3.964770 2.220716 27.000000
-7.622880 -3.485199 2.240102 2.000000
-7.666073 -3.389137 2.240102 8.000000
-7.667608 -3.318103 2.232872 18.500000
16.019217 -3.052907 2.264310 10.500000
-9.184441 -2.746731 2.201912 2.000000
16.207870 -2.694822 2.281364 9.000000
-8.851088 -2.526309 2.285231 7.000000
-8.844685 -2.374889 2.273665 9.000000
-7.932778 -2.210393 2.200856 6.000000
-8.918565 -2.096556 2.274629 6.000000
-8.138085 -1.512712 2.212217 22.000000
-8.436028 -1.313511 2.281757 10.666667
-8.257478 -1.321155 2.234938 0.000000
-8.245659 -1.345844 2.232872 0.000000
-8.444154 -1.251460 2.281413 5.000000
-10.748981 -1.169574 2.282091 6.333333
-8.289820 -1.166489 2.237348 14.333333
-8.334479 -1.066222 2.245610 9.666667
-8.974531 -0.962269 2.240895 3.500000
-8.215055 -0.923322 2.209377 21.625000
-8.322793 -0.852737 2.235971 40.000000
-8.285597 -0.560499 2.219446 83.000000
-8.399107 -0.435780 2.247761 31.333334
-8.578058 -0.283017 2.293806 30.500000
-8.506927 -0.325275 2.275216 27.666666
-8.868849 -0.181132 2.202342 54.000000
-8.263596 -0.194742 2.209118 46.000000
-9.234241 -0.159571 2.292942 0.000000
-9.130250 -0.100395 2.266919 1.000000
-9.063734 -0.007166 2.250293 16.000000
-8.337329 -0.026208 2.228225 39.000000
-9.015717 0.212467 2.238968 4.000000
-8.920547 0.298364 2.215974 26.142857
-8.916808 0.430582 2.216387 32.428570
-9.768669 0.568388 2.247580 4.000000
-9.727589 0.535342 2.237730 1.000000
-8.971988 0.522034 2.231257 26.000000
-8.371053 1.044155 2.254561 34.000000
-8.470351 1.205516 2.286577 25.000000
-8.376412 1.151893 2.259725 59.000000
-8.971639 1.284091 2.250132 20.583332
-9.830853 1.367623 2.279816 20.000000
-9.024454 1.414807 2.267882 10.000000
-9.614026 1.476304 2.234148 18.000000
-9.099679 1.485236 2.289087 2.000000
-8.964766 1.492147 2.256316 27.000000
-8.848104 1.529925 2.229329 2.000000
-9.077419 1.702030 2.292942 35.000000
-9.415230 2.073462 2.214448 2.000000
-8.282847 2.189236 2.289675 45.750000
-8.177707 2.223368 2.264889 66.000000
-8.712071 2.545938 2.253425 41.000000
-7.850013 2.756729 2.223577 9.000000
-7.908935 2.833364 2.245266 1.000000
-7.685430 3.042850 2.209118 0.500000
-8.514750 3.371306 2.273665 2.000000
-7.711404 3.481749 2.261274 14.750000
-10.871067 4.284417 2.252479 4.000000
-7.203019 4.398466 2.255594 24.000000
-7.096392 4.394806 2.230807 27.000000
-7.245124 4.455489 2.273151 24.000000
-8.479649 4.644393 2.220716 58.000000
-7.581696 4.646101 2.207644 29.500000
-7.579584 4.727055 2.217763 36.000000
-6.996182 4.802950 2.267987 0.000000
-6.806713 4.761520 2.220066 31.600000
-9.508941 4.863878 2.254281 3.000000
-8.308613 4.966695 2.223403 36.000000
-6.866251 4.932777 2.259518 28.000000
-6.608612 4.945671 2.206020 22.000000
-8.537819 5.031165 2.276234 33.000000
-8.371834 5.058247 2.246684 41.000000
-7.300620 5.062736 2.205716 8.500000
-7.083693 5.693402 2.256316 36.000000
-7.046942 5.627513 2.238968 27.000000
-8.408859 6.607637 2.257172 0.000000
-8.236572 6.620010 2.230325 9.000000
-8.977824 7.262319 2.225980 5.000000
-8.688394 7.444227 2.205537 6.000000
-8.867057 7.670121 2.260051 6.000000
-8.783387 7.992256 2.289200 7.000000
-8.587140 7.988048 2.260808 24.000000
-8.392302 8.005855 2.235822 6.000000
-8.753204 8.065929 2.294500 9.500000
-10.155040 8.159030 2.275864 4.000000
-8.605509 8.132093 2.282386 3.500000
-8.323621 8.245543 2.258536 3.000000
-9.673519 8.391446 2.237314 47.333332
-9.842873 8.430408 2.264161 17.000000
-8.041102 8.429245 2.245665 14.000000
-9.659959 8.540501 2.252688 26.000000
-8.130771 8.577037 2.278222 0.000000
-8.009618 8.556267 2.259293 21.000000
-9.660988 8.650061 2.265538 18.000000
-8.016826 8.837952 2.300179 9.500000
-7.750888 9.046310 2.296393 19.000000
-8.875724 9.127107 2.224234 8.000000
-11.332092 9.252145 2.292994 2.000000
-11.086082 9.375104 2.275651 7.000000
-11.983852 10.866293 2.246156 8.000000
-12.144494 10.942634 2.269812 3.000000
-11.915340 10.941375 2.246156 2.000000
-10.455063 11.967989 2.206547 33.000000
-10.931713 12.047541 2.258809 22.000000
-10.954829 12.149505 2.271462 14.000000
-10.797024 12.152441 2.257159 54.000000
-10.759440 12.238590 2.262660 46.000000
-10.002845 12.602367 2.234054 34.000000
-10.608522 12.696659 2.297318 10.000000
-9.507480 12.783181 2.212049 4.000000
-9.663912 12.824446 2.229653 1.000000
-9.476694 12.825731 2.214249 18.000000
-9.368607 13.192666 2.246706 15.000000
-9.404766 13.332107 2.265411 9.000000
10.272825 15.302507 2.232021 31.000000
-9.726382 15.367788 2.202494 13.000000
10.180859 15.352474 2.230867 3.000000
9.953298 15.497806 2.230546 7.333333
10.076818 15.511012 2.240004 24.000000
9.879021 15.524890 2.228462 7.000000
9.838271 15.677469 2.241446 7.000000
9.902324 15.669984 2.244813 7.000000
-10.295453 15.769032 2.280639 39.500000
-10.127253 15.780853 2.270781 65.000000
10.310269 15.761747 2.280880 18.000000
10.357552 15.725963 2.280399 2.000000
3.827510 17.808241 2.205860 33.000000
3.874971 17.757332 2.201051 29.000000
3.975906 17.816364 2.210669 17.000000
4.054520 17.774223 2.207784 25.000000
3.484323 17.842144 2.201532 25.000000
-12.373664 18.010536 2.259672 2.000000
2.622254 18.063278 2.210429 17.000000
3.410452 18.066591 2.226539 42.000000
3.773864 18.111837 2.240485 45.000000
2.792340 18.149839 2.223846 23.799999
3.637282 18.170109 2.244092 33.500000
2.943634 18.255072 2.239283 30.000000
3.065506 18.279293 2.244572 39.000000
3.740082 18.236414 2.254431 42.000000
3.869390 18.282482 2.263087 68.000000
12.392587 18.310658 2.286416 28.000000
-11.063663 18.362175 2.216881 7.000000
12.009789 18.359875 2.268724 0.000000
12.310602 18.375423 2.287239 5.000000
12.506060 18.353834 2.296702 2.000000
-10.920435 18.517036 2.223053 2.000000
3.208889 18.423985 2.264770 35.500000
-10.874265 18.571857 2.225522 10.000000
3.423365 18.561022 2.285689 24.333334
-10.306637 18.802074 2.217293 32.000000
-10.527669 18.852543 2.232928 94.000000
-10.019101 18.835260 2.206184 9.000000
-10.323575 18.974161 2.233751 101.000000
-10.144014 18.926430 2.220584 27.000000
-9.946325 19.057966 2.223053 2.000000
-10.866819 19.246214 2.285593 65.000000
-10.636862 19.260700 2.275307 67.000000
-10.400040 19.258566 2.263375 87.000000
5.922642 20.532923 2.209887 0.000000
6.011642 20.598244 2.218939 6.000000
6.616026 20.606520 2.238071 15.000000
6.502458 20.698948 2.243625 9.000000
6.121392 20.731894 2.235397 34.000000
6.218376 20.819307 2.246917 5.000000
6.417839 20.771181 2.248151 15.000000
6.322874 20.929165 2.260906 5.000000
-12.491156 23.482563 2.284004 15.000000
-10.835894 23.678551 2.236093 10.000000
-10.894844 24.412878 2.295640 9.000000
-10.448029 24.542423 2.290506 2.000000
6.942108 25.568840 2.275106 51.000000
7.030850 25.577644 2.277844 2.000000
6.830215 25.633982 2.278015 55.500000
16.427427 27.699965 2.202279 19.000000
16.397017 27.847727 2.209920 20.000000
16.381954 28.023125 2.219744 19.000000
16.353931 28.177998 2.227931 20.000000
16.325096 28.332968 2.236118 9.000000
3.792342 32.137440 2.212922 5.000000
-2.997741 -27.639595 2.387356 27.000000
-2.744974 -27.452209 2.369104 35.666668
-4.011305 -27.329535 2.371956 3.000000
-2.621312 -27.373577 2.361347 44.000000
-2.528688 -27.310249 2.355187 37.000000
-3.565523 -27.266666 2.361347 15.000000
-3.304547 -27.267408 2.358609 5.000000
-2.436132 -27.242638 2.348685 41.000000
-2.343684 -27.170744 2.341840 27.000000
-4.393319 -26.976011 2.346973 8.000000
-2.151013 -26.910820 2.318227 2.000000
-1.635639 -26.819288 2.307276 0.000000
-1.382397 -26.825550 2.306591 11.000000
-1.548614 -26.776550 2.303169 2.000000
12.815263 -23.910381 2.329520 9.000000
13.007440 -23.966688 2.341612 13.666667
12.520575 -23.838121 2.312181 19.666666
13.185719 -23.525526 2.315831 16.000000
13.241923 -23.452755 2.312751 6.000000
13.495531 -23.215591 2.305907 5.000000
13.801247 -23.234709 2.320622 4.000000
14.065094 -23.178562 2.328151 5.000000
14.362703 -23.173697 2.341156 2.000000
15.346105 -22.794420 2.359636 2.000000
15.990340 -22.811142 2.392147 16.000000
16.250978 -22.724262 2.398992 10.000000
-4.721926 -22.661842 2.393804 28.000000
-4.612367 -22.609928 2.386261 30.333334
15.106054 -22.590740 2.333627 4.000000
15.992991 -22.663109 2.381880 11.000000
-4.760962 -22.495089 2.377758 37.000000
-4.433331 -22.513256 2.372820 22.000000
-3.518918 -22.497026 2.354716 25.000000
-4.310613 -22.447977 2.363768 24.000000
-3.582052 -22.438713 2.349779 35.000000
-4.801512 -22.339981 2.362945 3.000000
-3.816158 -22.325386 2.342167 18.500000
-3.677381 -22.358746 2.343196 31.500000
16.255394 -22.283539 2.368534 2.000000
-4.145103 -22.149281 2.330235 45.500000
15.717902 -22.125410 2.330547 13.000000
16.000559 -22.079557 2.341498 9.000000
16.430677 -21.796326 2.343894 2.000000
16.598745 -21.733837 2.348342 4.000000
17.244152 -21.302359 2.353476 1.000000
17.149887 -21.050335 2.331573 10.000000
17.101715 -20.723921 2.307276 13.000000
17.564207 -20.747681 2.334311 17.000000
17.606653 -20.275572 2.305907 8.000000
-4.262568 -18.960783 2.353495 5.000000
-4.363709 -18.856253 2.343877 4.000000
-4.306214 -18.877611 2.344839 9.000000
-5.265342 -18.471888 2.326084 4.000000
-2.714233 -16.983477 2.388088 6.000000
-3.028269 -16.898104 2.383687 8.000000
-2.921886 -16.915422 2.383504 8.000000
-2.649218 -16.917549 2.377636 1.000000
-2.766847 -16.804335 2.364708 15.000000
-2.206782 -16.853069 2.360032 28.000000
-1.989248 -16.832254 2.353431 28.000000
-1.454094 -16.823278 2.344628 16.000000
-2.455673 -16.710491 2.345179 25.000000
-2.409364 -16.761261 2.351230 24.000000
-1.927309 -16.759701 2.342428 34.000000
-1.495978 -16.696295 2.327574 21.000000
-3.898820 -16.596643 2.367183 2.000000
-3.515684 -16.596968 2.355631 18.000000
-3.095306 -16.668308 2.353981 3.500000
-1.864520 -16.675112 2.329775 45.000000
-1.545131 -16.656006 2.322623 17.000000
-4.056005 -16.563011 2.367734 15.000000
-3.838615 -16.574072 2.362232 1.000000
-3.066386 -16.512573 2.331976 6.000000
-2.329675 -16.576500 2.324274 33.000000
-2.212833 -16.496567 2.311071 24.000000
-1.745167 -16.548594 2.310521 25.000000
-3.559031 -16.419502 2.332801 10.500000
-4.275557 -16.343939 2.345729 15.000000
-4.235573 -14.674484 2.393955 0.000000
-4.393144 -14.450552 2.367321 35.000000
-4.008038 -14.393970 2.341926 7.000000
-5.141373 -14.218394 2.369799 20.000000
-5.074036 -14.171227 2.359269 16.000000
-4.997799 -14.097708 2.344404 18.000000
-4.663692 -13.986966 2.310956 3.000000
-5.166227 -13.876737 2.320867 18.000000
-5.091162 -13.807620 2.306621 12.000000
-2.163692 -13.493222 2.387500 22.333334
-2.670485 -13.437698 2.393581 18.000000
-2.594785 -13.386284 2.382223 33.500000
-6.648899 -13.208373 2.317770 6.000000
-2.887602 -12.928785 2.314415 28.000000
-2.775057 -12.900990 2.305465 32.333332
-5.122513 -12.263844 2.321987 35.500000
-5.401979 -12.121716 2.318545 9.500000
-5.152627 -12.174259 2.309596 63.000000
-5.853891 -12.002258 2.333002 0.000000
-5.487712 -11.974879 2.301335 56.666668
-5.747510 -11.878711 2.305465 25.000000
-4.542226 -11.472345 2.378542 4.500000
19.299519 -11.363750 2.316040 38.000000
-4.577834 -11.268340 2.344597 29.000000
19.313293 -11.249634 2.311309 47.500000
19.416103 -11.187315 2.317275 51.000000
19.627291 -11.227014 2.338259 61.000000
19.696085 -11.157047 2.340864 43.000000
19.950977 -11.163935 2.364180 8.000000
-4.973768 -11.061968 2.338036 7.000000
-4.719639 -11.049004 2.316079 30.000000
19.524670 -10.804874 2.307606 1.500000
15.973246 -10.774076 2.333297 23.500000
-6.486066 -10.327662 2.350907 0.000000
-5.751261 -9.286688 2.305495 16.000000
-5.285130 -9.001272 2.397568 8.000000
-4.932830 -8.983943 2.354138 20.666666
-5.262737 -8.803849 2.355929 1.000000
-5.303326 -8.715618 2.343393 10.500000
-4.555734 -8.380149 2.368120 17.000000
-6.237009 -8.279797 2.381002 3.000000
-5.983902 -8.373653 2.363988 15.000000
-5.890731 -8.353738 2.347870 34.000000
-4.595167 -8.327566 2.361374 13.000000
-6.012033 -8.247579 2.344288 46.000000
-5.931638 -8.263936 2.336528 49.666668
-4.680267 -8.235415 2.351735 33.000000
-4.584008 -8.225654 2.337920 22.000000
-4.919268 -8.113086 2.355591 10.000000
-5.291498 -7.973399 2.375831 41.000000
-5.187372 -7.870052 2.340169 16.000000
-4.671650 -7.650451 2.395707 27.666666
-4.538151 -7.673595 2.382626 43.000000
-4.715606 -7.508822 2.369716 45.000000
-4.645067 -7.500492 2.357839 28.000000
-6.912117 -7.477487 2.338916 3.000000
-6.765126 -7.411354 2.304888 10.000000
-5.970641 -7.333788 2.347880 53.000000
-4.722762 -7.314056 2.326855 35.666668
-4.581118 -7.294442 2.302069 28.000000
11.540528 -7.295619 2.385320 1.000000
-4.868372 -7.261102 2.336409 23.750000
-4.708795 -7.222720 2.304341 27.799999
11.542671 -7.195864 2.376371 4.000000
11.560054 -7.257232 2.384632 8.000000
-8.778666 -7.101216 2.383144 4.000000
-8.728898 -6.881305 2.345972 8.000000
-5.455474 -6.890521 2.348888 66.666664
-5.212869 -6.920223 2.315495 1.000000
-5.380325 -6.780984 2.313429 27.000000
-5.259026 -6.846272 2.307232 28.000000
-8.703572 -6.729310 2.322016 15.000000
-8.619259 -6.729362 2.307973 11.500000
-5.786449 -6.710766 2.368167 37.000000
-5.456103 -6.744996 2.318593 52.000000
11.720183 -6.706781 2.359161 0.000000
-7.982893 -6.667636 2.389061 1.000000
-5.712537 -6.667286 2.346478 75.000000
-5.637896 -6.580158 2.315839 31.666666
11.443021 -6.595985 2.307531 9.000000
11.470535 -6.516171 2.304777 8.000000
11.552730 -6.514942 2.317168 1.000000
-8.044096 -6.382533 2.358616 39.000000
-7.217663 -6.383403 2.392216 10.000000
-6.975774 -6.448340 2.358482 12.000000
-6.006315 -6.456782 2.356806 51.000000
-5.777446 -6.409388 2.306200 9.500000
-5.960100 -6.305326 2.318875 51.363636
-7.154355 -6.208233 2.351735 6.000000
-6.054744 -6.202291 2.316528 59.000000
-6.226567 -6.129521 2.335118 51.000000
11.877202 -6.025648 2.326806 29.000000
-7.212896 -5.909997 2.315110 5.000000
-9.399819 -5.821322 2.333581 9.000000
-9.371387 -5.763062 2.322016 8.000000
-6.599156 -5.726456 2.335118 35.000000
12.486039 -5.706013 2.398400 74.000000
12.360346 -5.601700 2.370864 18.000000
-7.787426 -5.528101 2.371012 14.000000
-7.651692 -5.504376 2.340169 4.000000
12.284437 -5.520844 2.352965 16.000000
12.493322 -5.497153 2.384632 22.000000
-7.103695 -5.456769 2.393986 5.000000
12.262131 -5.464582 2.345393 28.000000
12.318974 -5.305388 2.343328 10.000000
12.538516 -5.353304 2.381878 10.000000
-7.255514 -5.236712 2.391404 10.000000
-7.135827 -5.253299 2.368167 43.000000
12.424639 -5.258597 2.357096 8.000000
-8.265918 -4.905993 2.386433 36.000000
12.817468 -4.932966 2.399433 6.500000
12.496202 -4.697015 2.332313 7.000000
-7.415065 -4.496032 2.317560 24.000000
-9.185206 -4.304617 2.329961 9.000000
-9.120908 -4.239590 2.310261 10.000000
-7.602602 -4.195132 2.320659 28.000000
-8.752996 -4.048611 2.394336 21.600000
-7.863147 -3.535486 2.304134 69.000000
16.409094 -2.993874 2.316022 21.000000
16.501719 -2.903760 2.326474 2.000000
-9.243663 -2.827837 2.399927 15.000000
16.460518 -2.816656 2.318773 13.000000
-9.176573 -2.588062 2.367157 3.000000
-9.002144 -2.356629 2.310291 0.000000
-9.384965 -2.113272 2.388361 4.000000
-9.087860 -2.106454 2.316074 5.000000
-8.703916 -2.133053 2.395019 11.000000
-10.172330 -1.890838 2.376525 11.000000
-8.762321 -1.915300 2.397084 3.000000
-9.905861 -1.873524 2.315634 1.000000
-8.762984 -1.800378 2.390888 2.000000
-10.322083 -1.485595 2.395329 4.000000
-8.725584 -1.565262 2.369199 32.000000
-8.636242 -1.493292 2.342347 17.000000
-8.942952 -0.633195 2.396052 8.000000
-8.787581 -0.552913 2.353191 43.000000
-9.500040 -0.373258 2.360410 30.000000
-8.703323 -0.232463 2.326855 36.000000
-8.690960 0.013651 2.322724 27.000000
-8.968928 0.070443 2.397084 16.000000
-8.810234 0.096876 2.354740 34.000000
-8.698603 0.040993 2.324790 26.000000
-10.981199 0.483274 2.319951 2.000000
-10.945584 0.533413 2.312930 0.000000
-9.317251 1.400787 2.339206 10.000000
-8.551735 1.340697 2.313429 4.000000
-8.528147 1.378193 2.308782 45.000000
-8.572312 1.454514 2.323757 61.000000
-8.547781 1.505666 2.319626 31.000000
-9.230779 1.816012 2.335671 39.333332
-9.141734 1.758766 2.311255 42.000000
-9.169985 1.914039 2.325712 34.000000
-9.224798 2.046780 2.345952 40.000000
-8.520792 2.417605 2.367134 33.000000
-9.096725 2.627357 2.350771 28.000000
-8.523299 2.666138 2.386757 34.000000
-9.888024 2.755204 2.357720 0.000000
-8.912074 2.757044 2.316074 44.000000
-9.184958 2.873109 2.389324 24.000000
-9.140747 2.985891 2.387397 1.000000
-9.065757 3.087999 2.377759 9.000000
-9.288280 4.211397 2.342498 2.000000
-9.388459 4.292426 2.371152 29.000000
-8.308524 4.516795 2.347880 37.000000
-8.321532 4.557792 2.355591 56.000000
-8.920510 4.705240 2.316530 14.000000
-8.313089 4.621306 2.361374 54.000000
-8.888471 4.724095 2.312052 7.000000
-8.082305 4.797015 2.333423 23.000000
-9.004317 4.968601 2.362197 1.000000
-7.485556 4.933942 2.396052 1.000000
-7.121549 5.055411 2.334085 7.000000
-8.583127 5.278319 2.314440 37.333332
-8.573760 5.375310 2.324365 13.250000
-8.437296 5.410410 2.302202 31.000000
-8.342165 5.688508 2.319216 0.000000
-8.470166 5.992786 2.383240 52.000000
-8.206805 6.428021 2.394433 7.000000
-8.629878 6.715761 2.307973 7.000000
-8.593588 7.086525 2.350928 6.000000
-9.811558 7.390909 2.367942 28.250000
-8.196020 7.720842 2.376535 10.000000
-8.251667 7.724474 2.385622 17.000000
-8.171725 7.746551 2.376535 14.000000
-8.099399 7.923215 2.391404 4.000000
-7.931759 8.082788 2.390165 3.000000
-8.742649 8.184089 2.308507 10.000000
-7.735833 8.316012 2.397187 7.000000
-8.623448 8.383013 2.318350 4.000000
-8.781867 8.809504 2.397849 11.000000
