# This PCD file was generated using the MATLAB® pcwrite function
# from Computer Vision Toolbox®.
# .PCD v.7 - Point Cloud Data file format
VERSION .7
FIELDS x y z intensity
SIZE 4 4 4 4
TYPE F F F F
COUNT 1 1 1 1
WIDTH 1226
HEIGHT 1
VIEWPOINT 0 0 0 1 0 0 0
POINTS 1226
DATA ascii
13.383227 14.853150 3.492963 39.000000
6.827967 14.975588 3.473800 35.666668
6.696162 15.018492 3.470634 36.000000
6.254698 15.167521 3.462786 40.000000
6.379658 15.132355 3.466091 35.500000
6.553217 15.121894 3.478481 31.666666
6.251438 15.295783 3.487568 36.000000
6.330883 15.216453 3.478481 22.000000
6.561859 15.229151 3.499958 35.000000
9.679962 15.253080 3.482446 25.000000
-8.816264 15.400300 3.420740 19.000000
9.578255 15.322560 3.483330 36.000000
12.134798 15.700594 3.466803 4.000000
12.196160 15.677945 3.470245 26.000000
-15.026935 15.746780 3.411618 15.000000
11.874886 15.873487 3.463361 5.000000
11.507744 15.950070 3.436169 26.000000
11.707978 15.996965 3.463361 29.333334
11.186611 16.083441 3.422745 36.000000
11.498714 16.150455 3.463706 40.500000
11.216660 16.235212 3.447528 0.000000
11.401353 16.210506 3.462443 36.000000
-10.944095 16.372807 3.440644 3.000000
-14.071936 16.522774 3.401708 8.000000
-14.068457 16.624218 3.413477 5.000000
-14.087378 16.753019 3.430820 4.000000
-13.988026 16.794903 3.425865 14.000000
-13.943949 16.903332 3.434536 8.000000
-13.903298 16.962339 3.437633 31.000000
6.314873 16.953007 3.487368 6.000000
-10.027498 17.132545 3.468180 35.000000
-9.322503 17.141373 3.408977 23.000000
-9.790001 17.219515 3.460608 14.000000
-9.444477 17.236399 3.433760 19.000000
-9.190137 17.284136 3.419992 8.000000
-9.655229 17.393454 3.475580 35.250000
-13.920906 17.425932 3.495856 1.000000
-9.370930 17.491360 3.466803 24.000000
3.649888 17.486275 3.443454 5.000000
2.807228 17.545715 3.425283 3.000000
8.426285 17.555548 3.402093 3.000000
-8.867470 17.949860 3.497781 5.500000
8.266575 17.939823 3.450970 15.000000
7.977398 18.053040 3.448216 1.000000
8.259308 18.073219 3.471622 2.000000
11.517259 18.604425 3.429581 35.000000
11.485657 18.684278 3.437633 36.000000
11.627914 18.651987 3.445066 10.000000
11.321182 18.745132 3.432368 21.500000
11.482492 18.811342 3.454357 26.000000
-10.523066 19.062504 3.412857 2.000000
5.299737 19.149176 3.471278 9.000000
-10.544785 19.244488 3.439491 4.000000
-10.471053 19.253222 3.435156 12.000000
-10.463079 19.383390 3.452498 30.000000
4.579461 19.494020 3.498470 2.000000
14.501288 19.900820 3.419021 4.000000
14.308480 20.030155 3.417920 3.000000
14.309681 20.165480 3.433324 3.000000
-12.124852 25.431690 3.411942 3.000000
-11.934464 25.442659 3.403286 4.000000
11.696101 25.605513 3.409057 1.000000
11.347748 25.692345 3.401363 6.000000
-12.664447 25.726225 3.472535 1.000000
11.279720 25.756968 3.405210 4.000000
-11.051394 25.847118 3.404248 11.000000
-10.973243 25.889021 3.405210 2.000000
10.906003 26.007868 3.415308 2.000000
-10.662085 26.061623 3.410019 2.000000
10.481366 26.139107 3.410500 7.000000
10.616364 26.118824 3.414347 3.500000
11.280951 26.206661 3.455223 4.000000
10.328561 26.234005 3.414347 2.000000
10.413858 26.208809 3.415308 7.000000
9.597629 26.556593 3.419636 6.000000
9.386350 26.758284 3.434063 2.000000
9.471693 26.732407 3.434544 8.000000
9.953789 27.009958 3.486000 2.000000
4.267107 27.853159 3.412423 1.000000
14.658180 37.928421 3.491713 2.000000
15.711200 -38.750206 3.590616 8.000000
14.913498 -38.509079 3.546127 11.000000
15.290508 -38.403843 3.549549 18.000000
15.451200 -38.455460 3.558789 25.000000
16.128971 -38.388058 3.575558 20.000000
16.258823 -38.359211 3.577612 17.000000
16.535814 -38.340469 3.585483 3.000000
15.752115 -38.160782 3.545100 19.000000
15.896440 -38.169971 3.550576 18.000000
17.444555 -38.119789 3.599856 11.000000
15.580852 -38.084663 3.533465 17.000000
16.970827 -38.027748 3.575901 8.000000
16.780315 -37.920521 3.560843 16.000000
17.487419 -37.898335 3.584114 12.000000
16.520189 -37.651894 3.530727 19.000000
16.285765 -37.436829 3.505744 16.000000
18.073519 -37.303764 3.559474 5.000000
17.588249 -37.191429 3.532780 15.000000
17.675846 -37.074829 3.526963 5.000000
0.503158 -34.731129 3.591940 3.000000
0.609323 -34.562294 3.574659 5.000000
0.716828 -34.508495 3.569311 4.000000
0.824373 -34.470272 3.565608 2.000000
-1.890099 -29.467707 3.575927 6.000000
-2.802278 -29.263351 3.560058 8.000000
-2.235924 -29.124884 3.537456 0.000000
-5.902915 -28.782259 3.558134 1.000000
-7.543583 -28.133390 3.527357 5.000000
15.155482 -25.332994 3.574965 7.000000
15.553617 -25.095192 3.575446 2.000000
15.427159 -24.460024 3.502110 11.500000
15.556143 -24.408852 3.505236 2.000000
16.396946 -23.866623 3.506678 8.000000
16.616919 -23.864151 3.521586 7.000000
16.591516 -23.668756 3.500427 49.000000
17.578754 -23.626713 3.566309 4.000000
17.569098 -23.306513 3.534570 4.000000
17.800072 -23.155640 3.536975 1.000000
18.109316 -22.955076 3.540822 25.000000
-2.604490 -22.648399 3.573280 7.000000
-2.312843 -22.612509 3.562751 0.000000
-3.316332 -22.567144 3.575138 17.000000
-3.207170 -22.562931 3.572042 29.500000
-2.522345 -22.558289 3.557795 1.000000
-2.163553 -22.551855 3.550982 2.000000
12.616403 -22.518982 3.584058 23.000000
12.757189 -22.275307 3.564253 26.000000
19.533035 -22.070312 3.569195 1.000000
19.245722 -21.608521 3.504274 11.000000
-2.597467 -16.568161 3.539609 14.000000
-2.488078 -16.549322 3.532174 27.000000
-4.888855 -15.980746 3.527218 1.000000
-2.740189 -15.414625 3.596128 30.000000
-6.445304 -15.355274 3.514827 16.000000
-2.802038 -15.207321 3.551803 10.500000
-2.589717 -15.262728 3.555832 20.000000
-2.619056 -15.146955 3.530760 29.000000
-2.513591 -15.101583 3.516433 8.000000
-2.426249 -15.063197 3.504493 31.666666
-4.124041 -14.982035 3.569264 1.500000
-3.521235 -14.872829 3.510612 17.000000
-4.380917 -14.648790 3.511955 35.000000
-5.571601 -14.401710 3.546878 4.000000
-2.647006 -14.240355 3.596035 6.000000
-2.009787 -14.282701 3.580935 5.333333
-3.669147 -14.015853 3.596998 8.000000
-2.882170 -13.954206 3.537562 24.000000
-3.075213 -13.859938 3.524711 18.000000
-4.389644 -13.729747 3.578686 41.000000
12.597047 -13.713592 3.589581 1.000000
-4.503024 -13.639843 3.566156 41.000000
7.610841 -13.690845 3.597919 11.000000
-4.224479 -13.505109 3.513145 1.000000
12.117130 -13.528496 3.500996 17.000000
12.975900 -13.432243 3.600181 5.000000
-5.023380 -13.357405 3.543024 10.000000
7.621920 -13.378909 3.536730 3.333333
7.909287 -13.326056 3.559414 0.000000
7.913108 -13.237563 3.542401 0.000000
13.049563 -13.256172 3.585795 12.000000
-5.765582 -13.041488 3.540133 13.000000
8.095428 -13.071864 3.531655 20.000000
8.198133 -13.053757 3.540610 4.000000
8.286272 -13.011852 3.543296 8.000000
-3.300997 -12.940887 3.569291 21.000000
8.335892 -12.954609 3.538371 13.000000
8.811694 -12.922304 3.592546 1.000000
12.939415 -12.939397 3.527496 10.500000
12.913752 -12.792614 3.504025 17.000000
9.080116 -12.706386 3.587173 2.000000
-4.079716 -12.623507 3.545537 21.000000
-3.999153 -12.645207 3.544504 23.000000
-3.529784 -12.667876 3.514553 24.000000
9.178066 -12.674343 3.594337 1.000000
9.190635 -12.525277 3.568369 15.000000
-4.654366 -12.435480 3.548635 40.500000
-4.848716 -12.302881 3.534176 41.000000
-4.714484 -12.359060 3.535209 46.500000
9.178438 -12.345269 3.533446 1.000000
-5.766543 -12.106119 3.583750 32.000000
-5.495855 -12.172028 3.569291 39.500000
-5.588667 -12.023261 3.543471 60.000000
-5.469626 -11.963247 3.515586 59.000000
19.342758 -11.558072 3.531781 41.000000
19.340849 -11.433609 3.521561 52.000000
19.771849 -11.396888 3.576997 1.000000
19.440598 -11.369272 3.529923 26.000000
19.824705 -11.344529 3.580094 45.000000
19.891697 -11.258720 3.582571 53.500000
19.753401 -10.734150 3.523729 1.000000
15.740978 -9.748416 3.569139 2.000000
17.857016 -9.631097 3.544593 22.000000
15.808397 -9.517427 3.557024 24.000000
18.255220 -9.442411 3.590716 28.000000
12.593553 -9.301742 3.596128 62.000000
18.306555 -9.359877 3.592093 55.000000
12.578710 -9.229843 3.583591 48.000000
15.991356 -9.088046 3.545667 2.000000
16.295807 -8.530107 3.545667 17.000000
16.277214 -8.455333 3.535825 2.000000
16.288055 -8.331432 3.526739 25.000000
16.362339 -8.175799 3.525982 5.000000
16.757828 -8.046997 3.583524 5.000000
12.172753 -7.698270 3.575794 1.000000
16.872343 -7.194618 3.535825 48.599998
11.251525 -7.115668 3.557930 0.000000
12.572507 -7.145080 3.590252 34.000000
11.270552 -7.078229 3.556897 1.000000
12.561080 -7.086472 3.580613 9.000000
12.644250 -7.081119 3.597962 0.000000
16.936626 -7.077762 3.538475 44.500000
11.203099 -6.938099 3.521783 12.000000
11.439938 -6.903815 3.571012 17.333334
11.443644 -6.792048 3.556553 21.333334
11.369601 -6.699881 3.526947 3.000000
11.475356 -6.641367 3.543471 25.000000
11.429916 -6.448313 3.507324 12.000000
13.043412 -6.162808 3.581577 12.000000
13.080285 -6.130037 3.586396 40.000000
12.945790 -5.968093 3.539169 54.000000
12.198055 -4.985387 3.521783 19.000000
16.280260 -4.591508 3.570172 0.000000
16.264444 -4.531935 3.563564 12.000000
16.214451 -4.463160 3.549521 7.000000
16.126423 -4.384475 3.527218 38.000000
16.136417 -4.116121 3.514827 2.000000
16.435328 -3.502455 3.546768 86.666664
16.289396 -3.346696 3.509871 39.000000
16.372671 -3.043364 3.514827 1.000000
16.793888 -2.795269 3.593302 15.000000
-9.573602 9.161486 3.541406 1.000000
-9.423757 9.161008 3.512488 9.000000
-9.594238 9.268284 3.565160 8.000000
-9.593825 9.385133 3.586848 0.000000
-9.285100 9.432105 3.537275 2.000000
-9.214879 9.479177 3.533144 15.000000
-9.065323 9.593057 3.527463 16.000000
-9.050420 9.668103 3.539340 12.000000
-8.959463 9.631413 3.515586 11.000000
-9.936235 10.189153 3.533386 1.500000
-9.559487 10.406798 3.508327 12.000000
-9.584328 10.499857 3.529531 2.000000
-11.478430 10.543871 3.580009 10.000000
-11.318782 10.595634 3.561205 8.000000
-11.202530 10.913021 3.592247 20.333334
-10.532235 11.180444 3.528074 2.000000
-10.542832 11.405169 3.567473 4.000000
-16.280626 12.020661 3.535644 10.000000
-9.390950 12.385586 3.570160 19.000000
-10.395865 12.934471 3.502436 5.000000
-10.124780 13.137844 3.500784 6.000000
-14.742094 13.708796 3.517057 4.000000
-11.709734 14.291228 3.561567 1.000000
8.428770 14.303503 3.504089 10.000000
8.348561 14.373101 3.508219 40.000000
8.283366 14.469428 3.518957 33.000000
8.228827 14.585954 3.534652 36.000000
8.226949 14.690273 3.553651 4.000000
10.612448 15.303477 3.589960 32.000000
10.440989 15.311668 3.572546 48.000000
13.228316 15.346800 3.539774 26.000000
13.333268 15.370648 3.554919 33.000000
10.519600 15.426938 3.599424 25.000000
6.313550 15.587408 3.549521 36.000000
9.607086 15.567427 3.526360 36.500000
-10.081637 15.667602 3.591474 54.500000
-9.987640 15.683497 3.584281 53.000000
6.268924 15.618063 3.551999 22.000000
9.061780 15.790735 3.509577 27.000000
9.016243 15.865009 3.517653 41.000000
-12.825556 16.054792 3.590028 8.000000
-9.231513 16.008793 3.562324 7.000000
8.937361 16.077129 3.545856 21.000000
-8.824426 16.111462 3.541124 15.000000
9.095660 16.122454 3.568381 30.000000
8.515543 16.226553 3.532544 39.333332
8.619427 16.217611 3.540367 13.000000
8.513273 16.388748 3.560053 3.000000
-11.676356 16.442390 3.523252 6.000000
-15.335157 16.636007 3.546337 4.000000
-11.570876 16.962271 3.587274 16.000000
6.630383 16.979778 3.513868 11.000000
11.040923 16.988544 3.539774 20.000000
6.523036 17.181046 3.542639 13.000000
11.066560 17.145639 3.565245 28.000000
-10.199340 17.301226 3.508796 25.000000
11.055168 17.246666 3.579013 38.000000
-14.136925 17.358307 3.508863 3.000000
-9.969373 17.407509 3.504665 8.000000
-14.035007 17.456028 3.510721 7.000000
5.365667 17.839550 3.591095 22.000000
9.077693 17.893110 3.505354 1.000000
-13.638592 17.981220 3.537355 2.000000
-9.459447 17.926262 3.541151 78.000000
-8.985449 17.974859 3.510861 10.000000
8.964640 18.090849 3.527383 19.000000
9.021428 18.062597 3.527383 6.000000
9.079902 18.037685 3.528071 19.000000
3.135897 18.136038 3.547939 6.000000
13.629566 18.338848 3.581332 11.000000
8.806414 18.496252 3.579013 35.000000
12.440842 18.881866 3.544169 4.000000
12.108623 19.065382 3.540039 15.666667
4.542201 19.611956 3.517057 15.000000
10.885097 20.031178 3.573280 22.000000
10.777673 20.134014 3.579474 23.000000
15.098486 20.857740 3.575256 7.000000
15.221107 20.819941 3.581032 9.000000
-11.815141 22.735413 3.557652 31.000000
-11.819930 22.920313 3.580757 10.000000
2.831340 25.321756 3.537847 2.000000
2.998755 25.374290 3.547750 5.000000
15.075327 37.940437 3.505744 3.000000
17.039324 -39.169067 3.667959 8.000000
17.857492 -39.022141 3.685070 9.000000
17.225424 -38.926388 3.655297 3.000000
17.693638 -38.987324 3.676514 17.000000
18.367033 -38.524586 3.664879 2.000000
18.045065 -38.469650 3.648794 9.000000
17.787956 -38.233456 3.621074 11.000000
-0.267999 -35.708572 3.692745 4.000000
-0.042865 -35.084877 3.628148 2.000000
-2.026127 -30.107435 3.654313 3.000000
-2.187267 -29.713923 3.608147 1.000000
13.752807 -26.452698 3.610551 20.000000
14.393187 -26.453880 3.647099 1.000000
-1.233149 -26.244949 3.648147 7.500000
-1.067333 -23.504515 3.687868 5.000000
-1.825881 -23.408871 3.680229 36.666668
-1.703452 -23.420740 3.680642 35.333332
-1.505095 -23.401350 3.675480 1.000000
-1.138104 -23.437893 3.677958 13.000000
-2.113836 -23.317173 3.669699 22.333334
-1.981242 -23.349964 3.673003 43.000000
-1.281229 -23.355309 3.666189 0.000000
-0.289467 -23.360941 3.661853 10.000000
-1.200100 -23.209251 3.642652 12.000000
-0.872616 -23.241638 3.645440 8.000000
13.090186 -23.193466 3.697933 11.000000
-0.687926 -23.178680 3.634600 3.000000
13.063119 -22.976572 3.669877 13.000000
-2.879843 -22.828119 3.606418 8.000000
-2.735387 -22.837917 3.605179 4.500000
13.143874 -22.784218 3.652273 33.000000
13.455439 -22.661541 3.659425 5.000000
13.528601 -22.622559 3.659975 10.000000
13.247711 -22.580153 3.635036 28.000000
13.048182 -22.455059 3.606063 14.000000
13.608829 -22.435486 3.643471 14.000000
13.419717 -22.281279 3.611564 14.000000
13.592239 -22.171772 3.611014 15.000000
13.709083 -22.127726 3.614315 2.000000
19.990181 -22.162420 3.614399 2.000000
-2.406987 -20.930933 3.680897 0.000000
15.990458 -20.944944 3.658875 2.000000
16.124170 -20.847193 3.659425 3.000000
16.948713 -20.414820 3.684180 1.000000
-2.907401 -16.814558 3.601562 2.000000
-3.205734 -15.603292 3.658809 82.000000
-3.318184 -15.412318 3.621200 1.000000
-4.725021 -15.273506 3.672241 6.000000
-3.684299 -15.240698 3.601500 3.000000
-4.733407 -15.132084 3.641796 14.000000
12.258842 -14.724045 3.693309 1.500000
12.473489 -14.558207 3.695580 3.000000
-3.261160 -14.482690 3.685670 21.000000
-2.882464 -14.412360 3.649045 11.666667
-1.845575 -14.426846 3.610974 27.750000
12.490059 -14.393518 3.673623 13.000000
-2.804954 -14.336692 3.626877 19.000000
12.651662 -14.214894 3.668323 27.000000
12.795952 -14.196387 3.684223 28.000000
-4.586209 -14.115040 3.684707 5.000000
12.359682 -14.108526 3.615702 29.500000
7.773091 -14.086740 3.695523 5.000000
12.396179 -14.016257 3.606995 32.000000
12.773685 -13.993871 3.652423 7.000000
-5.140905 -13.935033 3.687598 11.000000
-4.085697 -13.981049 3.616275 1.000000
7.633287 -13.936709 3.649855 6.000000
-4.654366 -13.806252 3.617239 12.000000
10.339067 -13.815489 3.642038 5.000000
13.080787 -13.885851 3.677409 7.000000
-5.259900 -13.788784 3.663984 9.000000
12.960642 -13.629087 3.625545 14.500000
-5.714426 -13.495075 3.638443 1.000000
-5.503207 -13.586767 3.639407 3.000000
-2.688411 -13.515562 3.682897 17.000000
-5.896023 -13.450647 3.646153 24.000000
-5.578818 -13.408849 3.605673 16.000000
-3.327687 -13.396419 3.689093 14.000000
-3.216335 -13.366516 3.674290 20.666666
-2.725142 -13.370181 3.646749 28.000000
8.758735 -13.379652 3.673136 0.000000
-3.323532 -13.202273 3.638487 17.000000
-4.271742 -13.077145 3.676700 6.000000
-4.020128 -12.994957 3.635389 7.000000
11.288967 -13.050768 3.642038 5.000000
-4.277672 -12.957242 3.646749 12.000000
8.937042 -12.930825 3.610455 0.000000
11.352392 -12.917608 3.629648 4.000000
-4.111823 -12.860791 3.608536 19.000000
-5.158849 -12.736588 3.672569 0.000000
-5.551682 -12.557657 3.669471 14.000000
-5.861423 -12.206384 3.618864 4.000000
-6.041083 -12.137732 3.623512 3.500000
-5.985166 -12.072906 3.601307 0.000000
12.504791 -12.004240 3.658559 2.000000
15.900960 -10.624680 3.686495 1.000000
15.936117 -10.527903 3.681826 40.000000
12.564943 -9.841554 3.665973 0.000000
12.560787 -9.732679 3.649855 53.333332
12.557840 -9.615116 3.632841 67.500000
12.594692 -9.518377 3.626125 61.500000
12.662063 -9.444880 3.628364 54.500000
12.951029 -9.440593 3.681195 17.000000
16.577929 -8.944963 3.631224 7.000000
18.873852 -8.696973 3.630643 0.000000
16.831335 -8.344168 3.621381 7.000000
16.899761 -8.312051 3.630466 18.000000
19.162205 -7.898090 3.621006 14.000000
19.388094 -7.707622 3.645100 0.000000
17.171162 -7.591290 3.619109 29.000000
17.419342 -7.044965 3.622138 71.833336
-11.695459 -6.991272 3.641585 6.000000
17.503469 -6.961937 3.631224 16.000000
11.994193 -6.816419 3.687028 49.000000
12.252502 -6.170406 3.666372 4.000000
12.402779 -6.124467 3.696839 14.000000
13.289581 -6.177277 3.638443 2.000000
12.655206 -5.547381 3.692880 5.000000
12.666205 -5.457551 3.685995 10.000000
16.859818 -4.089638 3.661657 20.750000
16.938824 -3.982322 3.672602 39.000000
16.718678 -3.875182 3.622213 11.000000
16.884581 -3.690695 3.647821 37.000000
16.844563 -3.405640 3.627170 4.000000
16.827221 -3.292220 3.618909 13.000000
16.972544 -2.770235 3.629648 4.000000
16.935991 -2.328977 3.608171 12.000000
-14.873334 5.407600 3.635080 6.500000
-14.867830 5.485034 3.640005 0.000000
-9.660822 9.540215 3.628676 26.000000
-11.941072 10.695312 3.682091 31.000000
-11.735032 10.644409 3.639109 25.000000
-9.907611 10.650671 3.611456 0.000000
-9.752091 10.785376 3.610010 3.500000
-11.251441 11.286849 3.660600 2.000000
-11.331161 11.438462 3.698209 19.000000
-11.016680 11.548453 3.665973 1.000000
-10.778588 11.733954 3.659705 10.000000
-10.245110 11.995598 3.623439 2.500000
-10.059958 12.199360 3.631946 24.000000
-10.340044 12.300966 3.691045 13.000000
-9.590647 12.566755 3.631050 4.000000
-9.791568 12.746797 3.691941 0.000000
-9.097836 12.858794 3.618066 8.000000
-8.255527 13.330387 3.601500 4.000000
-10.640363 13.410369 3.613127 18.000000
-10.248525 13.754451 3.620286 50.000000
7.288870 14.183787 3.662928 33.400002
7.419869 14.174819 3.674927 37.000000
-9.776040 14.531844 3.696558 10.000000
-12.181881 14.772542 3.691037 9.000000
8.553620 14.833237 3.613953 23.000000
-9.056294 14.936069 3.686645 7.000000
-8.752657 14.960462 3.658284 8.666667
-14.488354 15.182400 3.666440 5.000000
-14.360245 15.238720 3.658180 2.000000
-8.085608 15.213226 3.636256 1.000000
-8.006548 15.237276 3.632952 3.500000
10.760362 15.310387 3.607374 16.000000
7.242925 15.454967 3.602388 6.000000
7.573435 15.459297 3.633365 37.500000
7.500768 15.557711 3.645342 46.000000
7.755813 15.583120 3.673841 30.000000
7.891531 15.588712 3.687746 37.666668
7.211218 15.642341 3.635430 3.000000
7.311464 15.729630 3.661037 19.000000
7.470699 15.768729 3.682790 32.000000
-9.941123 15.829096 3.603209 10.000000
9.384338 16.156322 3.601695 28.000000
9.478684 16.201342 3.618352 31.000000
6.470067 16.266825 3.694905 33.000000
9.639687 16.319288 3.653685 36.000000
-13.224059 16.447412 3.687093 5.000000
-12.582339 16.697330 3.652672 6.000000
-9.447068 16.623087 3.685737 30.000000
-11.688794 17.020033 3.607238 41.000000
-11.472318 17.280319 3.623760 34.000000
-11.321568 17.228748 3.601730 2.500000
-11.261685 17.315002 3.608614 8.000000
-10.835391 17.612679 3.612745 5.000000
4.971020 18.059484 3.610781 0.000000
10.460386 18.279657 3.679520 1.000000
3.529119 18.343695 3.600938 38.000000
3.707293 18.336569 3.606238 31.000000
4.732930 18.314068 3.646366 9.000000
3.302493 18.409790 3.605481 28.000000
3.439633 18.504522 3.628195 34.000000
3.528261 18.443758 3.619867 30.333334
3.672657 18.463692 3.628952 26.000000
4.709350 18.462051 3.672866 4.000000
4.823267 18.424498 3.671352 6.000000
-9.708349 18.538832 3.656114 2.000000
3.385717 18.538420 3.632738 30.000000
-9.380498 18.618660 3.642346 28.000000
8.810522 18.655657 3.604484 84.000000
3.317547 18.833965 3.686495 31.000000
9.118909 18.897005 3.665752 80.333336
9.254471 18.899010 3.676422 76.500000
-8.827595 18.982723 3.657491 30.000000
-8.972502 19.136845 3.692600 18.000000
-8.830630 19.146328 3.683650 18.000000
8.172298 19.141169 3.636151 1.000000
8.817350 19.135096 3.680897 9.000000
8.934937 19.152210 3.692255 27.500000
-12.929964 22.742359 3.632469 3.000000
-10.098235 24.367340 3.662450 2.500000
18.302263 -39.664249 3.751119 11.000000
18.433508 -39.621006 3.752488 3.000000
18.763865 -39.677341 3.768915 2.000000
18.530802 -39.505173 3.747013 7.000000
17.718269 -39.369801 3.707314 11.000000
0.415212 -36.598465 3.784909 12.000000
0.992285 -36.670952 3.793550 11.000000
1.218832 -36.548676 3.781618 6.000000
2.022875 -36.524956 3.782852 6.000000
-0.158418 -36.306046 3.754462 7.000000
1.325813 -36.329952 3.759400 8.000000
-2.436713 -36.208580 3.752816 2.000000
-2.323966 -36.231937 3.754462 5.000000
1.435836 -36.222244 3.748702 8.000000
-0.833469 -35.898838 3.713317 6.000000
1.648247 -35.882610 3.714552 7.000000
-2.881304 -31.118565 3.784635 6.000000
-2.784234 -31.135374 3.785597 3.000000
-1.487457 -30.743160 3.727409 8.000000
-1.477480 -26.932732 3.745244 9.000000
18.763174 -24.728525 3.759148 14.000000
18.852816 -24.685240 3.761552 2.000000
12.537223 -24.311239 3.798056 15.000000
13.053633 -24.001831 3.793655 24.000000
13.209942 -23.753086 3.773851 11.000000
-0.999492 -23.649889 3.710166 6.000000
14.245696 -23.156048 3.774951 2.000000
15.269958 -22.689865 3.797506 12.000000
15.210044 -22.448259 3.765049 31.000000
15.588257 -22.395185 3.788704 15.000000
16.793165 -21.571766 3.795856 9.000000
17.020870 -21.306417 3.786503 33.000000
16.732098 -21.216949 3.751846 5.000000
17.062899 -21.221962 3.781002 12.000000
16.894276 -20.810604 3.721864 10.500000
16.910526 -20.631222 3.703985 2.000000
17.195667 -20.580385 3.723789 25.000000
-6.754064 -20.256241 3.730462 1.000000
-3.257132 -16.110037 3.775218 9.000000
-3.162585 -16.164618 3.783277 13.000000
15.200239 -15.147277 3.749049 19.000000
-2.354602 -15.019024 3.774342 21.000000
-2.393802 -14.961719 3.761813 2.000000
-2.607638 -14.803750 3.731934 6.000000
-3.198591 -14.707252 3.736753 15.333333
-2.826641 -14.692346 3.714585 13.000000
10.257030 -14.643118 3.773380 21.000000
10.440956 -14.659321 3.798574 12.000000
12.468428 -14.645172 3.707694 4.000000
-3.769831 -14.587351 3.740608 23.000000
-3.366993 -14.526206 3.702055 23.000000
-3.091792 -14.583289 3.701092 17.000000
16.270283 -14.414997 3.797696 37.666668
10.482795 -14.380771 3.756033 11.000000
13.341055 -14.341618 3.775836 5.000000
-5.126632 -14.239779 3.757475 3.500000
16.288794 -14.264818 3.782781 44.000000
-5.174370 -14.162605 3.743500 14.000000
16.342342 -14.131252 3.774520 52.500000
-2.061065 -14.008243 3.784109 16.000000
-1.933687 -14.061502 3.793404 37.000000
-1.882813 -14.017717 3.779978 13.000000
16.360899 -14.013080 3.763505 44.000000
16.401838 -13.959062 3.762817 49.000000
-3.097595 -13.857632 3.794953 14.000000
-2.932512 -13.832226 3.778945 28.000000
-5.775675 -13.759953 3.704947 16.000000
-3.002097 -13.734305 3.757257 20.000000
-2.663377 -13.727221 3.737118 20.500000
-3.163974 -13.650323 3.744864 29.000000
-3.806627 -13.497283 3.747962 4.000000
16.500473 -13.515101 3.726332 4.000000
-3.836284 -13.440665 3.735569 3.000000
16.997334 -13.438126 3.785534 5.500000
-3.940984 -13.329693 3.714913 0.500000
-4.852303 -13.281085 3.778945 14.000000
-4.722788 -13.215867 3.750802 39.500000
7.601151 -13.277728 3.798438 5.000000
7.684424 -13.229709 3.798438 15.000000
7.781030 -13.109960 3.784945 16.000000
-5.474037 -13.041330 3.779978 11.000000
-5.316985 -12.893139 3.727306 16.500000
8.210099 -12.869732 3.790004 11.500000
12.407969 -12.884838 3.775445 17.500000
7.885715 -12.733237 3.718441 3.000000
12.426584 -12.729602 3.754656 19.333334
8.399053 -12.598616 3.759243 34.666668
8.490046 -12.620242 3.776270 16.000000
12.451466 -12.648604 3.746120 22.000000
8.641495 -12.587632 3.790727 17.000000
12.520452 -12.540170 3.740131 9.250000
12.459279 -12.342405 3.701514 2.000000
9.086696 -12.221873 3.781089 24.000000
12.084856 -8.926013 3.730006 28.000000
17.828747 -8.355390 3.795522 19.000000
17.807131 -8.073926 3.769022 4.000000
11.653675 -7.576663 3.714913 0.000000
11.987233 -7.528326 3.783076 22.000000
12.185139 -6.824004 3.732470 14.000000
12.669423 -6.182027 3.767585 11.000000
17.075338 -4.298533 3.716383 17.000000
15.794664 -4.241032 3.756413 45.000000
15.947335 -4.228360 3.789545 66.000000
15.804270 -3.532660 3.719700 1.500000
16.049273 -3.508110 3.773427 1.000000
-14.354382 4.839151 3.760849 1.000000
-12.043771 9.251535 3.770487 19.000000
-11.957830 9.305569 3.761813 18.000000
-9.863471 9.832531 3.722142 11.000000
-9.916425 9.978952 3.759839 7.500000
-12.124591 10.928535 3.749250 37.000000
-10.331024 11.036107 3.753138 2.000000
-11.785165 11.601479 3.798499 27.000000
-11.648781 11.575798 3.772084 11.500000
-13.262331 11.954040 3.768423 5.000000
-11.013717 12.142103 3.765368 38.666668
-10.919003 12.190809 3.759099 52.000000
-10.876919 12.259632 3.764472 46.500000
-10.680326 12.230155 3.729550 37.000000
-10.862815 12.360525 3.779695 2.000000
-10.613453 12.308831 3.733132 1.000000
-10.341331 12.381266 3.705373 6.000000
-9.893566 12.796158 3.715223 4.000000
-12.021453 13.004732 3.737860 2.000000
-11.414492 13.407234 3.716383 4.000000
-13.613573 13.742487 3.728894 17.000000
-11.087287 13.794734 3.735382 20.000000
-13.371592 13.841846 3.709966 21.000000
13.689009 13.993404 3.773565 43.000000
-10.975002 14.103088 3.771728 2.000000
13.743952 14.049411 3.788708 24.000000
-13.550043 14.204102 3.784165 8.000000
-10.226194 14.310162 3.712252 18.000000
-10.075155 14.383463 3.706470 5.000000
7.398537 14.352837 3.708954 29.000000
7.612489 14.377384 3.736713 15.500000
7.696686 14.372323 3.744772 0.000000
-10.289927 14.495408 3.751903 30.000000
13.159783 14.508130 3.775836 31.000000
-9.874324 14.578830 3.716383 14.000000
-12.511715 14.696011 3.720566 1.000000
13.159492 14.645939 3.795522 23.500000
12.992503 14.783852 3.794008 34.000000
-12.919954 14.888925 3.800065 2.000000
6.568552 14.857773 3.731341 27.000000
10.003239 14.869566 3.782466 30.000000
-12.621464 14.951367 3.771798 2.666667
6.445201 14.958403 3.741191 16.000000
6.534830 14.950651 3.747757 27.333334
9.910860 14.985156 3.791966 43.000000
12.696323 15.008122 3.789465 4.000000
-15.236551 15.088361 3.746295 8.000000
9.729891 15.017191 3.776684 36.500000
9.716101 15.151828 3.798987 37.000000
-12.195887 15.272049 3.767508 0.000000
12.210588 15.290466 3.772051 5.000000
-8.488075 15.382469 3.708122 5.000000
-14.608568 15.600132 3.733904 18.000000
-11.427001 15.676077 3.739494 46.000000
-11.178275 15.642467 3.706180 1.000000
-11.342649 15.715399 3.736087 9.000000
11.351005 16.025681 3.785679 27.666666
11.443172 16.013159 3.794008 1.000000
6.387663 16.358194 3.706470 2.000000
13.974634 16.316008 3.753179 0.000000
-13.411742 16.467878 3.710498 0.000000
6.512209 16.523748 3.748598 21.000000
13.555223 16.655926 3.751803 3.000000
5.907497 16.864521 3.771521 10.500000
6.042365 16.810823 3.770351 19.666666
10.114862 16.860706 3.790222 16.500000
13.607030 16.899540 3.790583 30.666666
13.459628 16.933271 3.779109 36.333332
-9.607084 17.028978 3.769022 28.000000
-9.282141 17.074259 3.746308 18.000000
-9.071042 17.067339 3.725866 33.000000
5.629596 17.097403 3.799194 19.000000
-12.858066 17.175224 3.748361 5.000000
-9.528276 17.203495 3.790979 28.500000
-9.247108 17.137899 3.753880 26.000000
-9.189518 17.159939 3.752365 32.000000
-13.143701 17.216139 3.784158 20.000000
-8.936083 17.268921 3.748201 23.000000
-8.789072 17.249485 3.731923 12.500000
4.019313 17.217548 3.731664 17.500000
4.149886 17.405920 3.776684 18.000000
-8.571918 17.708204 3.792494 18.000000
-8.473743 17.646530 3.773565 29.000000
-10.471242 18.690094 3.742853 4.000000
-10.046396 18.752155 3.716694 9.000000
14.397292 18.749361 3.705211 32.000000
14.291139 18.855200 3.708308 5.000000
-9.448918 19.051407 3.715317 32.000000
14.532468 19.048990 3.755382 47.000000
14.404371 19.254721 3.769009 2.000000
-9.441382 19.340561 3.760063 16.000000
3.292445 19.404310 3.794008 24.000000
13.888505 19.571949 3.761576 40.000000
13.756192 19.645878 3.759098 6.000000
-12.646245 23.604916 3.718288 1.000000
-12.532946 23.660748 3.717738 9.000000
-11.748840 24.455965 3.767249 1.000000
-11.485875 24.497450 3.756797 7.000000
-11.057598 24.789194 3.768899 16.000000
-10.753966 24.732437 3.744694 2.000000
-10.387110 24.734112 3.724890 4.000000
-10.920730 24.901718 3.775501 6.000000
-10.525034 24.843636 3.746344 10.000000
-10.072499 24.855341 3.723789 1.000000
-9.978127 24.846416 3.717738 0.000000
-11.024544 24.925262 3.784303 8.000000
8.453649 25.486952 3.728465 30.500000
8.623875 25.463322 3.732866 22.500000
2.848363 27.009665 3.771100 3.000000
-12.386069 27.990313 3.706730 2.000000
-12.516012 28.045549 3.719234 3.000000
-12.379450 28.214539 3.731256 5.000000
-12.266403 28.441265 3.750973 2.000000
-2.281093 -37.402683 3.875016 6.000000
0.422795 -37.266857 3.854033 9.000000
1.592657 -37.223263 3.852798 3.000000
-1.854234 -37.115494 3.842924 12.500000
-1.681629 -37.175541 3.848272 5.000000
0.265018 -37.046783 3.831129 11.666667
1.467828 -37.029297 3.832226 1.000000
0.651193 -36.937256 3.820294 5.000000
0.764341 -36.795803 3.805893 2.000000
0.879642 -36.781284 3.804659 6.000000
1.110730 -36.775032 3.804659 5.000000
-2.238467 -31.772535 3.857250 3.000000
-2.137846 -31.767523 3.855807 11.000000
-2.632948 -31.686495 3.850518 3.000000
-2.425595 -31.595509 3.837533 2.000000
-2.721895 -31.555420 3.835610 11.000000
-2.517884 -31.500648 3.826954 9.000000
18.816803 -25.457321 3.833686 4.000000
12.495076 -24.417519 3.808508 11.000000
13.036510 -24.150801 3.810709 14.000000
13.159435 -24.016298 3.802457 2.000000
15.367826 -23.466619 3.894878 8.000000
14.539805 -23.304745 3.814010 7.000000
14.669858 -23.349531 3.828863 1.000000
14.690185 -23.219625 3.815110 11.000000
15.251728 -23.130459 3.847017 26.000000
15.383487 -23.171551 3.861870 27.000000
15.383545 -23.014410 3.843716 16.000000
15.559579 -22.809488 3.833814 6.000000
15.992763 -22.823071 3.869572 4.000000
16.320051 -22.829264 3.896528 25.000000
16.681332 -22.576477 3.897629 1.000000
-2.702524 -21.697159 3.819955 1.000000
16.990358 -21.684196 3.825012 6.000000
18.008001 -21.279440 3.870672 4.000000
13.322908 -17.565008 3.851621 9.000000
14.289654 -17.102365 3.893614 10.000000
-3.815979 -16.231274 3.829840 4.000000
-2.594450 -15.290618 3.850485 11.000000
-2.530464 -15.202957 3.826389 9.000000
-3.975892 -15.187597 3.897712 1.000000
-4.226675 -14.986659 3.865906 4.000000
-4.045522 -14.879727 3.828317 17.000000
-4.983111 -14.629418 3.836991 2.000000
-4.530823 -14.645766 3.806149 1.000000
-1.790319 -14.353115 3.865699 10.000000
-2.163682 -14.239040 3.849174 23.500000
-2.053379 -14.267097 3.852273 27.000000
-1.999393 -14.208424 3.834715 38.000000
11.593809 -14.240769 3.875809 8.000000
-3.229528 -14.134872 3.874994 22.000000
-2.978256 -14.047764 3.837814 23.000000
-2.652119 -14.022524 3.814060 25.000000
-3.772331 -13.961742 3.865182 1.500000
-4.730651 -13.607519 3.850207 16.000000
7.534477 -13.453780 3.828317 0.000000
12.451832 -13.470318 3.871679 17.000000
7.565844 -13.378198 3.815787 24.666666
12.533551 -13.388957 3.870853 5.000000
-5.645432 -13.216349 3.840912 3.000000
7.826525 -13.281503 3.827353 0.000000
12.320821 -13.244867 3.817986 34.000000
12.388294 -13.088893 3.803737 30.500000
8.732116 -12.892434 3.865906 2.000000
8.942747 -12.514155 3.818678 23.000000
9.268421 -12.304075 3.824461 32.000000
9.323445 -12.296553 3.831208 1.000000
18.929167 -10.990515 3.824085 1.000000
17.544512 -9.609320 3.856093 16.000000
16.198563 -8.872128 3.898113 2.000000
17.896460 -8.524674 3.821265 2.000000
12.603215 -7.215009 3.881191 14.000000
16.891870 -7.152782 3.871679 76.000000
12.628710 -7.020392 3.861568 39.000000
16.916857 -7.079930 3.870578 69.666664
17.056225 -7.033550 3.893982 18.000000
12.674951 -6.976685 3.866732 33.333332
16.319736 -4.676567 3.899387 18.666666
16.169849 -4.523840 3.856704 17.333334
17.869516 -4.558205 3.892330 2.000000
17.850769 -4.374686 3.879114 7.500000
16.281534 -3.719997 3.836108 15.000000
17.661686 -3.744442 3.810552 10.000000
17.723167 -3.699335 3.821290 2.000000
16.544230 -3.561880 3.887149 1.000000
16.698847 -2.582145 3.881179 11.000000
-14.602749 5.439418 3.868797 9.000000
-12.218883 9.570501 3.853376 3.000000
-10.685427 9.722939 3.861051 3.500000
-10.612441 9.748390 3.851240 10.000000
-9.960723 10.182219 3.806830 9.000000
-10.020271 10.307669 3.841945 5.000000
-11.366787 10.741538 3.882773 5.500000
-10.597233 11.249441 3.836991 13.000000
-8.949594 11.279441 3.848142 1.000000
-8.564628 11.444406 3.820256 11.000000
-8.494847 11.501101 3.821289 0.000000
-12.222984 11.538592 3.860883 18.000000
-16.142351 11.883775 3.864043 1.000000
-15.946338 11.933722 3.839436 0.000000
-9.812266 11.975451 3.843738 12.000000
-9.576832 11.953834 3.802775 12.000000
-11.833949 12.021309 3.874613 11.000000
-9.577107 12.070316 3.825425 1.000000
-13.349365 12.108710 3.803943 16.000000
-9.410903 12.493227 3.883255 6.000000
-9.383241 12.538269 3.888074 6.000000
-15.561153 12.750270 3.878050 19.000000
-15.312516 12.871511 3.856093 8.000000
-8.812946 12.837317 3.865906 2.000000
-14.662317 13.299641 3.815965 5.000000
-14.864368 13.483044 3.868586 3.500000
-14.783835 13.580154 3.869721 0.000000
-14.617916 13.683989 3.859879 7.000000
13.887227 14.018732 3.803851 7.000000
13.642218 14.300729 3.809908 41.000000
-11.000613 14.320748 3.811378 4.000000
13.584112 14.374821 3.812558 44.000000
13.798597 14.373971 3.840950 4.000000
13.470773 14.435457 3.806122 40.000000
-11.033377 14.551758 3.854332 29.000000
8.041901 14.537934 3.816110 24.666666
13.300625 14.571148 3.803093 32.000000
13.393005 14.534352 3.809908 47.500000
8.187181 14.619263 3.848644 39.000000
13.129957 14.845937 3.820508 29.000000
13.338430 14.986517 3.867450 29.000000
7.307993 15.036808 3.840138 34.500000
6.853620 15.242881 3.838795 39.000000
7.138109 15.231260 3.863643 31.250000
13.254254 15.241894 3.893697 38.333332
6.941720 15.310039 3.861181 29.000000
6.888252 15.449490 3.885358 49.000000
9.897602 15.542109 3.889026 45.000000
-9.061954 15.714753 3.828725 17.000000
-9.015247 15.863254 3.851028 4.000000
-15.052055 16.226322 3.866766 8.000000
8.432600 16.233446 3.860941 2.000000
11.381882 16.248976 3.824293 1.000000
-8.389251 16.401096 3.888200 2.000000
8.346478 16.317471 3.868375 32.000000
11.167948 16.377737 3.821265 0.000000
10.394408 17.022091 3.844736 2.000000
13.518704 17.044134 3.800679 23.000000
-10.689473 17.139997 3.893950 24.000000
-9.634146 17.203005 3.800822 26.000000
10.375498 17.111759 3.857607 8.000000
-13.438496 17.262508 3.822020 1.000000
-13.446880 17.385677 3.839918 8.000000
-9.526304 17.392937 3.822779 6.000000
-13.837694 17.490139 3.896368 2.500000
-13.457014 17.512199 3.858505 3.000000
9.525128 17.786644 3.889407 17.000000
3.548934 17.841694 3.839463 35.000000
3.661753 17.822878 3.840289 11.000000
3.052941 17.992773 3.851854 40.000000
3.102117 17.940670 3.842768 36.000000
3.521421 17.998713 3.870853 37.000000
3.635215 17.980066 3.871679 6.000000
-9.076903 18.023905 3.890164 46.000000
3.010537 18.087212 3.870027 5.000000
3.354494 18.046492 3.874157 40.000000
3.416991 18.066629 3.880766 39.000000
8.415444 18.030441 3.835650 19.000000
-8.654735 18.169495 3.879564 4.000000
3.239246 18.122353 3.885557 36.200001
3.487041 18.124985 3.895635 33.000000
8.311109 18.178177 3.853065 1.000000
2.689026 18.276264 3.898939 50.000000
8.424085 18.273251 3.878807 7.000000
11.350722 18.595469 3.806186 6.000000
11.705388 18.842094 3.875371 19.500000
11.306337 18.921480 3.850933 7.000000
5.624552 19.024742 3.824293 36.000000
5.895675 19.057623 3.845493 13.000000
10.772997 19.033398 3.820987 10.500000
5.213093 19.174143 3.830350 6.000000
5.350333 19.201548 3.842464 14.000000
5.443932 19.187443 3.844736 16.000000
4.849805 19.265186 3.829593 7.000000
14.876612 19.248087 3.812985 33.000000
4.804408 19.341318 3.841707 19.000000
15.112597 19.385038 3.852627 25.666666
-10.329655 19.427259 3.844049 23.000000
14.168941 19.790991 3.815050 30.666666
13.265248 20.983551 3.891029 4.000000
2.175221 24.277157 3.820418 2.000000
2.523141 24.668549 3.886693 7.000000
-11.754105 24.866009 3.818961 4.000000
-12.386188 24.973684 3.870672 7.000000
-12.161243 24.912163 3.849218 18.000000
-11.322346 25.169853 3.832164 7.000000
-11.642025 25.241917 3.859670 5.000000
-10.955398 25.413719 3.842616 3.000000
-11.673092 25.519762 3.896528 34.000000
10.714497 25.765272 3.874523 1.000000
3.877462 27.589573 3.868472 4.000000
4.220243 27.515175 3.865171 3.000000
-3.715728 -32.361389 3.944773 3.000000
-3.604349 -32.286079 3.934193 3.000000
18.096243 -27.527897 3.989496 5.500000
16.457415 -23.643879 3.999952 28.000000
16.529341 -23.588814 3.999401 32.000000
16.546745 -22.993341 3.933387 9.000000
16.700251 -23.053545 3.952641 9.000000
16.287252 -22.935335 3.905880 11.000000
-0.928573 -22.819164 3.989990 7.000000
-3.106308 -22.617887 3.988614 21.000000
16.647839 -22.679871 3.906430 0.000000
-3.210375 -22.585411 3.985516 14.000000
-4.117949 -22.175264 3.940425 1.000000
18.224510 -21.811741 3.946589 12.000000
17.973652 -21.788282 3.921834 6.000000
18.669912 -21.782557 3.983448 6.000000
-17.378807 -18.688738 4.000042 21.000000
13.895969 -17.850155 3.952128 2.000000
14.044446 -17.808903 3.962454 12.000000
14.193739 -17.710316 3.965208 5.000000
14.301299 -17.225994 3.911512 22.000000
-4.633164 -15.316792 3.972891 20.000000
-4.936302 -15.111571 3.946867 26.000000
-4.374617 -15.146291 3.914097 13.000000
-2.919859 -14.679129 3.999960 1.000000
-2.283970 -14.568493 3.941092 4.000000
-1.857468 -14.519911 3.912174 3.000000
11.632482 -14.566541 3.934459 3.000000
-3.451328 -14.475949 3.977239 4.000000
-3.402296 -14.471674 3.973108 3.000000
11.931908 -14.194719 3.913808 1.000000
-5.162846 -13.994506 3.986534 5.000000
-4.723177 -14.010364 3.951420 6.000000
-4.587645 -13.969917 3.929731 9.500000
-4.855324 -13.825939 3.916305 20.000000
-5.685161 -13.786400 3.985502 7.000000
-5.483000 -13.660056 3.933862 14.000000
-5.915573 -13.495248 3.937994 5.000000
10.787759 -13.379013 3.947592 7.000000
13.218707 -13.260298 3.951806 9.000000
13.780396 -12.899981 3.984021 8.000000
11.676373 -12.872728 3.991917 14.000000
13.769274 -12.808641 3.969153 5.000000
13.887044 -12.837052 3.991456 3.000000
16.193340 -12.848495 3.984806 29.000000
7.657679 -12.629403 3.947289 0.000000
14.087482 -12.657755 3.997238 10.000000
16.005373 -12.617618 3.928778 2.000000
14.138229 -12.583428 3.994760 2.000000
15.976908 -12.513991 3.912121 0.000000
-16.412762 -12.122648 3.933321 26.000000
-16.450764 -12.071029 3.933321 0.000000
19.387764 -11.543728 3.942146 35.500000
19.432751 -11.405684 3.936639 53.000000
19.962463 -11.174937 3.996875 46.000000
15.864858 -10.314572 3.993934 4.000000
12.546771 -10.019543 3.986384 14.000000
12.514630 -9.897723 3.961325 56.500000
12.466414 -9.701346 3.921808 62.000000
12.478664 -9.773974 3.935301 59.000000
12.487036 -9.592083 3.909278 64.666664
12.563595 -9.494860 3.909760 56.000000
12.619081 -9.443715 3.913133 67.000000
12.813945 -9.402451 3.945903 46.000000
18.386131 -9.404611 3.981020 10.000000
12.874789 -9.385018 3.955542 67.000000
16.007717 -9.298020 3.907199 7.000000
18.433098 -9.355689 3.984806 11.000000
16.434179 -8.867425 3.941343 4.333333
16.836647 -8.612041 3.991456 7.000000
18.859770 -7.777286 3.932564 8.000000
-14.497774 -7.017865 3.998914 5.000000
17.583176 -7.025643 3.996412 76.000000
-14.439259 -6.933637 3.976746 5.000000
12.823329 -6.971195 3.900813 10.000000
18.090046 -4.675036 3.943545 2.000000
16.601635 -4.532304 3.952815 64.000000
16.862862 -4.301424 3.997289 46.000000
16.774822 -4.204249 3.972217 37.666668
16.828043 -3.900532 3.967739 14.000000
16.964849 -2.714292 3.946249 4.000000
-12.240499 10.289211 3.969999 2.000000
-10.237537 10.597572 3.937994 2.000000
-11.895757 10.790196 3.987348 19.000000
-11.767178 10.741149 3.955542 11.000000
-11.284427 11.085318 3.927269 6.000000
-15.042822 11.480314 3.993934 21.000000
-11.181231 11.501927 3.982529 14.000000
-10.854328 11.705223 3.963252 13.000000
-13.695707 12.501522 3.913808 16.000000
-12.034328 12.457552 3.978485 12.000000
-9.651434 12.482924 3.917470 12.000000
-8.354110 12.418180 3.999960 23.000000
-9.721499 12.573609 3.945903 24.000000
-13.695650 12.620251 3.930742 17.000000
-9.881695 12.616197 3.978673 26.000000
-11.301060 13.023314 3.960576 4.000000
-10.706385 13.406851 3.940876 26.000000
-10.824158 13.467350 3.968635 5.000000
-10.681170 13.461801 3.947144 20.000000
-10.146349 13.782290 3.931026 49.000000
7.960291 14.006954 3.999878 42.000000
7.891336 14.039215 3.998432 39.500000
-9.973160 14.237852 3.992812 11.000000
8.515997 14.714643 3.905058 14.500000
-11.632236 14.851153 3.981543 8.000000
-8.703419 14.876236 3.958785 33.000000
8.414103 14.832520 3.916923 37.750000
10.415249 15.325610 3.910916 6.500000
13.163523 15.461617 3.914392 39.000000
-10.660937 15.634212 3.993934 4.000000
-10.052011 15.675671 3.930329 33.000000
-9.971182 15.657652 3.917938 68.000000
13.112284 15.648813 3.935592 10.500000
-9.927920 15.771489 3.933357 38.666668
7.213482 15.777431 3.984753 31.000000
9.906673 15.719341 3.921655 42.000000
-9.903945 15.880445 3.950154 1.000000
6.149720 15.896054 3.914908 22.000000
6.246665 15.849769 3.913117 34.666668
6.398650 15.868956 3.930130 29.500000
6.515237 15.869921 3.940428 19.500000
7.028840 15.898923 3.992812 2.000000
9.550331 15.863048 3.908025 35.000000
9.832171 15.904207 3.946436 28.750000
9.688103 15.921453 3.933633 32.500000
5.993030 16.088982 3.943562 32.000000
6.076158 16.034378 3.938548 25.799999
5.950551 16.129675 3.948935 6.000000
9.556745 16.140289 3.958965 35.000000
9.665115 16.168438 3.975761 2.000000
5.898163 16.302385 3.982067 45.000000
-15.549519 16.397238 3.947998 1.000000
-9.160178 16.356674 3.956762 17.000000
8.670508 16.564024 3.946023 7.000000
9.080818 16.579584 3.989804 18.000000
9.203827 16.556408 3.998064 12.000000
-8.927857 16.671329 3.991456 7.000000
-14.386427 17.108654 3.905317 1.000000
-11.713734 17.120302 3.998813 17.000000
-11.566869 17.193869 3.994649 4.000000
-11.373905 17.138575 3.965121 5.000000
-14.288713 17.210838 3.908070 1.000000
-11.378373 17.262764 3.985563 24.000000
-10.674860 17.236940 3.908335 1.000000
-14.486716 17.338221 3.947309 3.000000
-11.271823 17.337210 3.986320 37.000000
6.484589 17.577248 3.954284 37.000000
6.586227 17.681486 3.982369 19.000000
5.928625 17.958042 3.991456 13.000000
-9.510077 18.167929 3.953006 9.000000
13.605017 18.186201 3.967962 22.000000
13.709488 18.206324 3.981730 10.000000
2.805588 18.270613 3.901417 36.000000
2.948963 18.247997 3.901417 13.500000
13.552518 18.235178 3.969338 39.000000
-9.327250 18.377058 3.972692 10.000000
-8.954769 18.351862 3.936349 28.000000
2.880552 18.373838 3.925372 7.000000
4.075198 18.366858 3.970805 39.000000
13.581759 18.394951 3.994809 12.000000
-9.447536 18.470055 3.999192 24.000000
-9.179930 18.444481 3.971556 23.000000
-9.092115 18.485767 3.971178 30.000000
2.767959 18.410927 3.929502 27.000000
-10.921897 19.638897 3.925969 6.000000
10.870981 20.080296 3.989302 31.500000
10.798553 20.173021 3.997563 19.000000
14.500880 20.571550 3.944916 2.000000
-9.504725 20.779270 3.992056 2.000000
-12.565557 25.136654 3.902030 13.000000
-11.661595 25.707851 3.919633 7.000000
-11.548258 25.889168 3.936137 2.000000
-10.675376 26.107113 3.916333 1.000000
-11.371028 26.377876 3.988399 1.000000
10.283678 26.595476 3.959242 3.000000
9.384174 26.737141 3.934487 28.000000
9.473420 26.722466 3.936687 20.000000
9.431467 27.144485 3.990049 4.000000
4.010343 27.898836 3.913582 2.000000
3.757764 28.013927 3.924585 2.000000
2.899755 28.350683 3.957042 4.000000
-1.167077 -39.555756 4.092261 2.000000
-1.409614 -39.380642 4.074980 7.000000
-1.285758 -39.380901 4.074569 2.000000
-7.654852 -28.174528 4.053864 2.000000
-7.542685 -28.110424 4.041211 11.000000
-7.447230 -28.107174 4.037360 9.000000
-7.364907 -28.153429 4.040661 2.000000
18.658697 -27.342373 4.008732 2.000000
19.400721 -27.309553 4.056821 2.000000
13.737147 -26.132019 4.099249 31.500000
-13.974105 -25.909376 4.087421 1.000000
-14.044084 -25.844460 4.084120 2.000000
14.221925 -25.826921 4.093839 28.000000
-14.071928 -25.702908 4.068717 13.000000
14.376696 -25.660923 4.084120 2.000000
14.193948 -25.522448 4.054964 8.000000
14.398814 -25.512123 4.067617 2.000000
15.037242 -25.325600 4.089622 1.000000
15.586211 -24.635904 4.047812 6.000000
15.622065 -24.436985 4.027183 15.000000
15.813402 -24.481262 4.046712 9.000000
15.926959 -24.487925 4.056064 3.000000
16.452654 -24.118685 4.053864 19.000000
16.407837 -23.731312 4.006003 1.000000
16.879099 -23.768759 4.047812 1.000000
17.146095 -23.513163 4.040661 10.000000
-0.474151 -23.416447 4.091874 3.000000
-0.398629 -23.303568 4.071910 4.000000
17.492445 -23.365625 4.052763 10.000000
17.537155 -23.272587 4.046162 9.000000
-1.195203 -23.114544 4.043686 10.000000
17.545534 -23.132145 4.031309 2.000000
17.808819 -23.175386 4.058265 9.000000
17.984903 -22.953501 4.048913 28.000000
18.079006 -22.924883 4.053864 20.000000
-3.044665 -22.697828 4.001005 24.000000
-2.984090 -22.789328 4.015461 41.000000
18.639732 -22.166784 4.021406 10.000000
-17.483337 -18.683100 4.010572 2.000000
-2.200352 -17.640383 4.083252 3.000000
-4.510278 -15.802046 4.079875 1.000000
-5.026098 -15.551814 4.057707 12.000000
-5.106099 -15.304895 4.005661 0.000000
-2.769057 -15.028664 4.084132 19.000000
-2.423719 -14.947894 4.047124 19.000000
-1.961856 -14.962298 4.033010 12.000000
-2.566511 -14.843064 4.025780 1.000000
-2.460468 -14.879223 4.030600 21.000000
-4.669153 -14.447351 4.057796 1.000000
10.387193 -14.407498 4.079671 30.333334
-5.230249 -14.315551 4.073288 6.000000
-4.848159 -14.233226 4.018550 1.000000
-5.069823 -14.151680 4.017518 11.000000
10.635051 -14.118314 4.059971 1.000000
7.570192 -13.223650 4.072255 32.000000
11.839754 -13.218811 4.076089 1.000000
7.570481 -13.080780 4.039206 14.000000
7.787385 -12.934806 4.035075 16.000000
11.792976 -12.919482 4.017885 8.000000
11.922396 -12.938292 4.041166 23.500000
16.226555 -12.958127 4.002977 8.000000
7.997775 -12.824006 4.039206 35.000000
12.179222 -12.847690 4.066239 21.000000
13.996480 -12.856902 4.011281 21.000000
12.128033 -12.713455 4.035794 19.000000
12.350574 -12.704813 4.069821 14.000000
14.025055 -12.761810 4.002194 12.500000
12.146317 -12.652792 4.028630 18.000000
12.368617 -12.643655 4.062657 7.000000
8.183301 -12.586746 4.012354 41.000000
8.400934 -12.572888 4.041272 1.000000
8.384310 -12.463069 4.014419 52.000000
8.763234 -12.427279 4.063993 26.000000
8.838896 -12.368831 4.062960 19.000000
8.946976 -12.233450 4.050567 16.500000
19.947266 -11.290237 4.004447 25.000000
15.942260 -10.652276 4.046801 2.000000
15.983790 -10.535318 4.040468 37.000000
16.159710 -10.184212 4.031519 4.500000
16.500582 -9.446150 4.012933 6.000000
16.577816 -9.421337 4.024498 9.000000
19.035389 -8.308439 4.003735 10.500000
19.290775 -8.311912 4.049162 22.000000
17.586168 -7.123130 4.004673 29.000000
13.326612 -6.904890 4.011321 19.666666
17.703495 -6.977163 4.016237 9.000000
13.348829 -6.828002 4.007190 13.000000
18.539656 -5.608046 4.088103 0.000000
17.110815 -4.479363 4.062657 15.000000
16.947403 -4.379742 4.020571 28.000000
16.944305 -4.152514 4.007139 38.000000
17.179752 -4.124425 4.058180 20.500000
17.016844 -4.000665 4.015198 0.000000
15.966735 -3.753784 4.072165 0.000000
-14.359045 5.144106 4.076386 1.000000
-14.313742 5.178678 4.068124 0.000000
-14.328890 5.388607 4.091362 1.500000
-14.236049 5.507514 4.079484 18.000000
-10.510462 10.676867 4.004091 11.000000
-12.114147 10.919121 4.049033 18.000000
-11.533936 11.425743 4.030720 3.000000
-11.457995 11.457989 4.023009 11.000000
-15.044701 11.632059 4.013759 25.000000
-11.526831 11.635984 4.066381 15.000000
-11.547412 11.730235 4.086622 28.000000
-9.692822 11.716663 4.063993 16.000000
-15.326220 11.926845 4.098842 21.000000
-15.214100 11.993824 4.088930 30.000000
-10.803306 12.061637 4.020118 36.000000
