# This PCD file was generated using the MATLAB® pcwrite function
# from Computer Vision Toolbox®.
# .PCD v.7 - Point Cloud Data file format
VERSION .7
FIELDS x y z intensity
SIZE 4 4 4 4
TYPE F F F F
COUNT 1 1 1 1
WIDTH 1230
HEIGHT 1
VIEWPOINT 0 0 0 1 0 0 0
POINTS 1230
DATA ascii
-6.196931 -2.649624 0.657539 42.666668
-6.096676 -2.652058 0.687529 64.666664
18.278229 -2.679538 0.620256 45.000000
-6.003445 -2.566880 0.675186 34.000000
19.856131 -2.592957 0.672336 10.000000
-7.447023 -2.435501 0.672813 37.000000
-6.215951 -2.463543 0.691438 40.500000
-6.122498 -2.504799 0.684073 46.000000
19.955366 -2.510322 0.675289 7.500000
-7.250136 -2.396348 0.655702 37.000000
-6.886941 -2.358214 0.625107 38.200001
-6.194315 -2.376595 0.686089 41.000000
-6.136145 -2.327129 0.634448 31.384615
-7.844970 -2.295516 0.701902 48.000000
19.918573 -2.315233 0.673275 4.000000
19.961071 -2.224884 0.674349 22.000000
-9.371288 -2.144588 0.657409 2.000000
-7.741072 -2.203670 0.644156 38.666668
-7.587559 -2.181503 0.677946 26.500000
-7.264402 -2.195250 0.651663 32.599998
-7.161330 -2.119922 0.641328 33.000000
-6.725830 -2.152954 0.606421 6.000000
19.932194 -2.158289 0.673141 2.000000
-7.282035 -2.031809 0.649199 81.000000
-5.992520 -1.938998 0.651322 1.000000
-7.427413 -1.822971 0.656728 18.000000
-7.281501 -1.823535 0.644579 23.000000
-7.097089 -1.860480 0.630035 43.799999
-7.006230 -1.891967 0.623190 40.666668
-6.898492 -1.785356 0.611897 31.000000
-9.699150 -1.664889 0.672964 1.000000
-7.173754 -1.653562 0.632174 31.750000
19.684072 -1.694442 0.663343 2.000000
19.904438 -1.650432 0.670591 1.000000
-9.570161 -1.565461 0.663140 3.000000
-7.373551 -1.614435 0.648173 27.000000
-7.261824 -1.584056 0.638248 29.250000
-7.134878 -1.463950 0.625449 29.600000
-7.026928 -1.423259 0.615661 37.000000
-8.823253 -1.358027 0.610471 32.000000
-6.902384 -1.375475 0.604368 37.000000
-5.540958 -1.364748 0.648972 9.500000
-7.744111 -1.291752 0.674182 51.000000
-7.241056 -1.246838 0.630947 41.333332
-7.142893 -1.260770 0.622848 76.000000
-6.927083 -1.245132 0.604368 42.000000
-6.669103 -1.220400 0.701107 38.000000
-9.871470 -1.171860 0.679786 0.000000
-8.799356 -1.142885 0.606786 9.500000
-7.235349 -1.168017 0.629350 55.000000
-5.920482 -1.160467 0.623892 13.000000
-9.952176 -1.023191 0.684153 0.000000
-7.048802 -1.017003 0.611555 35.000000
-6.108824 -1.091485 0.641722 42.333332
-5.738560 -1.081170 0.603868 20.333334
-9.063947 -0.960655 0.623297 2.000000
-8.937903 -0.975703 0.614837 2.000000
-7.236660 -0.997732 0.627297 74.000000
-7.126802 -0.967270 0.617601 36.000000
-5.472086 -0.992477 0.673492 6.000000
-8.850153 -0.853731 0.608014 15.000000
-8.093951 -0.883574 0.699164 17.000000
-7.127154 -0.914273 0.617030 4.000000
-8.970605 -0.808495 0.615928 0.000000
-7.241917 -0.629765 0.624217 14.000000
-7.041281 -0.679238 0.607448 7.000000
-6.118944 -0.629094 0.636098 1.000000
-4.777750 -0.634933 0.669226 6.000000
-7.092567 -0.549480 0.610870 7.000000
-6.591935 -0.541933 0.626098 17.000000
-6.120890 -0.609868 0.636098 24.000000
-6.636617 -0.514156 0.688352 62.000000
-8.085687 -0.371412 0.695057 78.000000
-7.700138 -0.232571 0.661519 9.000000
-7.923928 -0.214413 0.680684 21.000000
-6.304063 -0.170582 0.652145 31.000000
-5.929357 0.063092 0.613195 9.333333
-9.105865 0.125562 0.622751 34.000000
-9.140879 0.420667 0.625753 18.500000
-7.280675 0.447855 0.626384 59.333332
-7.150380 0.537679 0.615747 18.000000
-7.188679 0.597332 0.619426 7.000000
-9.832606 0.692737 0.674056 17.000000
-9.746804 0.717470 0.668325 28.000000
-7.706553 0.713560 0.664599 15.000000
-7.717635 0.788135 0.666174 35.599998
-7.636285 0.852498 0.659808 29.000000
-7.269311 0.834659 0.628324 20.000000
-7.120854 0.851622 0.615832 32.500000
-8.825470 0.938532 0.606923 18.000000
-7.333362 0.935523 0.634826 59.000000
-7.114792 0.884934 0.615661 20.000000
-9.336707 1.072036 0.642672 38.000000
-9.090169 1.014806 0.625480 19.000000
-9.047944 1.067693 0.623024 51.000000
-7.784831 1.017980 0.674182 23.000000
-8.946432 1.141303 0.616747 41.000000
-8.015689 1.109780 0.637828 47.799999
-7.823956 1.085670 0.678288 29.000000
-8.958861 1.200143 0.618112 17.000000
-7.917158 1.276709 0.688641 40.750000
-7.977622 1.376554 0.695171 45.000000
-7.719533 1.642222 0.677718 56.000000
-9.423179 1.778827 0.655771 1.000000
-8.823217 1.757556 0.615219 42.799999
-7.878118 1.732207 0.692662 77.000000
-8.902482 1.869472 0.622069 6.000000
-9.116299 1.929414 0.637214 13.000000
-9.115995 2.079469 0.639398 14.000000
-8.690929 2.040039 0.610471 37.000000
-9.233830 2.136892 0.648130 50.000000
-8.654140 2.496251 0.615928 59.000000
-9.079143 2.649768 0.646766 56.000000
-8.684405 2.608733 0.620090 41.000000
-8.739509 2.760580 0.626753 34.333332
-9.061868 2.831134 0.649222 54.000000
-8.634030 2.832034 0.621386 43.250000
-8.828953 2.942139 0.636396 43.000000
-9.358104 3.183933 0.675966 14.000000
-9.064079 3.179526 0.656863 27.000000
-9.258747 3.215179 0.670235 9.000000
-8.993861 3.186660 0.652497 34.000000
-9.355783 3.348011 0.679513 50.000000
-9.091125 3.328558 0.662048 53.000000
-8.998041 3.315986 0.655771 51.000000
-8.614498 3.375940 0.632712 79.500000
-9.048835 3.464464 0.662594 50.000000
-8.526597 3.419029 0.628209 102.000000
-6.932731 3.479203 0.666082 4.666667
-9.218882 3.507411 0.674510 65.333336
-8.974916 3.566112 0.660411 40.000000
-8.748869 3.540104 0.645401 103.000000
-8.589924 3.523001 0.634895 61.000000
-8.187813 3.509228 0.609174 35.250000
-8.096848 3.561029 0.604876 39.500000
-6.880757 3.530166 0.664086 10.750000
-8.855148 3.680605 0.655771 64.000000
-8.630091 3.618896 0.639943 16.000000
-8.095223 3.667204 0.607742 36.666668
-6.879351 3.597967 0.666653 4.000000
-8.160828 3.696640 0.612654 43.000000
-8.048670 3.768558 0.607742 26.000000
-8.175033 3.827961 0.617293 37.500000
-8.415743 4.037539 0.638306 30.500000
-8.438724 4.103065 0.641672 33.000000
-8.511985 4.249487 0.650586 17.000000
-8.714825 4.316601 0.665050 34.000000
-10.844714 4.910256 0.606600 2.000000
-11.981205 5.470253 0.671128 0.000000
-10.651896 6.269437 0.629806 4.000000
-10.487818 6.217314 0.621256 19.000000
-10.511122 6.331920 0.625276 5.000000
-10.487590 6.533027 0.629602 5.000000
-10.341801 6.487401 0.622070 19.000000
-9.967104 6.494980 0.606193 19.500000
-9.909698 6.524323 0.604564 20.000000
-11.467531 6.944985 0.683137 21.000000
-11.269072 6.970793 0.675199 2.000000
-10.105738 6.976686 0.625734 4.000000
-11.010176 7.052136 0.666242 1.000000
-10.900681 7.030394 0.660950 18.000000
-10.466603 6.985634 0.641205 20.000000
-10.246210 7.026237 0.633062 95.000000
-10.808146 7.164612 0.660746 2.000000
-10.244504 7.120117 0.635709 118.000000
-10.157985 7.139286 0.632655 87.000000
-11.304031 7.340926 0.686801 50.000000
-11.160549 7.297695 0.679473 1.000000
-10.803104 7.358335 0.666039 72.000000
-10.968444 7.420611 0.674792 22.000000
-10.418090 7.387344 0.650772 53.000000
-9.982785 7.462643 0.635098 5.000000
-9.836592 7.417812 0.627770 28.000000
-10.851315 7.541859 0.673367 64.500000
-10.518387 7.508231 0.658507 69.000000
-10.423374 7.489955 0.654029 54.000000
-10.350272 7.536489 0.652400 18.000000
-9.940602 7.578193 0.636930 5.000000
-9.783633 7.507248 0.628381 5.000000
-9.753677 7.533061 0.627974 8.000000
-9.428040 7.520917 0.614539 12.000000
-10.572954 7.698832 0.666446 3.000000
-10.505299 8.219457 0.679677 24.000000
-10.551612 8.309263 0.684359 34.000000
-10.606852 8.406889 0.689651 36.000000
-10.065135 8.451637 0.669703 46.000000
-10.662847 8.560904 0.696776 41.000000
-10.394430 8.589952 0.687107 46.500000
-10.324755 8.614481 0.685173 40.000000
-10.324605 8.780710 0.690628 43.400002
-10.188373 8.720165 0.683341 32.000000
-10.341667 8.964551 0.697387 33.000000
-10.341385 9.050003 0.700236 34.500000
-12.886453 12.592940 0.604954 5.000000
-12.490727 13.134884 0.608579 35.000000
-12.239120 13.366031 0.608489 26.666666
-12.426798 13.386932 0.613276 20.000000
-12.708476 13.561580 0.624014 28.000000
-13.196440 13.732306 0.639450 27.000000
-12.281213 13.784136 0.619853 31.000000
-13.028033 13.815349 0.637571 135.000000
-12.425875 13.858589 0.624954 80.000000
-13.343742 13.973187 0.648712 21.000000
-12.533623 13.890720 0.628175 27.000000
-12.746511 14.037732 0.636632 8.000000
-12.664505 14.304555 0.641464 59.000000
-12.516022 14.408188 0.640793 2.000000
-13.616627 14.622500 0.670859 9.000000
-13.743151 14.758558 0.677101 4.000000
-12.986552 14.761479 0.660121 54.000000
-12.600084 14.878557 0.654618 13.000000
-12.512950 15.061220 0.657437 27.000000
-13.736101 15.223399 0.688443 0.000000
-12.582646 15.242272 0.663611 1.000000
-13.213284 15.356379 0.680188 16.000000
-12.922916 15.406356 0.675154 22.000000
-13.199108 15.486974 0.683208 16.000000
-13.588299 15.642571 0.695691 9.000000
-13.398408 15.821242 0.696094 14.000000
-12.898301 15.826154 0.685490 2.000000
-9.229131 16.339045 0.630055 0.000000
-9.146474 16.312164 0.627907 30.000000
-9.126294 16.396708 0.630055 3.000000
-9.215860 16.680742 0.639853 2.000000
-9.014538 16.685959 0.636766 0.000000
-8.950742 16.693056 0.635961 0.000000
-8.814694 16.753975 0.635625 0.000000
-9.215315 16.804253 0.643477 0.000000
-7.427649 16.993134 0.622672 0.500000
-7.295205 17.024288 0.621867 0.000000
-9.395644 17.261499 0.659853 2.000000
-7.805973 17.192225 0.633947 0.000000
-6.817819 17.272667 0.623478 0.000000
-7.953809 17.665030 0.650457 4.000000
-8.784602 17.696457 0.663343 0.000000
-7.120266 18.206169 0.656363 0.000000
9.617483 35.892937 0.603203 2.000000
8.201166 37.054276 0.616058 5.000000
8.121352 37.247887 0.618850 14.000000
8.386783 37.336605 0.621187 5.000000
9.241362 37.286793 0.623589 5.000000
8.528923 37.419258 0.623005 5.000000
8.665359 37.474110 0.624368 4.000000
9.153625 37.436073 0.625602 33.000000
8.808616 37.555725 0.626186 4.000000
8.945067 37.605686 0.627485 6.000000
9.075356 37.627945 0.628329 19.000000
8.782231 38.530605 0.641508 23.000000
7.455526 38.862091 0.642352 3.000000
7.582174 38.862030 0.642742 2.000000
7.726793 38.951790 0.644624 1.000000
8.472024 39.451267 0.655012 29.000000
8.393552 39.692902 0.658583 21.000000
8.314460 39.938343 0.662219 26.000000
1.602411 -21.512249 0.724281 3.000000
-0.336933 -15.692001 0.799776 11.000000
-0.845356 -15.508828 0.791430 31.000000
-0.690883 -15.332531 0.782066 5.000000
-0.546350 -15.338361 0.782066 27.000000
-0.665899 -15.129639 0.771685 33.333332
-0.585711 -15.109035 0.770463 40.000000
17.159241 -15.112007 0.767703 6.000000
-1.504093 -14.756299 0.755807 13.000000
-1.250440 -14.797977 0.756723 38.500000
-0.852913 -14.792208 0.754993 54.000000
-0.924080 -14.626775 0.746800 33.750000
18.136709 -14.561451 0.780924 2.000000
-1.383222 -14.471183 0.740744 6.000000
-1.286587 -14.415924 0.737487 30.000000
16.883743 -14.450682 0.746160 0.000000
-1.876086 -14.367181 0.738301 51.000000
-1.646636 -14.363164 0.736673 23.000000
-1.007918 -14.341973 0.732602 36.000000
-1.738693 -14.242251 0.731109 22.666666
-1.118927 -14.313688 0.731584 39.500000
-1.047119 -14.259054 0.728531 37.000000
-1.934423 -14.121633 0.726292 29.000000
-2.468751 -14.058363 0.727309 18.000000
-1.474864 -14.032400 0.718964 4.000000
-1.302461 -14.093582 0.721203 30.000000
-1.997031 -13.927298 0.716928 27.000000
-1.951603 -13.921635 0.716317 22.000000
-2.639558 -13.876848 0.719778 32.500000
-1.524350 -13.874387 0.711228 20.500000
-2.180328 -13.766263 0.710211 33.000000
-2.025128 -13.814237 0.711432 16.000000
-3.108065 -13.636131 0.712653 5.000000
-2.507002 -13.706489 0.710007 24.000000
-1.659099 -13.710061 0.703697 80.000000
-2.954348 -13.549597 0.706648 5.500000
-2.944520 -13.504790 0.704307 5.000000
-2.580513 -11.367545 0.797132 42.000000
-2.783152 -11.220998 0.790583 62.000000
-2.439465 -11.263935 0.788126 18.500000
-2.574166 -11.123363 0.780758 26.000000
-2.673901 -10.927334 0.769297 30.000000
-2.790365 -10.883685 0.768341 53.000000
-3.203571 -10.725650 0.765476 28.000000
-3.136116 -10.745567 0.765476 43.000000
-2.588061 -10.722319 0.754287 41.000000
-4.732194 -10.714122 0.800953 9.000000
-3.334527 -10.673120 0.764657 36.000000
-2.510608 -10.695634 0.751285 52.000000
-4.596356 -10.540564 0.786353 8.000000
-4.465061 -10.601180 0.786626 7.000000
-3.644009 -10.601003 0.766568 37.000000
-3.345203 -10.590290 0.759472 35.000000
-3.240023 -10.604107 0.758244 38.500000
-3.097054 -10.611410 0.755925 31.500000
-3.006184 -10.546305 0.749921 27.000000
-3.618386 -10.419859 0.754287 32.000000
-3.198602 -10.468686 0.748556 28.000000
-2.493368 -10.474172 0.736276 29.000000
-3.516641 -10.389340 0.750057 32.000000
-3.410567 -10.342710 0.744736 37.333332
-3.340796 -10.405306 0.747328 36.000000
-4.265702 -10.262835 0.760018 1.000000
-3.629596 -10.295427 0.746510 39.000000
-2.716983 -10.261611 0.725906 21.000000
-4.089508 -10.016033 0.739824 3.000000
-3.968863 -10.034400 0.737913 55.500000
-3.691442 -10.065386 0.733138 17.500000
-3.608864 -10.084706 0.732455 53.000000
-2.788030 -10.060415 0.713898 29.333332
-2.681076 -9.936604 0.703801 31.000000
-3.552361 -9.829368 0.714717 21.000000
-3.812756 -9.774171 0.717446 76.000000
-3.695444 -9.697439 0.709669 52.000000
-3.604484 -9.686987 0.706803 0.000000
-5.802577 -8.931773 0.728362 0.000000
-5.938733 -8.894659 0.731364 13.000000
-3.819137 -8.466261 0.797553 6.500000
-3.721603 -8.498573 0.796698 16.875000
-4.507019 -7.995409 0.788142 6.000000
-4.216008 -7.999756 0.776507 4.000000
-4.026245 -7.980991 0.767609 19.000000
-4.096659 -7.832854 0.759053 38.000000
-3.988472 -7.901778 0.760080 21.400000
-3.793063 -7.718723 0.738520 12.000000
-3.981899 -7.701611 0.744509 29.500000
-3.677015 -7.646582 0.728595 23.142857
-3.625420 -7.680043 0.729280 13.000000
-5.292809 -7.561723 0.792591 11.000000
-4.399084 -7.579667 0.752551 24.000000
-5.222659 -7.338055 0.773427 5.500000
-4.976811 -7.353484 0.762475 3.000000
-5.332910 -7.273170 0.774453 10.000000
-4.395706 -7.170193 0.722207 37.333332
-4.344053 -7.069449 0.712511 70.000000
-3.596916 -6.825046 0.797798 59.000000
-3.489580 -6.571244 0.769408 3.000000
-4.271951 -6.364508 0.792677 32.111111
-4.208492 -6.389791 0.791214 19.000000
-3.696828 -6.384988 0.762962 48.333332
-3.712700 -6.250568 0.751807 33.555557
-3.980634 -6.135626 0.756324 25.400000
-3.832956 -6.037160 0.739509 33.333332
-3.728927 -6.068659 0.736574 38.400002
-3.800367 -6.013910 0.735669 33.000000
-5.022151 -5.750382 0.789517 29.000000
-6.518901 -5.625006 0.739375 8.000000
-5.179377 -5.642406 0.792037 56.000000
-5.058381 -5.687386 0.787100 38.000000
-4.396434 -5.653572 0.740606 44.000000
-4.317309 -5.653079 0.735577 33.555557
-5.002693 -5.415675 0.762413 29.000000
-5.461655 -5.329823 0.789157 22.000000
-4.980636 -5.341138 0.755213 32.500000
-5.370092 -5.306651 0.780722 28.500000
-5.242176 -5.229381 0.765705 31.000000
-4.956739 -5.248981 0.746572 38.000000
-5.051324 -5.183498 0.748475 32.875000
-5.627741 -4.871414 0.769716 27.750000
-5.106682 -4.841665 0.727714 28.083332
-5.925273 -4.750462 0.785351 42.250000
-5.468834 -4.734035 0.748012 31.500000
-5.203778 -4.738263 0.727800 38.250000
-5.006968 -4.809905 0.717977 29.000000
-5.774470 -4.704508 0.770230 22.000000
-5.614416 -4.707662 0.757681 42.000000
-5.276645 -4.670022 0.728674 37.000000
-5.750816 -4.536831 0.757476 51.000000
-5.568902 -4.566216 0.744721 28.000000
-5.490640 -4.579529 0.739372 39.333332
-5.781976 -4.444783 0.754184 31.500000
-5.695767 -4.406953 0.744721 35.000000
-6.463292 -4.234293 0.799032 47.000000
-6.204314 -4.291268 0.780105 40.000000
-6.132029 -4.269813 0.772699 47.000000
-5.843199 -4.290686 0.749658 60.000000
-5.633138 -4.246417 0.729497 51.000000
-5.543104 -4.233428 0.721268 68.000000
-5.408052 -4.238930 0.710571 71.000000
-7.594022 -4.162773 0.743653 6.000000
-6.366924 -4.199808 0.788746 30.000000
-6.007813 -4.211404 0.758710 34.000000
-5.639165 -4.134098 0.753985 40.000000
-5.543081 -4.137704 0.715302 32.000000
-14.880949 -4.079353 0.786239 0.500000
-6.375066 -4.062930 0.781751 10.000000
-5.613570 -4.019705 0.738371 37.799999
-7.886343 -3.975044 0.758369 0.000000
-6.285934 -3.950807 0.767762 27.000000
-5.822897 -3.946841 0.727440 52.666668
-5.637310 -3.872967 0.707279 34.000000
-6.633408 -3.772894 0.789157 34.000000
-6.206874 -3.806580 0.752950 43.000000
-6.040959 -3.757205 0.735669 44.500000
-5.929780 -3.811928 0.728983 42.750000
-6.812017 -3.651021 0.799238 26.500000
-6.736012 -3.692468 0.794369 33.000000
-6.332721 -3.641454 0.755418 30.500000
-6.226556 -3.694066 0.748698 50.500000
-6.687391 -3.539363 0.782437 30.666666
-6.029849 -3.607360 0.726617 50.000000
-6.807190 -3.471419 0.790186 29.500000
-6.484949 -3.371538 0.755830 31.000000
-6.479627 -3.215104 0.748012 34.000000
-6.529329 -3.112930 0.748012 44.000000
-6.279083 -3.091054 0.723737 45.000000
-10.534576 -2.761727 0.744736 14.000000
-8.042961 -2.808795 0.731561 18.333334
-6.310743 -2.804409 0.775379 38.625000
-8.115762 -2.710773 0.734755 13.000000
-7.774173 -2.651089 0.705324 3.000000
-6.071761 -2.528642 0.796521 33.333332
-6.014243 -2.577204 0.792393 39.250000
-6.767147 -2.475084 0.745132 34.000000
-6.729729 -2.461453 0.741018 34.000000
-6.726391 -2.376633 0.737726 38.000000
-7.079305 -2.315241 0.770230 16.000000
-7.031667 -2.279276 0.764402 38.333336
-6.678924 -2.254136 0.728949 41.333332
-6.451464 -2.222677 0.705633 55.000000
-7.094245 -2.178568 0.767445 46.384617
-6.999607 -2.048154 0.754184 28.000000
-6.854484 -1.921609 0.736163 25.000000
-6.757219 -1.931265 0.726754 33.333332
-5.973574 -1.995253 0.762698 0.000000
-5.952733 -1.957132 0.758851 18.000000
-7.122665 -1.728692 0.757956 32.833332
-6.792489 -1.735173 0.724971 53.000000
-6.722857 -1.773754 0.719005 12.500000
-7.447471 -1.692033 0.789774 58.000000
-7.325258 -1.627996 0.775991 24.000000
-7.520392 -1.572461 0.794506 3.000000
-7.150122 -1.571452 0.757064 33.000000
-6.376434 -1.607566 0.796360 36.000000
-7.440622 -1.458436 0.784083 20.333334
-7.196341 -1.469396 0.759533 21.500000
-8.238991 -1.400916 0.717644 29.000000
-5.633649 -1.408141 0.785481 56.200001
-7.025317 -1.224871 0.737452 23.333334
-6.860812 -1.277769 0.721680 35.000000
-7.322902 -1.174249 0.766939 59.000000
-7.117080 -1.175629 0.745955 46.500000
-7.026771 -1.126852 0.735943 33.000000
-5.217729 -1.167260 0.742392 13.000000
-5.864039 -1.111203 0.722784 11.000000
-5.855790 -1.090592 0.721341 2.000000
-8.304450 -1.005694 0.718329 26.750000
-8.197861 -0.990364 0.709089 45.666668
-7.258495 -0.954312 0.757064 107.000000
-7.066188 -0.951619 0.737315 42.000000
-7.003474 -1.004850 0.731657 28.500000
-6.299258 -0.969547 0.771835 103.000000
-5.318616 -0.946428 0.750094 8.500000
-8.460585 -0.851892 0.730192 86.000000
-8.211618 -0.870320 0.709089 45.000000
-8.889612 -0.773050 0.766240 8.000000
-8.648159 -0.788515 0.745706 36.666668
-7.628367 -0.808504 0.793272 35.000000
-7.389437 -0.759714 0.768173 21.000000
-7.722314 -0.661724 0.801501 26.000000
-7.578531 -0.690822 0.786963 29.000000
-7.233843 -0.674885 0.751304 21.000000
-8.627085 -0.554079 0.742353 10.000000
-7.441403 -0.529490 0.771465 50.000000
-7.157987 -0.531929 0.742252 23.000000
-8.494475 -0.416934 0.730306 34.000000
-7.504420 -0.415621 0.777225 13.000000
-6.591059 -0.468984 0.800207 20.000000
-8.694134 -0.365085 0.747247 12.000000
-7.735633 -0.330980 0.800678 10.000000
-7.572930 -0.387511 0.784151 18.500000
-8.503960 -0.283590 0.730649 6.000000
-7.694333 -0.264717 0.796152 4.666667
-7.558078 -0.228368 0.781957 3.500000
-8.329795 -0.159893 0.715420 7.500000
-9.217767 -0.075615 0.791565 34.000000
-9.142338 -0.017551 0.785062 21.000000
-7.742213 -0.087835 0.800678 78.000000
-7.511689 -0.061620 0.776814 0.000000
-6.253628 -0.090601 0.757408 7.333333
-5.907166 0.143679 0.750539 9.500000
-8.691366 0.283766 0.746733 58.000000
-7.313512 0.223472 0.756653 8.000000
-8.602299 0.362163 0.739351 33.428570
-7.323411 0.308213 0.757990 11.750000
-10.616461 0.430172 0.726588 4.000000
-8.730777 0.477427 0.750840 88.000000
-8.594058 0.470117 0.739090 20.000000
-9.178826 0.530854 0.789511 54.000000
-7.218362 0.576972 0.748835 8.000000
-7.195851 0.666259 0.747327 6.000000
-9.260278 0.740184 0.797725 18.000000
-8.427236 0.753592 0.726542 21.000000
-6.989602 0.769234 0.727166 19.166666
-7.146005 0.812681 0.743761 10.000000
-10.950627 0.979243 0.751831 2.000000
-7.144674 0.911423 0.744824 24.250000
-8.805528 1.011046 0.761107 0.000000
-8.633458 1.073825 0.747075 4.000000
-10.310802 1.085527 0.708986 1.000000
-10.966106 1.224232 0.754560 4.000000
-8.552510 1.282761 0.742626 37.000000
-8.221336 1.206690 0.713537 72.000000
-7.573270 1.233367 0.793477 37.000000
-7.213742 1.247960 0.757064 32.714287
-8.591771 1.316260 0.746391 47.000000
-8.650132 1.548611 0.754604 37.000000
-8.501077 1.577149 0.742455 53.500000
-8.401203 1.558587 0.733729 37.000000
-8.756491 1.695694 0.765898 47.000000
-8.439464 1.703236 0.739318 41.666668
-8.107398 1.689294 0.711142 97.000000
-8.190664 1.868289 0.721409 57.500000
-8.087592 1.889457 0.713195 47.666668
-8.405472 2.042852 0.742798 64.500000
-8.446153 2.151359 0.748444 56.200001
-8.049387 2.171795 0.715933 58.500000
-8.147039 2.202856 0.724717 46.666668
-8.015750 2.271300 0.715420 59.500000
-8.373857 2.330147 0.746391 73.000000
-8.183153 2.374275 0.731675 37.000000
-8.179515 2.415119 0.732360 29.000000
-8.446055 2.580605 0.758369 22.000000
-8.687120 2.609573 0.778902 36.500000
-8.351016 2.620487 0.751593 35.799999
-8.242746 2.603675 0.742284 31.000000
-8.559978 2.763146 0.772400 59.000000
-8.713148 2.926409 0.789283 36.250000
-8.791795 3.037599 0.798751 49.000000
-8.529202 2.991900 0.776164 17.000000
-8.134850 3.173281 0.749813 9.000000
-8.053866 3.190370 0.743881 36.333332
-8.347610 3.392995 0.773769 27.000000
-8.173819 3.427566 0.761107 19.000000
-10.495281 3.570838 0.758108 7.000000
-8.493706 3.514650 0.789340 12.000000
-6.880069 3.529809 0.799649 10.000000
-6.871569 3.593897 0.801912 6.000000
-8.371960 3.771347 0.788485 32.000000
-8.328496 3.699338 0.782553 33.000000
-11.042553 3.795790 0.798497 0.000000
-9.848240 4.129709 0.730272 4.000000
-9.226112 4.880835 0.713762 6.500000
-9.080359 4.895407 0.705439 8.000000
-9.700921 5.328657 0.756880 54.500000
-9.610583 5.437428 0.755106 60.500000
-9.609143 5.536666 0.758381 47.000000
-9.628386 5.601635 0.761746 30.000000
-9.263089 5.772495 0.746373 7.000000
-9.603237 5.859539 0.769297 28.000000
-9.809319 5.943075 0.784306 3.000000
-9.632380 5.918932 0.773117 19.000000
-9.803774 6.066759 0.788399 10.000000
-9.776525 6.178073 0.790855 9.000000
-9.594377 6.233042 0.782396 9.000000
-9.547854 6.638405 0.795222 23.000000
-12.200364 7.284425 0.724052 11.000000
-11.766902 7.432978 0.709193 6.000000
-11.975626 7.670517 0.724663 5.000000
-12.402717 7.780210 0.746037 9.000000
-12.350973 7.965758 0.748886 0.000000
-12.031610 8.030152 0.737080 1.000000
-11.890270 7.989931 0.729956 35.000000
-11.425250 8.374275 0.721813 39.000000
-11.684380 8.479948 0.735655 24.000000
-11.345629 8.414884 0.719778 36.000000
-11.092783 8.429010 0.709905 12.000000
-11.135586 8.614415 0.717386 39.250000
-10.753418 8.652174 0.703290 26.000000
-10.920267 8.909550 0.718149 38.000000
-11.710309 9.162270 0.757639 6.000000
-10.340548 9.135677 0.703086 38.000000
-10.375232 9.283045 0.709396 36.000000
-10.565557 9.393741 0.720388 40.000000
-10.530076 9.481326 0.722017 47.000000
-10.562144 9.600672 0.727309 33.000000
-10.946516 10.044703 0.757029 14.000000
-11.733234 10.170815 0.791226 0.000000
-10.994150 10.152215 0.762525 7.000000
-10.916293 10.294177 0.764560 27.000000
-10.851068 10.449481 0.767614 25.666666
-10.803543 10.524384 0.768530 21.500000
-14.353600 15.807617 0.716899 20.000000
-13.997842 16.012152 0.714080 14.000000
-14.820644 16.117336 0.735153 11.000000
-13.288832 16.569393 0.713140 29.500000
-14.060347 16.815994 0.735959 4.000000
-13.872978 16.805344 0.731663 73.000000
-14.489177 16.892876 0.747234 10.000000
-13.901239 16.947760 0.735959 5.000000
-13.701391 16.919817 0.730992 33.000000
-14.779810 17.014175 0.756696 2.500000
-13.816987 17.283476 0.742938 7.000000
-13.802401 17.376888 0.745086 95.000000
-13.630116 17.327038 0.740187 31.500000
-13.615907 17.477814 0.743878 31.000000
-13.624556 17.602699 0.747368 50.000000
-13.622796 17.715137 0.750321 51.000000
-13.772243 18.065575 0.762714 40.000000
-13.400145 18.003895 0.753542 9.000000
-13.350652 18.055546 0.753945 7.000000
-13.655017 18.107666 0.761461 17.000000
-13.876070 18.889990 0.786964 35.000000
-14.066459 19.275795 0.801192 60.000000
6.966418 21.027542 0.743744 69.500000
7.109223 21.051439 0.746026 44.666668
6.841537 21.093723 0.744549 69.000000
6.767612 21.205729 0.747368 23.000000
5.525334 21.426580 0.742938 70.000000
5.595652 21.420719 0.743341 72.000000
5.673145 21.441683 0.744683 66.000000
5.434541 21.493061 0.744348 53.500000
5.763241 21.508707 0.747636 58.000000
5.853814 21.575378 0.750589 0.000000
5.357773 21.617393 0.747770 20.000000
4.588404 -26.453892 0.901459 26.000000
3.466386 -26.329838 0.891660 12.000000
4.295592 -26.231634 0.892466 39.000000
3.520772 -26.108837 0.884546 16.000000
4.178316 -26.027903 0.885083 10.000000
3.966912 -26.014423 0.883540 29.000000
1.598551 -25.840014 0.869245 3.000000
3.732963 -25.841051 0.876627 15.000000
4.066705 -25.851339 0.878640 14.000000
3.561229 -25.796673 0.874345 34.000000
3.628277 -25.686398 0.870990 27.000000
1.337584 -25.522573 0.858104 5.000000
3.768569 -25.520718 0.866157 13.000000
4.253536 -25.472755 0.867097 6.000000
1.889412 -24.333004 0.819447 2.000000
2.007147 -24.361652 0.820722 3.500000
3.835600 -24.382246 0.828708 12.000000
3.955885 -24.397413 0.829849 8.500000
2.105815 -24.166758 0.814481 27.000000
2.170223 -24.032614 0.810185 27.000000
17.464428 -19.601648 0.881459 11.000000
16.916874 -19.412727 0.864547 8.000000
0.092349 -17.636875 0.898704 26.000000
0.589443 -17.583300 0.896465 30.000000
-0.809030 -17.346594 0.884863 11.500000
-0.072340 -17.269444 0.879977 31.000000
0.525588 -17.301561 0.882013 24.000000
-0.502668 -17.138386 0.873667 7.000000
0.008950 -17.171700 0.874990 30.500000
-0.446313 -17.044039 0.868782 69.000000
-0.551321 -16.977015 0.865525 17.000000
-0.177705 -16.969053 0.864710 24.000000
0.301237 -16.919365 0.862268 51.000000
-0.361947 -16.858217 0.859214 11.500000
0.458615 -16.839901 0.858400 31.000000
-0.253998 -16.728346 0.852497 29.000000
-0.122256 -16.677914 0.849851 26.000000
0.375441 -16.672117 0.849749 26.500000
-0.810565 -15.782697 0.805272 22.000000
-0.968657 -13.018480 0.892714 19.500000
-0.840545 -13.105026 0.898013 20.666666
-1.200181 -12.962154 0.890190 20.000000
-2.768098 -12.879121 0.900833 11.000000
-2.028544 -12.836335 0.888689 17.500000
-1.433123 -12.837053 0.883299 37.000000
-1.303782 -12.902661 0.886824 27.666666
-1.153055 -12.894314 0.885278 22.000000
-2.206964 -12.767123 0.886015 29.400000
-1.551827 -12.805155 0.882071 24.500000
-2.332338 -12.683201 0.881867 35.500000
-2.243401 -12.531038 0.870541 30.000000
-2.547924 -12.228200 0.854168 42.000000
-2.568973 -12.138148 0.848437 28.000000
-2.482235 -12.103228 0.844889 32.000000
-2.316404 -12.062921 0.839977 8.000000
-2.560703 -11.560130 0.809685 52.000000
-4.226742 -11.469414 0.835883 16.000000
-3.198070 -11.354671 0.806683 0.000000
-4.182036 -11.239149 0.820055 34.000000
-2.804853 -10.079824 0.898453 6.000000
-2.654727 -10.112183 0.897768 55.333332
-3.067779 -9.928559 0.892350 27.000000
-2.693615 -9.982920 0.887901 6.500000
-3.569447 -9.844939 0.899251 50.666668
-2.974742 -9.846608 0.883281 24.000000
-3.814889 -9.779640 0.901419 73.000000
-3.213760 -9.746035 0.881227 4.000000
-3.798875 -9.648942 0.890467 66.000000
-3.692783 -9.705592 0.891722 50.000000
-2.841769 -9.661673 0.864801 23.333334
-3.817890 -9.435381 0.874041 58.000000
-3.828271 -9.129392 0.850085 6.000000
-3.760139 -9.209342 0.854192 20.000000
-3.805239 -9.074174 0.844952 22.500000
-3.746545 -9.094307 0.844609 27.000000
-5.070880 -8.194450 0.827498 2.000000
-5.784172 -8.073217 0.852823 8.000000
-5.065036 -8.043047 0.816205 2.500000
-3.892892 -7.752114 0.897059 28.500000
-3.667019 -7.768164 0.888316 27.000000
-3.534016 -7.704852 0.876590 27.833334
-4.086908 -7.524019 0.885436 35.000000
-4.383474 -7.498415 0.898191 7.000000
-4.122937 -7.422485 0.878030 19.000000
-3.822301 -7.479086 0.868567 21.000000
-4.147926 -7.358381 0.873504 12.000000
-4.004470 -7.390528 0.869252 20.333334
-3.940524 -7.309175 0.858692 36.000000
-3.781982 -7.231189 0.843880 42.000000
-4.053142 -7.137722 0.848817 12.000000
-7.523407 -6.409714 0.848716 0.000000
-7.433644 -6.373657 0.840845 4.000000
-4.745038 -6.407776 0.824542 23.500000
-4.615621 -6.344741 0.811375 20.600000
-4.451816 -6.373125 0.803928 25.700001
-5.395370 -6.301559 0.857869 17.000000
-4.686293 -6.307799 0.812610 39.000000
-7.498151 -6.207391 0.835883 16.000000
-4.889079 -6.186163 0.815387 61.500000
-3.980538 -6.127150 0.884845 29.000000
-3.704556 -6.180073 0.872582 0.000000
-5.456460 -6.019748 0.840177 30.000000
-5.005517 -6.100400 0.816038 40.000000
-4.953409 -6.101910 0.812747 45.333332
-3.830865 -6.065377 0.868790 32.538460
-5.033296 -6.011188 0.810758 35.000000
14.769275 -5.937270 0.811107 37.000000
-5.269931 -5.887890 0.817136 63.000000
-5.238542 -5.779565 0.806644 29.000000
14.693605 -5.768787 0.804356 65.250000
14.718677 -5.632271 0.803033 66.666664
14.798695 -5.556568 0.805475 54.000000
14.910891 -5.518584 0.810157 46.000000
-5.016166 -5.464604 0.898310 37.000000
-4.276530 -5.487568 0.842526 58.333332
-4.177131 -5.469453 0.833443 35.333332
-5.002517 -5.319878 0.884364 32.666668
-4.907987 -5.380586 0.881959 56.000000
-5.190628 -5.243440 0.893501 55.000000
-5.038872 -5.241558 0.880517 30.666666
-5.339876 -5.145867 0.898069 24.500000
-5.311643 -5.054782 0.887971 33.500000
-5.570166 -4.898681 0.898310 43.000000
-5.200092 -4.877365 0.863397 26.600000
-5.206785 -4.746266 0.900990 42.615383
-5.355266 -4.628795 0.893223 35.857143
-5.435118 -4.595456 0.861954 30.000000
-5.900203 -4.418814 0.892699 40.666668
-5.629700 -4.429761 0.867533 32.799999
-5.472317 -4.429813 0.852625 29.000000
-5.766782 -4.404319 0.878753 39.333332
-5.559974 -4.358009 0.855510 26.000000
-5.429064 -4.394832 0.845892 32.500000
-6.116896 -4.245047 0.901676 36.000000
-5.770936 -4.237623 0.867052 79.000000
-5.231901 -4.303604 0.820405 26.500000
-6.091030 -4.184683 0.894944 37.000000
-5.865976 -4.111978 0.867533 55.000000
-5.765567 -4.095860 0.856472 87.000000
-6.118464 -4.008386 0.885807 67.000000
-5.550629 -3.995887 0.828260 39.333332
-6.929329 -3.912447 0.822896 34.000000
-6.834743 -3.816768 0.809524 33.000000
-6.134383 -3.828725 0.875708 40.000000
-5.874836 -3.901753 0.854068 51.000000
-5.767741 -3.843934 0.839400 38.500000
-7.426751 -3.714179 0.858692 6.000000
-6.344805 -3.652802 0.886608 23.666666
-6.257522 -3.677081 0.878954 49.000000
-6.079901 -3.654045 0.900685 55.666668
-5.977618 -3.704835 0.851663 56.000000
-5.939788 -3.629931 0.843007 52.000000
-5.771310 -3.652700 0.827138 0.000000
-5.868590 -3.586451 0.832908 41.000000
-5.745774 -3.611308 0.821848 12.000000
-6.970926 -3.513635 0.807261 47.000000
-5.459157 -3.437818 0.895785 23.333334
-6.510958 -3.385005 0.888692 36.799999
-6.471996 -3.228271 0.875868 52.333332
-9.443932 -3.187411 0.855903 9.000000
-9.294306 -3.169473 0.843240 19.000000
-6.465557 -3.157653 0.871380 69.000000
-6.403544 -3.202465 0.867052 18.000000
-6.200438 -2.941873 0.806695 38.400002
-6.345469 -2.903798 0.845091 35.666668
-6.149483 -2.861020 0.821367 44.000000
-8.278097 -2.707299 0.900660 3.000000
-6.637963 -2.618780 0.864166 34.000000
-6.259426 -2.641463 0.822809 49.000000
-6.474364 -2.589587 0.844450 33.000000
-6.417946 -2.602145 0.838679 36.000000
-6.519162 -2.460144 0.843849 32.250000
-6.412700 -2.460294 0.831786 33.000000
-6.426808 -2.327750 0.827779 29.000000
-6.996482 -2.288221 0.891457 57.750000
-6.694827 -2.314992 0.857871 34.545456
-9.495234 -2.032131 0.833829 0.000000
-6.582420 -2.038902 0.834511 26.000000
-7.012491 -1.980370 0.882440 30.000000
-6.639475 -2.010899 0.840122 48.000000
-6.850383 -1.911371 0.861281 13.000000
-6.571327 -1.722672 0.805462 30.285715
-6.121397 -1.779609 0.885149 29.500000
-6.250722 -1.626983 0.896840 35.000000
-7.206468 -1.578869 0.893429 23.350000
-6.682656 -1.540362 0.830504 25.000000
-6.517758 -1.556387 0.811508 23.000000
-7.295748 -1.465840 0.901195 10.000000
-5.902761 -1.447671 0.843890 52.000000
-7.114643 -1.336579 0.876670 34.500000
-7.036503 -1.321988 0.867052 16.500000
-5.733990 -1.387198 0.819135 51.000000
-5.431118 -1.395478 0.878919 13.000000
-5.128808 -1.390993 0.832929 13.500000
-7.250139 -1.279699 0.891577 12.000000
-7.123902 -1.119396 0.873303 12.000000
-8.535810 -1.022322 0.889002 26.333334
-7.940246 -1.018577 0.827833 14.000000
-7.311421 -1.101833 0.895424 14.000000
-5.775944 -1.055917 0.815284 25.000000
-5.011143 -1.074975 0.848911 5.300000
-9.708904 -0.998180 0.838107 3.000000
-7.982886 -0.998567 0.831948 12.000000
-8.357517 -0.912346 0.869389 107.000000
-7.373353 -0.863571 0.899031 15.000000
-9.692755 -0.781562 0.835027 13.000000
-8.035649 -0.775160 0.834828 19.000000
-7.259988 -0.800264 0.884524 22.000000
-7.157205 -0.710322 0.871019 36.750000
-10.116925 -0.528437 0.869934 15.000000
-9.970180 -0.583605 0.857614 1.000000
-7.868596 -0.522701 0.815490 30.000000
-10.277758 -0.504463 0.883623 1.000000
-6.146206 -0.423301 0.892196 7.333333
-10.075583 -0.383562 0.865827 14.500000
-10.033478 -0.334597 0.862063 17.000000
-9.993101 -0.286111 0.858469 14.000000
-9.908690 -0.236972 0.851112 16.000000
-9.763042 -0.141440 0.838449 9.000000
-8.410264 -0.121842 0.869801 10.000000
-9.725830 -0.079889 0.835198 20.000000
-8.621911 -0.043641 0.891608 21.000000
-8.486458 -0.069616 0.877618 27.000000
-6.236098 -0.030477 0.865895 0.000000
-9.632370 0.057149 0.827156 14.500000
-6.191160 0.015063 0.896437 13.000000
-9.599939 0.117291 0.824418 25.000000
-9.520342 0.191062 0.817688 15.666667
-9.428130 0.268270 0.809931 25.000000
-5.855996 0.210637 0.813633 0.000000
-8.271427 0.452307 0.856635 1.500000
-8.568563 0.549586 0.887905 11.000000
-8.556694 0.548837 0.886670 77.000000
-9.893132 0.665771 0.851454 8.000000
-9.692108 0.652659 0.834171 2.500000
-7.330955 0.609137 0.890856 8.000000
-9.513114 0.700213 0.819114 4.500000
-7.153478 0.775854 0.871380 3.000000
-9.667679 0.818693 0.833145 25.000000
-9.857404 0.912710 0.850085 5.000000
-7.320603 1.043199 0.895505 32.333332
-8.421343 1.173045 0.879264 26.333334
-8.414798 1.255296 0.879813 18.666668
-8.078174 1.263565 0.845525 49.000000
-7.724496 1.258013 0.809318 61.000000
-7.914038 1.468208 0.832359 73.000000
-7.733449 1.459854 0.813844 28.000000
-7.738191 1.498558 0.815078 10.000000
-8.425718 1.672923 0.888316 66.000000
-8.336309 1.723015 0.880293 66.000000
-8.235015 1.702434 0.869595 40.500000
-8.429314 1.922805 0.894076 62.833336
-7.123336 1.982171 0.895424 59.000000
-6.964040 1.902541 0.874265 24.000000
-9.269426 1.992271 0.814151 4.000000
-8.426032 2.019828 0.896031 62.000000
-8.402210 2.338064 0.901894 43.000000
-9.303895 2.494711 0.827156 2.000000
-9.051371 2.953200 0.817574 100.000000
-9.095085 3.238517 0.829038 89.000000
-8.969135 3.241472 0.818942 108.000000
-7.903537 3.314228 0.886259 18.000000
-7.783614 3.315831 0.874903 29.799999
-7.601758 3.368897 0.859844 16.200001
-9.307081 3.396700 0.850769 71.000000
-6.933184 3.479445 0.802186 4.666667
-9.391090 3.511257 0.860950 68.000000
-9.366317 3.613056 0.862063 66.800003
-11.162519 3.876280 0.808048 13.000000
-9.439932 3.785262 0.873356 3.000000
-9.096569 3.865007 0.848716 10.500000
-8.825137 3.853779 0.826928 36.666668
-9.092907 3.914141 0.850085 15.000000
-8.653008 3.952525 0.816889 39.000000
-8.525769 3.943044 0.806622 17.000000
-9.038735 4.266803 0.858298 18.000000
-9.102274 4.366908 0.866922 38.799999
-9.434681 4.417518 0.894574 40.000000
-8.988484 4.417040 0.860009 52.000000
-9.235168 4.502295 0.882254 60.000000
-9.095992 4.517319 0.872101 36.333332
-8.862133 4.741881 0.863089 38.000000
-9.165610 4.867289 0.891152 17.000000
-9.149126 4.821744 0.888072 20.000000
-8.916979 4.819377 0.870390 20.666666
-8.770466 4.835394 0.860009 58.500000
-8.700634 4.797068 0.853165 38.000000
-8.617498 4.839891 0.848716 41.500000
-8.535973 4.882627 0.844438 45.500000
-8.640349 4.966331 0.855789 52.000000
-8.805510 5.246996 0.880201 15.333333
-8.492306 5.355854 0.862161 29.714285
-8.469353 5.439360 0.864344 38.000000
-8.709260 5.658021 0.891836 0.000000
-8.718123 5.702806 0.894574 0.000000
-10.953541 5.860935 0.849528 10.000000
-11.119928 5.905107 0.860990 6.000000
-11.310932 6.097954 0.878728 9.000000
-10.681532 6.380129 0.850825 4.750000
-9.889636 6.636764 0.814461 6.250000
-9.700012 6.699086 0.806138 3.000000
-10.485967 6.874851 0.857442 49.333332
-11.043193 7.027166 0.895102 3.000000
-10.056592 7.039085 0.839431 0.000000
-10.912891 7.089623 0.889917 50.000000
-10.187748 7.178683 0.852257 127.000000
-10.126088 7.182945 0.848983 66.000000
-10.470460 7.476779 0.879820 80.000000
-9.801097 7.450164 0.841887 4.000000
-9.612610 7.462933 0.832199 9.000000
-10.454186 7.531394 0.881093 42.000000
-10.308075 7.558163 0.874089 7.666667
-9.523556 7.502375 0.829061 5.000000
-9.984286 7.663983 0.860717 21.000000
-10.389806 7.769738 0.887188 4.000000
-10.228244 7.699144 0.875453 17.000000
-13.482552 8.906998 0.823388 6.000000
-12.809370 11.033365 0.861453 2.000000
-12.221009 11.214199 0.845169 15.000000
-12.306052 11.363651 0.853515 28.000000
-12.346375 11.472962 0.858807 15.000000
-11.988507 11.752418 0.855449 11.500000
-11.945145 11.920214 0.859893 30.000000
-11.912652 12.012875 0.862064 30.000000
-12.753600 12.153578 0.897687 2.000000
-12.623086 12.105108 0.891173 20.000000
-11.970192 12.146981 0.868985 41.000000
-12.511573 12.459273 0.899722 37.000000
-11.990990 12.477906 0.881809 7.000000
-12.209915 12.507756 0.890664 97.500000
-12.138439 12.552168 0.889748 64.000000
-8.870704 14.821860 0.880181 0.000000
-8.787535 14.841125 0.878858 76.500000
-8.685422 14.863344 0.877195 26.666666
-7.872835 15.612646 0.890969 0.000000
-7.705886 15.646686 0.888730 0.000000
-7.566274 15.672583 0.886796 0.000000
-6.238189 15.659972 0.858943 19.000000
-7.498388 15.720692 0.887509 0.000000
-7.445542 15.736950 0.887102 0.000000
-6.150370 15.726192 0.860436 20.000000
-6.116806 15.786410 0.862675 0.000000
4.972987 16.471331 0.876720 4.000000
4.949782 16.582571 0.881809 32.000000
4.872668 16.706615 0.886762 22.000000
4.797924 16.843245 0.892394 20.000000
4.777456 16.973597 0.898501 35.000000
3.652751 17.140347 0.893005 11.000000
3.828497 17.169491 0.896363 20.500000
3.949154 17.201576 0.899315 16.000000
-15.112343 18.722195 0.807836 4.500000
-14.538459 19.153721 0.807367 13.000000
-14.174779 19.552931 0.810856 34.000000
-14.014883 19.525288 0.806964 35.000000
-13.927346 19.597670 0.807232 32.000000
-13.987899 19.814425 0.814346 29.000000
-14.930787 19.929365 0.836091 35.000000
-13.996738 19.959736 0.818507 34.000000
-14.859939 20.096720 0.839178 2.000000
-14.002507 20.102024 0.822534 32.000000
-13.918819 20.116325 0.821326 33.000000
-13.521109 20.212849 0.816494 34.000000
-13.707363 20.352644 0.823876 38.000000
-13.484093 20.295179 0.818105 16.000000
-14.016977 20.463684 0.832802 37.000000
-13.995603 20.640358 0.837299 40.000000
6.942219 22.863794 0.802266 63.000000
6.805750 22.931892 0.803138 48.500000
7.071100 22.899616 0.804682 1.000000
3.667877 -28.553160 0.966558 1.000000
3.816752 -28.303722 0.958907 4.000000
2.892653 -28.087530 0.948035 10.000000
3.240324 -28.005278 0.946558 2.000000
3.052130 -27.913811 0.942800 3.000000
2.949648 -27.784122 0.938102 17.000000
4.561622 -26.799227 0.912734 7.000000
4.718254 -26.461466 0.902465 30.500000
4.885570 -26.437183 0.902667 26.500000
5.017512 -26.453184 0.904009 25.000000
5.109682 -26.484396 0.905620 2.000000
18.373596 -21.974569 0.961726 12.000000
17.891243 -21.126511 0.929512 8.000000
17.481577 -20.974621 0.916760 16.000000
17.683214 -21.014380 0.922129 14.000000
17.864172 -20.960665 0.924680 11.000000
19.125147 -20.930027 0.951927 25.000000
19.250334 -20.934586 0.954880 2.000000
19.431841 -20.801743 0.955753 14.000000
19.958094 -20.768526 0.967095 2.000000
19.465256 -20.641584 0.952599 15.000000
19.565777 -20.618032 0.954344 7.000000
19.729568 -20.210655 0.948303 2.000000
0.164318 -19.613865 0.999465 16.000000
1.454552 -19.121855 0.977176 28.000000
1.548680 -19.164583 0.979720 22.000000
1.303117 -19.114777 0.976260 17.000000
1.359747 -19.062773 0.973817 38.000000
0.267700 -18.258347 0.930459 14.000000
0.899755 -18.266127 0.931884 8.000000
-0.561046 -18.155743 0.925574 20.000000
0.839237 -18.201025 0.928424 5.000000
-0.644329 -18.089046 0.922317 2.000000
0.660637 -18.016502 0.918653 9.000000
0.206565 -17.931545 0.913768 27.000000
0.715482 -17.970428 0.916414 13.000000
0.998769 -17.976917 0.917432 0.000000
0.767477 -17.864325 0.911121 6.000000
0.148857 -17.768324 0.905422 20.000000
-1.523416 -14.470047 0.994982 9.000000
-1.247320 -14.460407 0.992526 9.000000
-1.904729 -14.332203 0.988706 29.000000
-1.791944 -14.407082 0.992799 2.000000
-0.853241 -14.361059 0.983794 4.000000
-1.681275 -14.247639 0.981065 2.000000
-1.547784 -14.270786 0.981610 28.000000
-0.985357 -14.307528 0.980724 7.750000
-0.689693 -14.254959 0.975948 23.250000
-1.174790 -14.138144 0.970149 36.000000
-1.614659 -14.062548 0.967966 7.000000
-2.578297 -13.426760 0.934945 11.000000
-1.076949 -13.473460 0.924302 37.000000
-1.826966 -13.319891 0.919390 2.000000
-2.969506 -13.306834 0.932353 1.000000
-2.610682 -13.257828 0.924029 23.000000
-1.266765 -13.228450 0.908747 17.000000
-2.138667 -13.131915 0.909838 29.000000
-1.876338 -13.142686 0.907860 24.750000
-2.636830 -13.065448 0.911476 3.000000
-2.473921 -13.105393 0.912022 36.000000
-1.985747 -13.099385 0.906018 15.000000
-2.402581 -11.264222 0.989028 7.500000
-2.132765 -11.298147 0.987317 26.000000
-2.747289 -11.126318 0.984123 46.000000
-2.494524 -11.015503 0.969863 42.500000
-2.123156 -11.056561 0.966783 15.000000
-2.008240 -11.017213 0.961650 13.666667
-1.890843 -11.027135 0.960737 1.333333
-2.805511 -11.014488 0.976023 104.000000
-2.285182 -10.967226 0.961992 27.000000
-2.193130 -10.955452 0.959426 10.750000
-2.791306 -10.816533 0.959254 39.000000
-3.495278 -10.656118 0.963019 24.000000
-3.446284 -10.676267 0.963361 32.000000
-4.564117 -10.557257 0.987659 21.750000
-4.460637 -10.590645 0.986803 12.500000
-3.381205 -10.588333 0.954463 46.000000
-3.876230 -10.417302 0.954463 30.000000
-3.609597 -10.447317 0.949159 44.000000
-4.315053 -10.381567 0.965414 3.000000
-3.626941 -10.236485 0.932561 15.000000
-3.541397 -10.302484 0.935504 29.400000
-3.062412 -10.253044 0.918872 32.000000
-3.197873 -10.123872 0.911685 57.000000
-3.999445 -10.019557 0.926401 53.000000
-3.851689 -10.060225 0.925032 57.000000
-3.123611 -10.109495 0.908605 46.000000
-3.330039 -9.992993 0.904499 41.000000
-3.612581 -9.898602 0.904841 41.000000
-5.638680 -9.786192 0.969863 1.000000
-3.898248 -8.825993 0.997761 25.000000
-3.468360 -8.571568 0.956205 48.000000
-3.640272 -8.456683 0.952090 28.000000
-3.423370 -8.347145 0.932958 16.500000
-3.552188 -8.251925 0.929049 31.666666
-4.201026 -8.156796 0.948799 41.000000
-3.433601 -8.116613 0.911357 14.000000
-3.260105 -8.185668 0.911151 16.250000
-4.164313 -8.023488 0.934810 53.000000
-3.853705 -8.064899 0.924318 12.000000
-3.553032 -8.044659 0.909437 24.333334
-3.376152 -8.086797 0.906214 6.500000
-4.221634 -7.889839 0.925346 41.000000
-3.959437 -7.869040 0.910946 35.000000
-3.857445 -7.912126 0.910260 22.000000
-5.612872 -7.705639 0.985829 0.000000
-5.438938 -7.566296 0.963611 4.000000
-4.987189 -7.319175 0.915883 11.000000
-3.856470 -7.317544 1.001702 53.000000
-3.812983 -7.234932 0.990401 50.000000
-3.758726 -7.270008 0.991122 33.500000
-4.215214 -7.107704 1.000740 65.000000
-4.115258 -7.065109 0.990161 40.000000
-4.046058 -7.047786 0.984149 25.500000
-3.820363 -6.965930 0.962131 23.857143
-3.742836 -6.968673 0.957941 33.500000
-5.909959 -6.729533 0.926169 7.000000
-5.715642 -6.739557 0.913826 12.000000
-4.441442 -6.712862 0.974772 18.000000
-4.467601 -6.556631 0.960826 45.000000
-4.670362 -6.497103 0.969001 15.000000
-4.599159 -6.440649 0.958422 31.000000
-4.313333 -6.416498 0.936300 13.000000
-4.788219 -6.361108 0.964192 1.000000
-4.434421 -6.396270 0.942552 31.857143
17.504522 -6.343493 0.948712 38.666668
-4.446523 -6.310360 0.934858 33.000000
17.513416 -6.263814 0.947762 49.000000
-5.010864 -6.119837 0.957872 44.857143
-4.921076 -6.137093 0.952651 56.250000
-4.859042 -6.181371 0.952170 58.333332
-3.603464 -6.117469 0.985822 1.000000
17.570877 -6.201462 0.949458 27.333334
-4.419093 -6.026882 0.905042 1.000000
-3.703150 -6.098597 0.967434 30.272728
-5.156007 -5.964824 0.954815 34.000000
-5.050854 -5.966157 0.946666 27.444445
-4.438512 -5.984158 0.902277 15.750000
-3.772861 -6.009796 0.985272 28.000000
-3.712087 -5.996327 0.979221 31.000000
-5.121892 -5.722493 0.930049 28.000000
-5.059793 -5.749212 0.927484 32.666668
-5.049887 -5.630465 0.915943 35.333332
-6.851013 -5.581576 0.913826 1.000000
-5.481367 -5.525404 0.942552 36.666668
-5.993178 -5.509079 0.985833 33.000000
-5.580752 -5.480495 0.947241 33.750000
-4.151170 -5.459179 0.952265 90.000000
-5.238179 -5.324831 0.904561 50.000000
-4.256448 -5.331960 0.947313 91.000000
-4.049193 -5.377366 0.934661 0.000000
-4.097916 -5.260677 0.925937 26.071428
-4.893124 -5.174328 0.988848 34.500000
-4.022835 -5.188077 0.911555 41.500000
-5.652875 -5.034870 0.916744 51.333332
-5.436200 -4.689092 0.996825 48.000000
-5.195333 -4.596400 0.963189 33.000000
-5.343883 -4.494003 0.927969 27.666666
-5.240432 -4.420931 0.951990 39.500000
-8.203365 -4.232258 0.954559 15.000000
-6.836655 -4.312075 0.978860 17.500000
-6.363731 -4.313430 0.931011 15.000000
-6.264867 -4.275206 0.918507 27.000000
-5.584166 -4.235541 0.973169 47.000000
-5.147834 -4.246480 0.926592 35.333332
-6.560151 -4.180887 0.942071 31.000000
-6.437009 -4.159509 0.928125 41.000000
-6.271871 -4.193899 0.913698 34.000000
-5.455305 -4.192079 0.955290 21.500000
-5.310377 -4.154163 0.936173 29.750000
-5.200623 -4.170509 0.925639 31.200001
-7.195841 -4.062925 1.000740 42.000000
-5.789582 -4.016510 0.978396 56.000000
-6.944921 -3.870995 0.962870 28.500000
-5.621905 -3.809177 0.942913 53.000000
-5.558244 -3.740620 0.930260 34.000000
-7.333145 -3.696209 0.994489 19.000000
-6.710193 -3.569376 0.920431 39.000000
-6.006870 -3.543252 0.968356 51.083336
-5.965909 -3.433308 0.955749 17.666666
-5.699389 -3.487657 0.927784 77.625000
-5.516830 -3.514609 0.908255 51.000000
-6.303726 -3.377195 0.992974 27.000000
-6.102480 -3.232488 0.958866 24.000000
-6.205317 -3.155278 0.945697 54.500000
-6.407909 -3.110064 0.925820 24.250000
-6.131835 -3.089338 0.953365 41.666668
-6.217365 -2.927232 0.954190 40.500000
-6.148823 -3.001637 0.950064 38.000000
18.284971 -2.915687 0.943487 47.000000
-6.388763 -2.838505 0.908394 36.000000
-6.087594 -2.854227 0.933560 35.000000
-5.999793 -2.836089 0.921458 28.000000
-10.275856 -2.763019 0.913739 2.000000
-6.219010 -2.805221 0.947314 38.166668
18.237055 -2.790678 0.940094 58.000000
-6.600417 -2.626625 0.986372 66.000000
-6.438700 -2.656472 0.967118 47.000000
-6.250414 -2.659616 0.943188 37.666668
18.268784 -2.678153 0.940841 51.000000
18.340376 -2.629821 0.944098 20.000000
-7.849919 -2.594591 1.001221 5.000000
-6.531219 -2.528151 0.972436 40.000000
-6.446460 -2.541929 0.962167 29.000000
-8.557621 -2.504045 0.922055 0.000000
-6.690874 -2.509439 0.992240 27.666666
-7.181927 -2.298952 0.913218 37.000000
-6.518609 -2.273067 0.958591 36.750000
-6.438550 -2.262323 0.947589 38.750000
-7.927420 -2.158292 0.994969 13.000000
-7.140104 -2.199426 0.904802 31.500000
-6.767383 -2.211922 0.988573 51.000000
-6.684709 -2.199181 0.977130 33.000000
-7.845962 -2.109658 0.983909 4.000000
-7.227148 -2.057437 0.910012 53.333332
-7.162105 -2.087440 0.903439 43.666668
-6.651453 -2.093373 0.968218 38.500000
-9.339151 -1.952751 0.986652 17.000000
-6.583672 -2.004065 0.955565 38.000000
-9.291717 -1.897155 0.980686 1.500000
-6.588041 -1.848093 0.950064 42.500000
-6.276323 -1.856747 0.908805 48.000000
19.517607 -1.865581 0.999058 32.000000
-6.530394 -1.784087 0.939979 25.333334
-6.331908 -1.772810 0.913022 32.666668
-7.488128 -1.516672 0.925240 8.000000
-7.442227 -1.483052 0.918988 8.000000
-7.605651 -1.367104 0.935820 7.000000
-6.547205 -1.324904 0.927509 74.000000
-6.415493 -1.378064 0.911115 56.200001
-6.184024 -1.373231 0.992888 25.000000
-6.122195 -1.404853 0.956597 21.000000
